0.306963 0.306721 0.300337
0.113340 0.114034 0.114400
0.117854 0.118447 0.122621
0.116907 0.117630 0.117685
0.326558 0.325458 0.318603
0.229195 0.229380 0.229592
0.266578 0.265183 0.264829
0.126242 0.126356 0.126252
0.104548 0.104220 0.104186
0.343524 0.343505 0.345270
0.121258 0.118138 0.114546
0.358364 0.357177 0.356750
0.318548 0.317248 0.315392
0.391808 0.392274 0.392145
0.349287 0.349794 0.350780
0.357569 0.355224 0.348657
0.357807 0.349572 0.349181
0.330396 0.330377 0.330234
0.118851 0.118802 0.120297
0.291362 0.291582 0.291651
0.109876 0.110214 0.110086
0.111033 0.111030 0.111414
0.123229 0.122736 0.122493
0.133910 0.132441 0.132251
0.356821 0.352970 0.357130
0.320276 0.319472 0.319285
0.335154 0.334754 0.333897
0.122669 0.122449 0.123464
0.360502 0.361904 0.368569
0.108136 0.107834 0.107693
0.098168 0.099012 0.099380
0.140684 0.140427 0.140185
0.385532 0.384066 0.383581
0.119792 0.119994 0.119913
0.170092 0.177774 0.179390
0.311468 0.313000 0.314517
0.355008 0.354548 0.354068
0.391822 0.391891 0.391349
0.216388 0.216008 0.213720
0.109634 0.110011 0.109962
0.109993 0.109227 0.109004
0.141047 0.140890 0.140883
0.107358 0.107895 0.108127
0.333735 0.332809 0.333431
0.110911 0.110908 0.110817
0.274850 0.275038 0.275418
0.366041 0.370359 0.370719
0.104497 0.104556 0.104434
0.099678 0.100115 0.100394
0.280125 0.283526 0.285968
0.358173 0.357863 0.357248
0.182576 0.182820 0.182547
0.306371 0.307283 0.307154
0.310602 0.311167 0.311249
0.099364 0.099906 0.101601
0.336053 0.336679 0.336450
0.139809 0.141512 0.142612
0.345176 0.343905 0.350879
0.344095 0.343963 0.343309
0.306293 0.310686 0.312292
0.287845 0.287263 0.283778
0.282679 0.283129 0.283412
0.363331 0.361221 0.357375
0.343744 0.344688 0.337981
0.372432 0.369991 0.358062
0.116858 0.116607 0.117167
0.110205 0.109743 0.110292
0.375016 0.374911 0.372276
0.282353 0.283860 0.284074
0.104966 0.104489 0.104079
0.400397 0.400028 0.406318
0.104425 0.106524 0.106521
0.323556 0.324916 0.323547
0.111068 0.110446 0.110291
0.109865 0.110210 0.110186
0.317834 0.317108 0.317011
0.104497 0.104484 0.104947
0.323207 0.322552 0.318166
0.278564 0.282701 0.285871
0.106398 0.105771 0.105761
0.107355 0.107570 0.107937
0.325750 0.328126 0.327787
0.119232 0.119281 0.119317
0.356464 0.356034 0.354767
0.096221 0.097174 0.097130
0.102057 0.102404 0.103343
0.326445 0.328171 0.327753
0.361755 0.351045 0.347503
0.348424 0.351889 0.354040
0.336149 0.333883 0.333854
0.110172 0.110793 0.109859
0.178140 0.178542 0.178538
0.357548 0.357647 0.357468
0.133141 0.130731 0.130229
0.404704 0.404070 0.404819
0.092955 0.092917 0.093077
0.109071 0.110084 0.110811
0.098937 0.099259 0.099798
0.103342 0.101229 0.100617
0.306980 0.307372 0.306493
0.108555 0.108000 0.108560
0.332591 0.334532 0.333743
0.115271 0.115158 0.116091
0.315586 0.316276 0.316915
0.106284 0.106580 0.106076
0.305582 0.305020 0.304442
0.356924 0.357472 0.359356
0.298728 0.294683 0.290429
0.354234 0.351553 0.352255
0.100170 0.100016 0.099533
0.113464 0.113867 0.114198
0.137367 0.137256 0.137856
0.377947 0.379089 0.378289
0.110911 0.113955 0.115304
0.186300 0.190929 0.193409
0.107444 0.106663 0.107264
0.331509 0.326577 0.324983
0.363459 0.372874 0.383903
0.109899 0.109210 0.109242
0.105376 0.105422 0.106213
0.208395 0.208250 0.214839
0.329697 0.332463 0.331649
0.275544 0.276863 0.277169
0.356115 0.350839 0.346139
0.091879 0.091575 0.090921
0.108493 0.108213 0.107860
0.334959 0.333875 0.334178
0.324674 0.328626 0.331652
0.345809 0.348345 0.349270
0.323635 0.326141 0.328324
0.342415 0.342414 0.343260
0.395477 0.394879 0.393605
0.115303 0.115447 0.115795
0.111893 0.110205 0.109743
0.333891 0.332454 0.332253
0.108445 0.108847 0.108755
0.343659 0.335810 0.331244
0.313901 0.315349 0.317258
0.111078 0.109807 0.108559
0.134115 0.134451 0.134527
0.099989 0.100165 0.099720
0.109660 0.109380 0.108136
0.099502 0.099400 0.099292
0.106319 0.106463 0.107344
0.239996 0.239819 0.240147
0.104648 0.104311 0.103177
0.357038 0.355631 0.348575
0.283642 0.284849 0.286517
0.103752 0.103694 0.103915
0.110587 0.110870 0.110413
0.111321 0.111242 0.112066
0.102349 0.103075 0.102629
0.349800 0.349392 0.352394
0.348356 0.347472 0.344058
0.109106 0.108724 0.108117
0.334730 0.332948 0.334949
0.337242 0.336954 0.337258
0.306281 0.306490 0.307127
0.332002 0.330809 0.326375
0.099353 0.099264 0.100043
0.328086 0.327910 0.327382
0.101557 0.101504 0.102171
0.324167 0.327814 0.328279
0.261902 0.262935 0.264293
0.101831 0.103503 0.106141
0.117936 0.117842 0.117826
0.358285 0.358204 0.355021
0.107227 0.107402 0.107709
0.363806 0.362524 0.359096
0.116656 0.116792 0.117024
0.298411 0.299190 0.300048
0.106615 0.106759 0.106678
0.140586 0.140830 0.140821
0.318229 0.322564 0.333966
0.378587 0.377609 0.376997
0.327132 0.326522 0.330731
0.333876 0.333902 0.333758
0.381908 0.376327 0.374939
0.317130 0.314926 0.315697
0.111724 0.113223 0.119158
0.329831 0.329770 0.328571
0.104929 0.106254 0.106358
0.091742 0.091826 0.092351
0.333393 0.334662 0.333948
0.362804 0.361254 0.346835
0.352507 0.353371 0.354139
0.101170 0.100887 0.100654
0.104778 0.105894 0.106170
0.357032 0.358443 0.362432
0.110999 0.110900 0.110692
0.106245 0.106486 0.104483
0.101452 0.102113 0.102713
0.353122 0.356395 0.358351
0.099949 0.099464 0.100320
0.307330 0.308487 0.309328
0.326942 0.324537 0.320729
0.239114 0.239945 0.240325
0.264187 0.263310 0.262923
0.383411 0.384269 0.384608
0.180731 0.175255 0.166692
0.277020 0.276584 0.277817
0.105201 0.103073 0.102424
0.116994 0.116683 0.116903
0.104789 0.105133 0.103182
0.111425 0.110847 0.111112
0.104221 0.103484 0.102904
0.103070 0.103377 0.103873
0.102694 0.102727 0.102539
0.322705 0.322493 0.322725
0.101523 0.101370 0.101506
0.323306 0.323473 0.325516
0.122656 0.122581 0.122443
0.137674 0.133158 0.126879
0.102851 0.103107 0.102914
0.111921 0.113979 0.114172
0.298967 0.299589 0.299602
0.115923 0.116515 0.116551
0.103830 0.103744 0.102377
0.100391 0.100288 0.100267
0.368245 0.366922 0.363396
0.106318 0.107183 0.107925
0.322961 0.323765 0.322634
0.223751 0.223596 0.223491
0.333844 0.334945 0.335029
0.127218 0.127526 0.127743
0.138483 0.131455 0.122756
0.109512 0.109388 0.108826
0.098891 0.098636 0.098705
0.099598 0.100519 0.099841
0.120807 0.120856 0.122225
0.107589 0.106972 0.107193
0.104574 0.104143 0.104361
0.113497 0.113444 0.113804
0.111232 0.110948 0.110359
0.112844 0.112180 0.112083
0.098452 0.098801 0.097610
0.335365 0.334765 0.334869
0.105396 0.105160 0.104851
0.112318 0.112562 0.112059
0.117158 0.116850 0.117616
0.355813 0.338465 0.333876
0.112855 0.113040 0.111575
0.103429 0.103199 0.103363
0.106625 0.106451 0.106462
0.101302 0.101535 0.102059
0.319625 0.319741 0.318526
0.104525 0.105368 0.105609
0.317754 0.317335 0.317810
0.107624 0.107580 0.107481
0.327180 0.326675 0.326281
0.349679 0.352093 0.352303
0.374643 0.375951 0.375994
0.383386 0.382173 0.381616
0.107561 0.107166 0.107191
0.102225 0.102407 0.102114
0.182001 0.176847 0.168516
0.107817 0.108258 0.108480
0.141559 0.141293 0.139873
0.288285 0.286445 0.281543
0.098142 0.098009 0.097954
0.113136 0.111996 0.111686
0.388934 0.390161 0.393365
0.326815 0.336150 0.338526
0.101295 0.101723 0.101047
0.276587 0.274861 0.274294
0.110201 0.110044 0.110587
0.307040 0.307616 0.308091
0.314448 0.316704 0.317279
0.355680 0.354569 0.352195
0.090636 0.090742 0.091388
0.385134 0.384272 0.383586
0.352421 0.349063 0.345417
0.113385 0.113039 0.112739
0.101881 0.102258 0.102941
0.358694 0.355137 0.352873
0.122759 0.123187 0.123095
0.298549 0.299109 0.294846
0.405604 0.405369 0.404981
0.109997 0.109202 0.108201
0.345904 0.349018 0.349373
0.112066 0.110975 0.111128
0.383637 0.383762 0.382890
0.274639 0.273989 0.273303
0.104413 0.103686 0.103108
0.110378 0.110442 0.110220
0.332688 0.327762 0.326956
0.423955 0.423799 0.425503
0.108601 0.108570 0.109004
0.344402 0.345571 0.344478
0.099994 0.100147 0.100199
0.105335 0.105001 0.104907
0.099277 0.099495 0.099244
0.325165 0.329020 0.330245
0.108395 0.108773 0.109348
0.105848 0.106403 0.105928
0.112247 0.110848 0.110928
0.361136 0.360360 0.360502
0.132083 0.134258 0.134524
0.109042 0.108732 0.108132
0.297107 0.302557 0.303457
0.350954 0.348629 0.338304
0.265272 0.264714 0.264179
0.367197 0.359261 0.347679
0.276516 0.276301 0.275831
0.090307 0.090384 0.090125
0.333662 0.334283 0.334387
0.256424 0.256482 0.256618
0.340677 0.337843 0.335120
0.101980 0.102462 0.102814
0.164613 0.164416 0.164615
0.122981 0.123666 0.124262
0.104404 0.104234 0.103594
0.118523 0.119054 0.117762
0.099407 0.099918 0.099809
0.292831 0.287712 0.286003
0.104788 0.104839 0.104848
0.099698 0.100043 0.099937
0.345654 0.345671 0.344671
0.109670 0.110016 0.109487
0.320921 0.334262 0.338942
0.284666 0.287570 0.287346
0.202962 0.202486 0.200906
0.285017 0.285652 0.286832
0.108283 0.108036 0.108282
0.114668 0.115010 0.114530
0.323241 0.329577 0.330495
0.355870 0.350818 0.349079
0.347088 0.348265 0.352412
0.101033 0.101533 0.102365
0.121774 0.122374 0.119184
0.283993 0.284795 0.287802
0.104379 0.104809 0.105372
0.107927 0.108192 0.107633
0.109134 0.108786 0.108322
0.223702 0.223276 0.224020
0.287713 0.287595 0.287717
0.122761 0.123572 0.123272
0.405572 0.402324 0.402054
0.100498 0.100922 0.101240
0.333881 0.339012 0.341440
0.115675 0.113960 0.114050
0.102650 0.102219 0.102550
0.111926 0.112131 0.113136
0.112719 0.112293 0.112121
0.351996 0.351583 0.353593
0.323744 0.336167 0.346683
0.360882 0.340177 0.335619
0.109026 0.109594 0.109787
0.306897 0.306186 0.305525
0.107931 0.107671 0.107853
0.291649 0.293968 0.297176
0.107178 0.106153 0.108139
0.104063 0.103977 0.102969
0.333665 0.333270 0.333187
0.289287 0.289083 0.289092
0.108447 0.109711 0.110153
0.237647 0.238958 0.239946
0.303905 0.304620 0.305003
0.102405 0.103977 0.103933
0.344327 0.348932 0.350491
0.415051 0.414306 0.411796
0.300925 0.303968 0.304700
0.339438 0.341054 0.347006
0.358379 0.357498 0.358373
0.292891 0.291362 0.291582
0.325230 0.323973 0.326150
0.179294 0.178818 0.177240
0.398909 0.396257 0.386457
0.340706 0.340131 0.340151
0.378342 0.382774 0.382473
0.298199 0.303154 0.314312
0.258789 0.258425 0.257394
0.106333 0.105245 0.105199
0.389073 0.388907 0.387379
0.099694 0.099478 0.099235
0.364982 0.360524 0.357265
0.264412 0.264710 0.264443
0.129420 0.128956 0.129305
0.102133 0.102456 0.103011
0.181811 0.183131 0.183886
0.112234 0.111671 0.111781
0.279533 0.280026 0.280923
0.103942 0.104170 0.104221
0.326733 0.329980 0.338689
0.107191 0.108170 0.108310
0.101213 0.101516 0.101282
0.346623 0.348239 0.348458
0.377730 0.377643 0.378978
0.100532 0.100712 0.100802
0.299846 0.300114 0.299611
0.299417 0.302661 0.300311
0.099297 0.099640 0.098356
0.106689 0.107546 0.110655
0.361830 0.361590 0.361683
0.304734 0.304847 0.305183
0.292921 0.285709 0.282714
0.098576 0.098629 0.098566
0.237306 0.220881 0.216642
0.106388 0.105901 0.106668
0.331606 0.331127 0.330887
0.099699 0.099274 0.099133
0.103484 0.103437 0.102878
0.337039 0.337491 0.336957
0.105211 0.105500 0.105592
0.113721 0.114364 0.113775
0.342041 0.341624 0.341137
0.107877 0.107942 0.107793
0.100467 0.100146 0.099868
0.101781 0.101965 0.103447
0.107080 0.107380 0.107286
0.303978 0.306422 0.306451
0.125015 0.128516 0.143070
0.365432 0.353012 0.344658
0.328433 0.327052 0.326537
0.320791 0.319855 0.320440
0.111424 0.111814 0.113567
0.281543 0.282000 0.281939
0.108605 0.108022 0.106906
0.344099 0.343983 0.344035
0.098745 0.097741 0.098098
0.105375 0.105506 0.107973
0.109019 0.108534 0.108358
0.328906 0.329222 0.327592
0.259945 0.269802 0.274257
0.228936 0.229520 0.229322
0.383494 0.383856 0.384717
0.116311 0.116488 0.116585
0.345374 0.345957 0.346276
0.361163 0.359856 0.351256
0.393867 0.393605 0.393602
0.111304 0.111222 0.111125
0.101622 0.101074 0.100343
0.111066 0.110766 0.111526
0.338714 0.336088 0.335523
0.275178 0.274497 0.273979
0.104052 0.103601 0.105378
0.115562 0.117226 0.115084
0.102351 0.102683 0.102476
0.105884 0.105918 0.105840
0.107610 0.108169 0.108244
0.108318 0.108039 0.107484
0.137543 0.137741 0.137211
0.364651 0.364870 0.366245
0.111241 0.111415 0.110830
0.282434 0.284207 0.284442
0.330577 0.331478 0.331810
0.383174 0.382028 0.381100
0.366627 0.365104 0.365266
0.281816 0.282527 0.284749
0.291764 0.290594 0.289701
0.111225 0.110904 0.110535
0.107416 0.107323 0.106882
0.112711 0.113348 0.113179
0.256678 0.256479 0.256667
0.126867 0.125801 0.125740
0.120682 0.120461 0.120255
0.384066 0.383654 0.383924
0.102983 0.102918 0.102519
0.399429 0.398978 0.398846
0.343972 0.344809 0.344765
0.335523 0.335761 0.336024
0.339214 0.339132 0.343008
0.115548 0.115901 0.113827
0.338447 0.336669 0.337923
0.355292 0.355188 0.355153
0.366335 0.365124 0.353132
0.106818 0.106989 0.106767
0.111383 0.111294 0.110003
0.348842 0.359690 0.356303
0.105754 0.105749 0.105617
0.327741 0.328133 0.325625
0.260509 0.260047 0.258783
0.088147 0.087782 0.087945
0.239348 0.237686 0.236749
0.107197 0.106659 0.107204
0.104205 0.103684 0.103353
0.281100 0.281290 0.281730
0.318695 0.318374 0.318392
0.098233 0.098173 0.098213
0.118011 0.118710 0.119164
0.341222 0.345180 0.345582
0.334754 0.333897 0.334535
0.107450 0.108131 0.107830
0.314803 0.314203 0.312356
0.099388 0.099543 0.099364
0.354435 0.366788 0.368562
0.097262 0.097095 0.097551
0.327808 0.328653 0.328295
0.322090 0.322794 0.328464
0.239946 0.240226 0.240567
0.118975 0.120103 0.120314
0.336194 0.337615 0.342735
0.093254 0.093027 0.092711
0.294230 0.296481 0.299749
0.138485 0.138576 0.138087
0.303412 0.305248 0.304873
0.114439 0.114643 0.115397
0.320934 0.318496 0.317908
0.300260 0.299932 0.299881
0.320341 0.319804 0.319172
0.364306 0.367587 0.367381
0.333637 0.345079 0.356405
0.386912 0.393201 0.395300
0.307113 0.305113 0.305314
0.256396 0.270256 0.272265
0.261490 0.264090 0.271509
0.115505 0.115244 0.114860
0.335872 0.335863 0.336282
0.371738 0.368194 0.368581
0.112869 0.112956 0.112859
0.090192 0.090813 0.091074
0.372420 0.372397 0.368869
0.296621 0.297521 0.297114
0.350609 0.348886 0.340145
0.107980 0.107547 0.106568
0.333103 0.331370 0.332348
0.292385 0.289318 0.288574
0.101893 0.102648 0.102275
0.325454 0.325548 0.322659
0.114164 0.113787 0.113673
0.343076 0.342982 0.343249
0.139758 0.138563 0.138095
0.123936 0.123716 0.123736
0.328157 0.331204 0.330673
0.104128 0.104250 0.104051
0.305550 0.302996 0.300309
0.349603 0.339339 0.339996
0.331430 0.330646 0.336662
0.351246 0.351215 0.351981
0.101449 0.101379 0.101736
0.359871 0.353211 0.352043
0.106342 0.105882 0.105287
0.107744 0.107635 0.107902
0.094741 0.095401 0.095343
0.320407 0.318373 0.318059
0.106819 0.106124 0.107350
0.322099 0.310342 0.308931
0.335013 0.334532 0.334301
0.107942 0.107979 0.107725
0.108745 0.108870 0.108538
0.326102 0.326294 0.327152
0.369196 0.369436 0.368976
0.108620 0.109012 0.109181
0.372958 0.372420 0.372397
0.100700 0.099041 0.098373
0.099879 0.099970 0.099881
0.107299 0.106742 0.106763
0.107783 0.107709 0.107617
0.337623 0.323840 0.317747
0.337862 0.338019 0.338330
0.325923 0.330775 0.331968
0.106242 0.106681 0.106569
0.111796 0.111248 0.111462
0.340026 0.335366 0.332954
0.313981 0.310825 0.308730
0.318590 0.318401 0.318086
0.357782 0.357352 0.358733
0.125231 0.126070 0.125802
0.329837 0.330964 0.334570
0.315094 0.315446 0.315302
0.095499 0.094557 0.094376
0.110497 0.110624 0.110232
0.374439 0.373512 0.373623
0.422252 0.419081 0.417306
0.355340 0.357364 0.360677
0.107139 0.106598 0.105385
0.338731 0.339458 0.338408
0.104673 0.104082 0.104212
0.100225 0.100265 0.100017
0.110847 0.111151 0.111569
0.322577 0.322729 0.322101
0.360082 0.359344 0.359785
0.359418 0.359273 0.358663
0.326098 0.326271 0.326339
0.330161 0.329483 0.330904
0.113346 0.112919 0.112565
0.104301 0.103828 0.104233
0.111835 0.111250 0.111280
0.101108 0.101271 0.101630
0.357551 0.358521 0.359076
0.317078 0.312224 0.306928
0.346662 0.343092 0.345800
0.105938 0.105943 0.106554
0.113072 0.112505 0.110774
0.324970 0.325319 0.324647
0.176094 0.176003 0.175991
0.107460 0.107240 0.107386
0.356630 0.358330 0.354953
0.294881 0.296480 0.298542
0.099818 0.099638 0.100176
0.105833 0.106754 0.107426
0.108358 0.107532 0.107079
0.092817 0.092661 0.093980
0.119284 0.118935 0.118746
0.361535 0.362398 0.362576
0.122483 0.122165 0.121338
0.177240 0.176518 0.175577
0.090476 0.090722 0.090513
0.271875 0.275348 0.279967
0.101537 0.101345 0.101407
0.120743 0.121623 0.129406
0.114646 0.115221 0.116020
0.315252 0.315993 0.316582
0.331437 0.330166 0.329918
0.323406 0.323029 0.323890
0.108605 0.108842 0.107850
0.317078 0.317195 0.315505
0.333702 0.333810 0.330665
0.106080 0.105989 0.104451
0.340753 0.340325 0.340457
0.353003 0.361008 0.356462
0.327569 0.324537 0.327779
0.294369 0.294348 0.293807
0.343513 0.341284 0.341748
0.106587 0.106586 0.104316
0.105368 0.103945 0.104284
0.108937 0.107918 0.107728
0.114430 0.114336 0.114568
0.322898 0.315094 0.313661
0.256532 0.258673 0.261175
0.388500 0.394102 0.395369
0.098702 0.099441 0.099989
0.357325 0.356154 0.353887
0.383654 0.383924 0.382973
0.113293 0.113712 0.115016
0.098308 0.098026 0.098119
0.109384 0.109106 0.108724
0.247919 0.254308 0.255849
0.353527 0.350246 0.348070
0.103799 0.103292 0.103422
0.108025 0.108067 0.107079
0.125297 0.125501 0.125089
0.351186 0.353819 0.356270
0.111824 0.112412 0.111301
0.106239 0.105764 0.105487
0.354548 0.354068 0.354199
0.340910 0.339422 0.340946
0.314281 0.313008 0.312837
0.354883 0.355227 0.352949
0.344276 0.343988 0.345911
0.326194 0.326302 0.326628
0.111262 0.111068 0.110700
0.270465 0.275537 0.277333
0.334103 0.333292 0.332671
0.313927 0.313467 0.310442
0.103898 0.103786 0.103243
0.107796 0.107743 0.107565
0.112346 0.113407 0.112693
0.113950 0.116690 0.118390
0.325814 0.326145 0.324687
0.137996 0.148327 0.151434
0.103364 0.103242 0.104047
0.104350 0.104719 0.104632
0.296514 0.297008 0.297292
0.104512 0.105648 0.105791
0.339847 0.340173 0.340416
0.105618 0.106112 0.110343
0.354337 0.354217 0.354836
0.309462 0.309324 0.298962
0.317051 0.321478 0.330289
0.099347 0.099320 0.099092
0.167914 0.168994 0.169330
0.324790 0.325140 0.324577
0.416238 0.414180 0.414091
0.342938 0.341155 0.339104
0.106270 0.106428 0.110326
0.341997 0.335590 0.333845
0.182088 0.181940 0.180731
0.376509 0.376396 0.373974
0.325574 0.324589 0.325046
0.334993 0.333811 0.323604
0.193710 0.203190 0.211547
0.347361 0.346810 0.346918
0.098570 0.098347 0.098217
0.368547 0.369519 0.365757
0.364027 0.357339 0.351061
0.110065 0.109690 0.109681
0.176506 0.176429 0.180148
0.104229 0.103950 0.103121
0.104274 0.101989 0.101755
0.118696 0.118840 0.118877
0.158358 0.157509 0.158018
0.119538 0.120321 0.119905
0.325784 0.324795 0.322724
0.165933 0.164377 0.163225
0.320540 0.310254 0.307778
0.348255 0.348339 0.344857
0.100618 0.102391 0.100639
0.326140 0.324932 0.325873
0.113415 0.111452 0.110664
0.372649 0.372336 0.371147
0.350717 0.349721 0.347296
0.355624 0.355278 0.355303
0.105662 0.103370 0.103548
0.109157 0.108867 0.108664
0.339957 0.339372 0.337688
0.107861 0.108102 0.108691
0.107118 0.106819 0.106124
0.297415 0.296528 0.296936
0.108196 0.108547 0.109061
0.195768 0.196509 0.200642
0.318448 0.323567 0.324141
0.268534 0.271836 0.271788
0.100737 0.103674 0.102630
0.099605 0.099842 0.099715
0.107644 0.108312 0.108815
0.324554 0.325369 0.325521
0.113364 0.113437 0.113394
0.123102 0.123192 0.123165
0.338772 0.337936 0.337943
0.109643 0.109743 0.109722
0.113075 0.113053 0.113143
0.117132 0.117099 0.117213
0.374504 0.370712 0.369463
0.111993 0.111506 0.111516
0.337689 0.337931 0.338018
0.346510 0.345803 0.346591
0.325184 0.310959 0.300925
0.101730 0.101768 0.103567
0.345019 0.343447 0.334049
0.307891 0.312754 0.313435
0.324688 0.324199 0.324486
0.109017 0.109408 0.109367
0.102360 0.103004 0.102683
0.317467 0.317026 0.316697
0.139135 0.139266 0.138555
0.310155 0.309978 0.321636
0.132329 0.131694 0.131736
0.325787 0.325638 0.327073
0.100498 0.101877 0.102144
0.394076 0.391588 0.391250
0.353371 0.354139 0.354601
0.181891 0.179434 0.171602
0.107292 0.108818 0.109038
0.116768 0.115745 0.116001
0.102236 0.100718 0.101170
0.345951 0.346077 0.342570
0.110153 0.110444 0.110201
0.171654 0.170017 0.167663
0.326023 0.326250 0.326809
0.343810 0.343541 0.343106
0.315292 0.314084 0.319300
0.101417 0.101707 0.101964
0.318481 0.316279 0.316923
0.132294 0.133537 0.134138
0.346898 0.347595 0.351558
0.218407 0.216388 0.216008
0.319311 0.319353 0.318782
0.357687 0.359751 0.359407
0.344560 0.345151 0.343244
0.337795 0.345671 0.346041
0.393851 0.393339 0.393079
0.358688 0.369148 0.371195
0.424103 0.425438 0.422405
0.125247 0.124682 0.125275
0.109954 0.110735 0.109219
0.104604 0.104377 0.104347
0.359444 0.350725 0.346622
0.267330 0.267192 0.266830
0.101401 0.101224 0.101017
0.114763 0.113316 0.112834
0.109820 0.110074 0.110035
0.339179 0.340468 0.346926
0.364916 0.362764 0.358480
0.337216 0.335793 0.331886
0.108770 0.108696 0.109118
0.319476 0.319752 0.319256
0.251833 0.252642 0.255646
0.140434 0.142359 0.142708
0.125520 0.125386 0.125403
0.297823 0.299358 0.301004
0.105591 0.105625 0.105610
0.378672 0.378494 0.378791
0.102939 0.101965 0.101539
0.127041 0.131330 0.146527
0.367614 0.367194 0.367298
0.103957 0.103371 0.102640
0.103560 0.103840 0.103671
0.340428 0.340961 0.341945
0.109362 0.107408 0.108176
0.119868 0.117667 0.117163
0.391812 0.391770 0.391517
0.365528 0.362827 0.362113
0.131185 0.131127 0.130559
0.356912 0.360417 0.360878
0.325412 0.325033 0.324688
0.302418 0.305566 0.306957
0.100135 0.099929 0.099566
0.100166 0.099268 0.100381
0.122870 0.123607 0.123825
0.108868 0.108753 0.108884
0.110128 0.110410 0.109772
0.116097 0.116387 0.116542
0.341629 0.343650 0.372490
0.108887 0.109459 0.108795
0.107224 0.106499 0.105921
0.130668 0.130319 0.131084
0.306269 0.308308 0.308224
0.177186 0.177855 0.178234
0.346473 0.349523 0.350470
0.123451 0.124597 0.122203
0.100038 0.100850 0.101198
0.332746 0.331493 0.331928
0.101849 0.100671 0.101298
0.295744 0.294817 0.295053
0.117209 0.120861 0.120891
0.382821 0.383800 0.386769
0.117770 0.117798 0.117050
0.334049 0.334771 0.334504
0.300138 0.299337 0.298836
0.108352 0.108958 0.108443
0.098673 0.097224 0.097245
0.133811 0.134433 0.134507
0.336859 0.336789 0.336529
0.114013 0.114598 0.114865
0.352338 0.351343 0.348488
0.100004 0.099709 0.099618
0.100830 0.101042 0.101593
0.325682 0.323095 0.317682
0.343873 0.346534 0.344754
0.181965 0.178527 0.178764
0.332776 0.328675 0.325049
0.337163 0.338095 0.337601
0.402383 0.401272 0.401680
0.281923 0.288132 0.296018
0.271931 0.274268 0.280434
0.297172 0.297865 0.299931
0.357130 0.357396 0.347107
0.098960 0.098558 0.098811
0.331261 0.330465 0.330297
0.098382 0.098224 0.099239
0.101370 0.101506 0.100001
0.347920 0.347653 0.346668
0.341245 0.342734 0.344468
0.370643 0.371112 0.369912
0.116209 0.116091 0.110374
0.339355 0.341435 0.342729
0.126187 0.125730 0.125425
0.427215 0.435450 0.435747
0.103877 0.104612 0.104831
0.250485 0.250784 0.251006
0.293878 0.294002 0.293609
0.192284 0.198448 0.200703
0.108882 0.108748 0.108414
0.328563 0.321318 0.318890
0.097460 0.097588 0.097169
0.111674 0.111774 0.111488
0.111423 0.112034 0.111934
0.209288 0.209389 0.209859
0.336907 0.333776 0.333195
0.243664 0.243216 0.245467
0.238686 0.211199 0.201681
0.143070 0.150969 0.153023
0.176587 0.176005 0.176134
0.112486 0.113095 0.113199
0.291113 0.288491 0.288473
0.322786 0.328546 0.332438
0.116294 0.116724 0.116579
0.331241 0.322298 0.322627
0.276510 0.279124 0.280321
0.108550 0.108365 0.107566
0.282322 0.282642 0.288486
0.089892 0.089857 0.089936
0.264444 0.260213 0.257270
0.350550 0.351742 0.355687
0.348156 0.348068 0.347935
0.330674 0.330979 0.333758
0.257378 0.271942 0.274623
0.375185 0.373826 0.368420
0.131577 0.132452 0.132606
0.382756 0.382866 0.382515
0.358114 0.357635 0.360139
0.328521 0.332591 0.334532
0.333815 0.333078 0.333927
0.121242 0.120105 0.119974
0.116062 0.115577 0.115515
0.110613 0.112534 0.112230
0.106078 0.105141 0.105239
0.335065 0.335182 0.342487
0.336715 0.333261 0.333412
0.103090 0.103023 0.102775
0.359037 0.359956 0.359924
0.116878 0.117218 0.120833
0.433744 0.431793 0.425041
0.306305 0.306327 0.306538
0.321321 0.321677 0.323443
0.102805 0.106672 0.105311
0.258419 0.255532 0.246984
0.351933 0.353860 0.354412
0.338552 0.335475 0.329930
0.091764 0.091249 0.089844
0.344174 0.343339 0.342760
0.117158 0.117092 0.115861
0.110191 0.109933 0.109735
0.103119 0.102688 0.102456
0.308703 0.310426 0.313766
0.203995 0.204819 0.206597
0.295647 0.298446 0.298411
0.108040 0.109018 0.109051
0.118288 0.118380 0.117138
0.330718 0.328935 0.330063
0.102677 0.103460 0.104211
0.107989 0.108066 0.108429
0.106637 0.106723 0.106813
0.350159 0.350131 0.357209
0.334864 0.336240 0.340564
0.348903 0.349039 0.349136
0.109565 0.111580 0.111938
0.341181 0.341386 0.341911
0.349497 0.347327 0.347132
0.324388 0.324869 0.327059
0.104398 0.104383 0.103899
0.138084 0.137254 0.137333
0.109399 0.108871 0.108727
0.108076 0.108692 0.108743
0.107109 0.107078 0.106937
0.357117 0.356216 0.348913
0.335028 0.334651 0.336785
0.099281 0.098877 0.098498
0.095718 0.095618 0.095878
0.098708 0.098012 0.097820
0.106334 0.107219 0.107962
0.404760 0.401232 0.393853
0.090149 0.090058 0.088522
0.370574 0.370387 0.359533
0.290175 0.290467 0.290910
0.106595 0.105883 0.106113
0.393737 0.393349 0.391299
0.103933 0.103935 0.104182
0.112959 0.112234 0.113138
0.110709 0.110385 0.110503
0.098804 0.098518 0.097411
0.107554 0.108547 0.109398
0.113177 0.112552 0.113451
0.332462 0.332847 0.333634
0.259439 0.267284 0.273918
0.112436 0.114240 0.113971
0.113815 0.111766 0.111932
0.372609 0.372083 0.373433
0.317989 0.322036 0.324711
0.258357 0.260622 0.261796
0.122410 0.123075 0.122680
0.126692 0.126372 0.125733
0.097631 0.098208 0.098355
0.111169 0.110682 0.110626
0.324442 0.325710 0.332083
0.331816 0.332688 0.335899
0.290583 0.290767 0.291151
0.344238 0.344630 0.345719
0.317977 0.319106 0.319980
0.325929 0.325974 0.326608
0.301178 0.302348 0.303510
0.098038 0.097740 0.097678
0.108406 0.108570 0.108245
0.320203 0.317941 0.316905
0.105491 0.105965 0.105553
0.100940 0.101485 0.102661
0.339212 0.342028 0.337823
0.330810 0.334040 0.334608
0.322557 0.323221 0.334023
0.366828 0.367368 0.367095
0.098973 0.098190 0.097075
0.110085 0.110314 0.109978
0.293604 0.290528 0.285603
0.334704 0.334314 0.334030
0.104608 0.103715 0.103472
0.181994 0.182978 0.182889
0.106471 0.106314 0.105903
0.107448 0.107834 0.107916
0.097506 0.097459 0.096736
0.274643 0.274959 0.275212
0.113223 0.119158 0.119598
0.105520 0.105746 0.107129
0.095185 0.095405 0.095626
0.097125 0.097633 0.097595
0.113959 0.114108 0.113781
0.115297 0.113740 0.113341
0.321677 0.323443 0.325935
0.112342 0.112847 0.113211
0.336768 0.338022 0.345193
0.338214 0.327881 0.327577
0.123360 0.123295 0.123618
0.113175 0.112565 0.112173
0.123063 0.124154 0.123105
0.107147 0.107136 0.108013
0.306052 0.306488 0.306942
0.093447 0.092920 0.092576
0.103715 0.103472 0.102986
0.368522 0.371217 0.373058
0.383856 0.384717 0.384066
0.331083 0.332137 0.333097
0.316270 0.315370 0.320118
0.368580 0.367961 0.369052
0.117753 0.117275 0.117776
0.325680 0.326277 0.326746
0.116300 0.115863 0.116072
0.099133 0.099723 0.100052
0.325496 0.325376 0.323345
0.126995 0.144569 0.155090
0.113126 0.113506 0.112950
