0.266486 0.257818 0.255585
0.259497 0.260624 0.261009
0.197768 0.198419 0.198932
0.226378 0.225253 0.220722
0.210489 0.210444 0.210293
0.221556 0.222298 0.223039
0.241860 0.242203 0.242339
0.248449 0.250092 0.250083
0.268358 0.267529 0.266672
0.261835 0.260417 0.250702
0.140805 0.140451 0.140007
0.235698 0.239814 0.239699
0.255496 0.256377 0.256570
0.278605 0.271153 0.264715
0.246643 0.246378 0.241770
0.158502 0.158247 0.158219
0.245252 0.240039 0.239394
0.240098 0.239565 0.240823
0.234451 0.227048 0.229164
0.211887 0.216928 0.215983
0.235944 0.238944 0.240398
0.246651 0.249487 0.253314
0.203334 0.203731 0.204634
0.159164 0.158962 0.159133
0.268120 0.268205 0.268197
0.227701 0.229610 0.229454
0.250469 0.247880 0.249032
0.192323 0.192064 0.191848
0.271561 0.267989 0.267821
0.204159 0.203908 0.203322
0.261274 0.262100 0.262382
0.180485 0.180072 0.181173
0.202642 0.202022 0.202151
0.266247 0.267490 0.269621
0.204427 0.202764 0.200674
0.249647 0.248084 0.248035
0.224962 0.224174 0.223989
0.214230 0.213331 0.212987
0.172978 0.176531 0.176207
0.211619 0.211845 0.211339
0.244296 0.242451 0.242130
0.236162 0.236367 0.237140
0.287302 0.288206 0.290139
0.223426 0.224004 0.233351
0.270800 0.269061 0.268381
0.251198 0.254741 0.256281
0.258903 0.263515 0.265088
0.258910 0.260975 0.260857
0.289803 0.288731 0.287900
0.213451 0.213446 0.213093
0.223850 0.228685 0.228785
0.230239 0.235374 0.235202
0.275733 0.276878 0.280165
0.220936 0.221291 0.223232
0.234511 0.236176 0.235441
0.204430 0.204267 0.203971
0.232385 0.234161 0.237140
0.246497 0.246370 0.243372
0.218777 0.220424 0.228280
0.247718 0.248047 0.247913
0.207281 0.206861 0.206550
0.201519 0.198743 0.197556
0.176937 0.183963 0.190617
0.244423 0.243914 0.242116
0.388333 0.388159 0.388645
0.269765 0.269787 0.270221
0.219442 0.219413 0.219425
0.281308 0.281106 0.281215
0.244380 0.244663 0.244293
0.270920 0.271612 0.274000
0.271028 0.271269 0.269583
0.245169 0.243534 0.242954
0.206991 0.205637 0.207533
0.231555 0.234670 0.238608
0.282870 0.287038 0.289862
0.229441 0.232893 0.232919
0.222965 0.222357 0.222448
0.248348 0.246688 0.245170
0.237557 0.235868 0.233598
0.241238 0.240886 0.227337
0.255021 0.254598 0.254300
0.243790 0.247627 0.252215
0.134392 0.133032 0.132549
0.188873 0.187371 0.183893
0.281795 0.282159 0.283231
0.199681 0.199529 0.200084
0.240799 0.239145 0.238570
0.226048 0.209984 0.209075
0.242434 0.244274 0.244467
0.159514 0.159723 0.159990
0.227853 0.239461 0.241640
0.142018 0.141517 0.140868
0.191833 0.191820 0.197056
0.272409 0.273160 0.271877
0.228997 0.234163 0.237385
0.185680 0.188325 0.184560
0.255616 0.255198 0.254881
0.209866 0.209614 0.208939
0.232229 0.233757 0.235269
0.196860 0.195741 0.195534
0.232704 0.232207 0.231853
0.212169 0.212981 0.213046
0.221857 0.221629 0.217076
0.272799 0.269974 0.267410
0.245231 0.245238 0.245442
0.270236 0.272514 0.279216
0.230299 0.228076 0.219135
0.205269 0.204665 0.203743
0.122936 0.123850 0.123835
0.267804 0.267951 0.267828
0.191312 0.190744 0.189668
0.217713 0.215913 0.215563
0.300884 0.297660 0.296481
0.172416 0.173825 0.175300
0.266552 0.259497 0.259084
0.264995 0.265458 0.270706
0.204635 0.205178 0.207687
0.246127 0.247162 0.243528
0.243771 0.243429 0.243601
0.207015 0.207342 0.208741
0.230739 0.230375 0.230394
0.198489 0.193947 0.190788
0.221776 0.221636 0.228057
0.240268 0.229213 0.235539
0.256473 0.257987 0.296095
0.247102 0.246288 0.245010
0.246342 0.245855 0.244949
0.197025 0.196260 0.196402
0.208235 0.208108 0.207669
0.180869 0.179092 0.178006
0.238151 0.241692 0.238404
0.217304 0.217336 0.215755
0.165082 0.165646 0.165489
0.196489 0.193184 0.193650
0.224486 0.224581 0.224433
0.160479 0.161157 0.161494
0.273287 0.273378 0.277873
0.200328 0.200356 0.201325
0.200862 0.200663 0.205886
0.168611 0.168851 0.162425
0.229691 0.230897 0.230897
0.210666 0.210219 0.221293
0.150522 0.150000 0.149789
0.192386 0.192145 0.192235
0.243941 0.243253 0.243024
0.232096 0.231983 0.231662
0.124297 0.124373 0.125421
0.241116 0.241563 0.241765
0.159040 0.160479 0.161157
0.217973 0.209483 0.208292
0.193853 0.194640 0.197869
0.251363 0.250885 0.250196
0.196294 0.195889 0.194917
0.252843 0.249042 0.249009
0.196599 0.192110 0.192272
0.237543 0.238095 0.256383
0.219574 0.219871 0.220256
0.246166 0.237886 0.238875
0.184841 0.184240 0.183984
0.220802 0.222560 0.222771
0.216943 0.217503 0.217540
0.156321 0.156863 0.157408
0.220804 0.220734 0.220399
0.168842 0.169039 0.168564
0.285854 0.283311 0.283190
0.213903 0.213369 0.204498
0.235572 0.235606 0.234338
0.086753 0.087089 0.087113
0.244327 0.244824 0.244998
0.206937 0.207640 0.207197
0.253205 0.253960 0.254776
0.290913 0.290274 0.293702
0.190017 0.194184 0.195760
0.241813 0.244533 0.245429
0.214855 0.214230 0.210297
0.235122 0.235092 0.233686
0.204619 0.205383 0.207991
0.302332 0.309051 0.310185
0.227815 0.228740 0.232837
0.249969 0.249017 0.247943
0.204047 0.206908 0.207500
0.194839 0.206312 0.213973
0.198308 0.198351 0.199036
0.196751 0.196249 0.196793
0.228361 0.228794 0.228988
0.203071 0.204706 0.205473
0.262625 0.262715 0.263472
0.195222 0.194598 0.193694
0.260298 0.264173 0.265451
0.178741 0.178469 0.178652
0.224559 0.223898 0.226064
0.245469 0.247008 0.247243
0.269811 0.270063 0.272463
0.246234 0.244026 0.244954
0.256425 0.256928 0.257439
0.276534 0.275533 0.275099
0.301198 0.284019 0.278808
0.274612 0.275564 0.279642
0.212890 0.213167 0.214601
0.239246 0.240114 0.245155
0.230237 0.230412 0.232736
0.202624 0.196503 0.199703
0.263932 0.264690 0.264505
0.083954 0.084021 0.083882
0.191460 0.192174 0.192316
0.288276 0.289373 0.275464
0.247436 0.247424 0.247922
0.214423 0.214542 0.216620
0.237699 0.237523 0.237880
0.254694 0.251474 0.246907
0.222742 0.223102 0.225989
0.082798 0.082634 0.082786
0.214728 0.214057 0.213748
0.204849 0.206112 0.203169
0.249929 0.249968 0.249894
0.217928 0.218334 0.221285
0.203354 0.201529 0.201323
0.318135 0.318139 0.318695
0.143802 0.143138 0.139744
0.206228 0.203938 0.204090
0.175923 0.175992 0.175833
0.258259 0.256571 0.246499
0.154170 0.154099 0.154373
0.263989 0.261167 0.261111
0.238404 0.232147 0.225163
0.199539 0.200157 0.200297
0.257753 0.256141 0.252781
0.279259 0.278782 0.278660
0.129857 0.129155 0.128003
0.169329 0.169167 0.174445
0.225308 0.223587 0.222882
0.241606 0.241001 0.245805
0.228465 0.228415 0.227153
0.257099 0.258748 0.259586
0.247123 0.247725 0.247815
0.227963 0.227142 0.232812
0.178681 0.179012 0.181173
0.271101 0.268273 0.268397
0.255599 0.254253 0.260677
0.264228 0.265447 0.267967
0.227900 0.227222 0.224881
0.259423 0.242202 0.240462
0.149547 0.149590 0.149282
0.139899 0.139681 0.139747
0.209525 0.196784 0.195864
0.241733 0.241404 0.241629
0.218350 0.225222 0.227007
0.219980 0.220421 0.221268
0.214259 0.210788 0.209541
0.289336 0.289398 0.289014
0.298373 0.297713 0.295291
0.282211 0.283262 0.279593
0.261887 0.260752 0.261872
0.249571 0.246284 0.241848
0.136108 0.136443 0.136673
0.267988 0.270291 0.270140
0.260994 0.254979 0.249351
0.245460 0.246014 0.247906
0.258915 0.257372 0.249974
0.272613 0.272282 0.270944
0.233345 0.230423 0.230254
0.220888 0.221986 0.225386
0.209222 0.210621 0.212118
0.257307 0.258835 0.264301
0.264643 0.266188 0.267112
0.197078 0.196588 0.196533
0.173166 0.172636 0.172681
0.259489 0.258342 0.256405
0.225428 0.224967 0.226254
0.209655 0.210555 0.210549
0.226107 0.237618 0.241140
0.299497 0.302185 0.302673
0.242635 0.236147 0.235868
0.219676 0.216606 0.215647
0.246095 0.245427 0.245440
0.216431 0.218473 0.224764
0.247593 0.242941 0.241241
0.200584 0.200592 0.202926
0.233440 0.233408 0.233017
0.196545 0.196197 0.196386
0.226287 0.228038 0.230449
0.230785 0.232534 0.234214
0.211711 0.212674 0.217174
0.235115 0.235599 0.237149
0.275372 0.276518 0.276253
0.206251 0.205849 0.211737
0.308949 0.308973 0.308855
0.142475 0.147038 0.148453
0.240254 0.234933 0.234107
0.221134 0.221493 0.220668
0.193528 0.196120 0.198867
0.248972 0.248940 0.249052
0.115641 0.115753 0.115847
0.210912 0.212122 0.215427
0.232502 0.235278 0.228461
0.271599 0.261609 0.261073
0.261494 0.261055 0.259528
0.238877 0.239168 0.238845
0.232900 0.233251 0.233430
0.271504 0.273129 0.276371
0.254098 0.252966 0.251888
0.252563 0.252287 0.250803
0.116517 0.116631 0.116318
0.133591 0.133875 0.133854
0.249837 0.249863 0.250325
0.191643 0.191673 0.191434
0.226080 0.225877 0.225087
0.248978 0.249036 0.250436
0.220576 0.221338 0.226807
0.134775 0.135254 0.135528
0.264614 0.263989 0.263595
0.235442 0.234891 0.234275
0.230144 0.231674 0.232266
0.248956 0.244462 0.243436
0.174358 0.175195 0.178571
0.236336 0.237223 0.239050
0.162103 0.162005 0.162237
0.240256 0.239574 0.234610
0.091240 0.090743 0.088782
0.234752 0.232326 0.234664
0.270291 0.270263 0.269424
0.198419 0.198932 0.199614
0.226629 0.227437 0.228112
0.164865 0.169618 0.166300
0.191632 0.191428 0.191457
0.270598 0.270084 0.269061
0.219869 0.226009 0.229187
0.212323 0.213757 0.214265
0.258525 0.253279 0.245946
0.219835 0.219940 0.218944
0.143471 0.123770 0.123472
0.237089 0.240959 0.240816
0.205309 0.204621 0.206651
0.166877 0.167160 0.166831
0.229840 0.229410 0.227099
0.210931 0.213379 0.215362
0.253542 0.253881 0.254122
0.203743 0.203721 0.202999
0.209619 0.209852 0.210534
0.219448 0.219254 0.219230
0.281752 0.280919 0.280984
0.271348 0.270914 0.272509
0.218462 0.217463 0.217141
0.220296 0.219475 0.220120
0.229345 0.229904 0.229863
0.104820 0.105453 0.106125
0.248305 0.249213 0.249938
0.207922 0.208314 0.202727
0.174191 0.174055 0.173967
0.249283 0.248722 0.248485
0.235536 0.235288 0.234954
0.223330 0.223887 0.224751
0.205154 0.205029 0.210074
0.274813 0.275881 0.276536
0.236122 0.233827 0.221072
0.255920 0.255761 0.256353
0.184211 0.189445 0.189656
0.279874 0.273314 0.273636
0.255837 0.257311 0.259763
0.218583 0.220836 0.222921
0.249499 0.250534 0.255391
0.225267 0.225488 0.229503
0.198059 0.198478 0.198551
0.287805 0.289279 0.289365
0.225029 0.227790 0.228606
0.233106 0.233572 0.234865
0.276048 0.281013 0.272631
0.253771 0.248537 0.247873
0.244345 0.256026 0.258306
0.191446 0.190738 0.189710
0.273393 0.273476 0.273408
0.274588 0.275101 0.274319
0.198456 0.203703 0.203899
0.216945 0.217673 0.217490
0.222597 0.222441 0.222181
0.220099 0.220988 0.221425
0.265546 0.265463 0.264832
0.245922 0.244815 0.245255
0.090394 0.091618 0.097527
0.250143 0.249893 0.250139
0.197571 0.199667 0.198717
0.229743 0.229571 0.229428
0.266177 0.265765 0.261987
0.264989 0.266281 0.268059
0.219469 0.217797 0.216100
0.247204 0.247701 0.248151
0.279783 0.279548 0.278954
0.243613 0.243245 0.243248
0.240680 0.239141 0.239342
0.268412 0.269851 0.276457
0.235588 0.235583 0.235742
0.284775 0.276392 0.275644
0.275305 0.270522 0.269016
0.241480 0.241310 0.241454
0.254691 0.258540 0.259755
0.222513 0.220923 0.226359
0.239305 0.238074 0.243774
0.245547 0.245627 0.244992
0.213594 0.214469 0.215520
0.245165 0.244285 0.244133
0.211191 0.214810 0.215059
0.242800 0.240652 0.239032
0.244018 0.244802 0.244185
0.272539 0.261219 0.260232
0.269525 0.268839 0.268361
0.171630 0.171630 0.171343
0.236492 0.236505 0.237846
0.241849 0.241873 0.241160
0.261773 0.262011 0.267977
0.217972 0.217275 0.211531
0.218986 0.215341 0.213971
0.181571 0.183851 0.185361
0.288436 0.283015 0.279098
0.211664 0.211619 0.212162
0.259144 0.271817 0.309621
0.280896 0.279992 0.284441
0.230004 0.233733 0.236453
0.207985 0.206446 0.205964
0.138189 0.137963 0.129546
0.316084 0.318421 0.320655
0.244802 0.244185 0.243553
0.221213 0.220324 0.217776
0.193688 0.192025 0.192009
0.245210 0.245461 0.246995
0.261005 0.261861 0.262537
0.210599 0.210564 0.210140
0.240458 0.240015 0.239449
0.206580 0.206800 0.206343
0.265863 0.266646 0.266493
0.268973 0.269278 0.269366
0.260713 0.259551 0.256529
0.220596 0.220582 0.220554
0.219069 0.218266 0.229388
0.130690 0.129974 0.129242
0.274756 0.274225 0.271058
0.259536 0.263653 0.264155
0.186316 0.193430 0.193722
0.241264 0.241497 0.240801
0.221191 0.225082 0.225374
0.260184 0.258147 0.257759
0.147541 0.147213 0.146623
0.221277 0.220859 0.220336
0.218713 0.217084 0.219765
0.235685 0.232408 0.232398
0.208141 0.209211 0.210321
0.239271 0.235580 0.233381
0.239823 0.234393 0.233358
0.246779 0.246804 0.246898
0.291193 0.290722 0.293138
0.208509 0.209194 0.209116
0.222059 0.218408 0.218727
0.241423 0.237104 0.234684
0.177460 0.177873 0.177885
0.236649 0.237190 0.237348
0.197344 0.196912 0.196705
0.223558 0.222740 0.222767
0.238945 0.237791 0.237499
0.200059 0.200922 0.202715
0.230499 0.230629 0.230204
0.209785 0.208181 0.207161
0.206843 0.207255 0.214051
0.204237 0.205108 0.205790
0.265179 0.263530 0.260628
0.192315 0.192527 0.206180
0.254669 0.256034 0.256277
0.227074 0.226612 0.230604
0.220444 0.214016 0.213854
0.222602 0.222396 0.220791
0.206686 0.206456 0.203994
0.191247 0.194981 0.198545
0.243455 0.245822 0.238805
0.245944 0.247011 0.248371
0.192063 0.192228 0.192442
0.273269 0.276183 0.275636
0.184157 0.183400 0.181713
0.198056 0.197648 0.196850
0.237594 0.240341 0.240423
0.274815 0.275025 0.267170
0.232994 0.232940 0.233245
0.239072 0.234842 0.233979
0.210776 0.212598 0.210413
0.226749 0.226955 0.227918
0.252311 0.256467 0.257755
0.229416 0.227800 0.225603
0.276676 0.277441 0.278575
0.240278 0.238891 0.238542
0.232592 0.225701 0.223482
0.239491 0.237306 0.230617
0.244599 0.245209 0.240425
0.204203 0.206400 0.206516
0.273998 0.275789 0.265926
0.248435 0.248406 0.239672
0.240229 0.236287 0.233874
0.194545 0.178589 0.181786
0.266409 0.267198 0.271202
0.205280 0.204262 0.204404
0.251653 0.257596 0.272544
0.208872 0.205383 0.193807
0.243723 0.243588 0.242896
0.264317 0.264820 0.264562
0.217741 0.214358 0.211850
0.278500 0.276321 0.276389
0.242604 0.245912 0.246316
0.201807 0.208578 0.209680
0.288822 0.288660 0.288725
0.214310 0.197597 0.196374
0.201215 0.201872 0.201669
0.290890 0.290786 0.293004
0.297409 0.298380 0.298223
0.217444 0.217477 0.217233
0.231757 0.232439 0.232124
0.217356 0.218093 0.218441
0.260928 0.257928 0.255520
0.250555 0.246421 0.245570
0.200802 0.203323 0.203358
0.240622 0.240584 0.239330
0.197493 0.197538 0.217227
0.205964 0.207354 0.205400
0.237144 0.239593 0.240123
0.223880 0.225257 0.224497
0.260499 0.259177 0.248830
0.212780 0.215540 0.215567
0.260526 0.260592 0.260363
0.164113 0.165505 0.163566
0.192830 0.194497 0.189157
0.286181 0.288734 0.292154
0.242003 0.231754 0.231687
0.215002 0.212924 0.211560
0.291400 0.279129 0.279098
0.250709 0.253514 0.250824
0.294606 0.294290 0.293924
0.268590 0.268410 0.268440
0.220502 0.220368 0.218710
0.265424 0.265334 0.265603
0.139247 0.139170 0.139090
0.232606 0.234692 0.234447
0.282420 0.282312 0.276085
0.260512 0.260212 0.260071
0.173233 0.172886 0.171598
0.184701 0.185291 0.186224
0.232918 0.232925 0.232928
0.278858 0.298511 0.283824
0.267686 0.268973 0.269278
0.200476 0.201609 0.205852
0.158631 0.158823 0.159039
0.231066 0.229417 0.230674
0.200841 0.201417 0.203380
0.201717 0.200665 0.203777
0.226610 0.223087 0.222299
0.192064 0.191848 0.191302
0.225499 0.224393 0.216675
0.257384 0.255820 0.255721
0.250862 0.247243 0.240229
0.212139 0.210202 0.209808
0.247155 0.250205 0.258039
0.192020 0.199397 0.198103
0.232827 0.234072 0.236160
0.172980 0.171617 0.172008
0.311603 0.308401 0.301969
0.217449 0.217299 0.217046
0.236532 0.225635 0.246154
0.251874 0.252487 0.252980
0.246084 0.248268 0.254245
0.249606 0.247169 0.245455
0.206120 0.205502 0.205733
0.267410 0.268375 0.268557
0.191454 0.188853 0.186608
0.147889 0.147612 0.141649
0.279824 0.279242 0.278766
0.296029 0.297640 0.297317
0.281013 0.280478 0.278644
0.231907 0.232143 0.231905
0.201889 0.202705 0.206176
0.278233 0.279319 0.279596
0.243198 0.242298 0.241271
0.231674 0.232266 0.232570
0.229889 0.230246 0.230381
0.257431 0.258314 0.259139
0.230082 0.229525 0.228968
0.251369 0.252339 0.253004
0.139937 0.139537 0.139675
0.192029 0.191565 0.191020
0.220577 0.220743 0.220569
0.194342 0.194101 0.196142
0.228018 0.228191 0.235372
0.246954 0.251324 0.251417
0.246050 0.245356 0.244315
0.225661 0.224355 0.224601
0.221613 0.220606 0.218721
0.222035 0.218497 0.220413
0.215004 0.214045 0.213210
0.194203 0.194767 0.195810
0.189692 0.188335 0.187365
0.236065 0.236047 0.236008
0.180193 0.181692 0.188441
0.217686 0.220799 0.222894
0.210848 0.211659 0.212010
0.207195 0.206765 0.206205
0.262056 0.260587 0.260631
0.241736 0.243329 0.244733
0.241412 0.240853 0.241371
0.189641 0.189010 0.188789
0.271155 0.263155 0.255044
0.236134 0.235151 0.233294
0.207716 0.207636 0.214645
0.203033 0.203445 0.203071
0.248130 0.248454 0.249253
0.240158 0.258234 0.258817
0.206205 0.205349 0.201269
0.268005 0.267503 0.276796
0.239794 0.239305 0.238074
0.262844 0.263782 0.268759
0.134794 0.135551 0.135416
0.230603 0.231373 0.231116
0.216215 0.215579 0.214310
0.244864 0.244350 0.243981
0.218247 0.216709 0.205566
0.230447 0.234065 0.238727
0.232158 0.232671 0.234510
0.238143 0.235237 0.233537
0.198960 0.198465 0.204241
0.179406 0.177146 0.173068
0.271107 0.270764 0.272261
0.213777 0.214861 0.216829
0.122129 0.122667 0.122525
0.233683 0.234721 0.235473
0.199728 0.199737 0.200794
0.249739 0.251013 0.251533
0.225158 0.232336 0.232690
0.213200 0.213033 0.212784
0.222897 0.222323 0.215589
0.209366 0.211924 0.213510
0.228813 0.230962 0.232075
0.265882 0.265945 0.270155
0.264566 0.264846 0.264489
0.244916 0.244589 0.244608
0.212102 0.213075 0.217345
0.192561 0.192830 0.194497
0.225220 0.225795 0.226142
0.224601 0.224760 0.225816
0.210930 0.206992 0.206298
0.302088 0.303822 0.304165
0.234514 0.232758 0.230247
0.207960 0.215381 0.215574
0.200252 0.200582 0.199669
0.235182 0.234401 0.232734
0.205715 0.204487 0.203309
0.241457 0.240293 0.239346
0.193546 0.190719 0.187030
0.177066 0.177307 0.177243
0.220443 0.220369 0.218775
0.272639 0.271723 0.272282
0.223257 0.219880 0.220237
0.208744 0.208092 0.208428
0.234776 0.234670 0.235271
0.209962 0.222649 0.225124
0.191644 0.191568 0.196934
0.241182 0.240391 0.238942
0.286190 0.286772 0.284144
0.172208 0.173135 0.176376
0.249833 0.249142 0.249150
0.222393 0.223202 0.223972
0.235072 0.234884 0.232606
0.263572 0.266821 0.266918
0.261721 0.262652 0.268235
0.239869 0.234215 0.241733
0.280938 0.279653 0.278307
0.216214 0.210045 0.208388
0.239204 0.239364 0.239345
0.276901 0.279310 0.279577
0.290531 0.289901 0.289618
0.206191 0.206691 0.208143
0.207430 0.207990 0.208246
0.230006 0.229416 0.227800
0.255467 0.259362 0.265860
0.254576 0.248501 0.247868
0.257886 0.254976 0.252780
0.205612 0.205241 0.203957
0.223782 0.228066 0.228808
0.189345 0.191914 0.194589
0.163852 0.164353 0.164823
0.082568 0.082624 0.082142
0.213059 0.215807 0.216474
0.240809 0.241298 0.247914
0.229409 0.224908 0.220677
0.102678 0.102671 0.102477
0.271422 0.268100 0.267974
0.217818 0.217949 0.218095
0.201345 0.200552 0.199268
0.224031 0.224648 0.224977
0.225032 0.223939 0.222069
0.273446 0.257459 0.259703
0.241024 0.247898 0.248251
0.235373 0.236774 0.232381
0.208785 0.206814 0.205938
0.204795 0.206237 0.206150
0.133843 0.134648 0.134808
0.184822 0.186076 0.188370
0.173144 0.171317 0.170816
0.232972 0.233713 0.235443
0.203609 0.202583 0.199965
0.147282 0.147106 0.146193
0.229078 0.234880 0.235348
0.243142 0.242943 0.241942
0.279013 0.284015 0.277086
0.237907 0.235331 0.235212
0.197233 0.197327 0.197396
0.235648 0.235979 0.240666
0.201189 0.201099 0.202537
0.232930 0.230573 0.230266
0.164938 0.164750 0.164855
0.127061 0.122699 0.128448
0.217752 0.216975 0.215270
0.253806 0.254062 0.254425
0.239865 0.236629 0.235376
0.262101 0.270549 0.269083
0.222197 0.221854 0.219577
0.116142 0.115855 0.115648
0.205823 0.202685 0.202564
0.122872 0.123297 0.124114
0.284034 0.284198 0.284102
0.180447 0.180312 0.179794
0.296044 0.297610 0.297190
0.107152 0.106600 0.106648
0.143905 0.143795 0.142923
0.239358 0.240285 0.241311
0.194582 0.192730 0.192800
0.269880 0.265181 0.259423
0.201057 0.201511 0.203056
0.274848 0.275283 0.275278
0.129393 0.133811 0.134504
0.231142 0.230266 0.229791
0.248790 0.248471 0.242031
0.223392 0.222561 0.221895
0.188370 0.189957 0.210222
0.210522 0.209465 0.204723
0.190617 0.191127 0.191711
0.241847 0.240300 0.242172
0.188864 0.189229 0.191898
0.269116 0.268707 0.263902
0.230636 0.231623 0.231802
0.212772 0.216547 0.218473
0.227620 0.230011 0.230162
0.224056 0.224276 0.222915
0.238626 0.238542 0.235736
0.224783 0.225465 0.225672
0.211271 0.207121 0.207869
0.198870 0.198110 0.191004
0.234907 0.246824 0.248183
0.244366 0.241692 0.241608
0.250014 0.244964 0.243256
0.260646 0.260764 0.260633
0.226511 0.228006 0.229464
0.192396 0.192685 0.194538
0.206711 0.206753 0.206161
0.148425 0.147889 0.147612
0.225290 0.225307 0.226604
0.290564 0.290728 0.290471
0.215198 0.215185 0.214325
0.079199 0.080080 0.079584
0.243755 0.244983 0.244016
0.199024 0.199419 0.199747
0.222368 0.227066 0.227988
0.198915 0.199011 0.198379
0.233171 0.232592 0.225701
0.206853 0.207272 0.207327
0.268023 0.267521 0.276745
0.233823 0.233758 0.233898
0.264105 0.267850 0.267742
0.201925 0.209754 0.217504
0.166780 0.166993 0.167017
0.251955 0.238051 0.241182
0.226579 0.227064 0.228160
0.177584 0.182739 0.181448
0.255851 0.259427 0.258230
0.207412 0.205844 0.205025
0.206880 0.203612 0.203707
0.269661 0.266973 0.261655
0.231588 0.232649 0.232946
0.246483 0.244691 0.243100
0.249931 0.249953 0.250401
0.276539 0.276467 0.274424
0.255757 0.254938 0.254018
0.244269 0.244351 0.245208
0.250928 0.249663 0.249552
0.265993 0.266916 0.266334
0.217230 0.216363 0.215266
0.260701 0.261059 0.265363
0.265690 0.267981 0.264660
0.204174 0.206015 0.211236
0.285388 0.285555 0.287407
0.244321 0.244386 0.244412
0.271528 0.271548 0.272598
0.210169 0.210213 0.210254
0.214311 0.204230 0.203249
0.233537 0.231760 0.227110
0.266358 0.266513 0.265668
0.293294 0.292989 0.292550
0.241003 0.240968 0.241310
0.270408 0.271042 0.271850
0.282581 0.280558 0.280743
0.254892 0.255656 0.256379
0.236511 0.236644 0.234962
0.298416 0.283465 0.280922
0.200239 0.199752 0.199887
0.206862 0.206388 0.212694
0.209804 0.209674 0.209558
0.220384 0.220943 0.225714
0.211080 0.210390 0.208778
0.199556 0.210052 0.215789
0.207987 0.207599 0.207727
0.244620 0.244421 0.247126
0.265312 0.265946 0.266743
0.146812 0.147635 0.150312
0.237422 0.235770 0.234862
0.207106 0.201777 0.204161
0.208477 0.208565 0.209272
0.217636 0.218785 0.221564
0.231897 0.232812 0.233289
0.214693 0.214368 0.212661
0.252036 0.245459 0.245907
0.248396 0.250338 0.250334
0.280779 0.281402 0.282182
0.200197 0.200198 0.201384
0.232841 0.232938 0.231442
0.140707 0.140855 0.141968
0.186976 0.188236 0.188780
0.224306 0.223333 0.221990
0.179726 0.179589 0.180573
0.234625 0.233082 0.230215
0.198269 0.199450 0.200726
0.260300 0.260757 0.261233
0.254698 0.254758 0.255855
0.212427 0.223764 0.226500
0.214163 0.214518 0.214331
0.189022 0.191763 0.191999
0.263801 0.260196 0.259532
0.215591 0.215642 0.215656
0.266222 0.265706 0.267827
0.195949 0.191991 0.190486
0.232992 0.232520 0.233330
0.266475 0.266825 0.267990
0.271832 0.267748 0.259210
0.218176 0.218068 0.217931
0.223037 0.221563 0.221410
0.228780 0.234743 0.235084
0.240438 0.232400 0.223995
0.191119 0.194324 0.194884
0.248296 0.247970 0.247204
0.144430 0.144613 0.145450
0.244161 0.243751 0.245539
0.206245 0.206501 0.206185
0.247753 0.247876 0.249989
0.219246 0.219985 0.220577
0.217852 0.218210 0.220885
0.222403 0.222812 0.222793
0.222819 0.222837 0.222658
0.250979 0.251412 0.248372
0.234464 0.234776 0.234800
0.249805 0.248925 0.247921
0.278141 0.277730 0.277442
0.184337 0.188157 0.188709
0.190618 0.191315 0.194490
0.253858 0.254531 0.255298
0.250673 0.250435 0.250659
0.253511 0.253991 0.253275
0.201686 0.201472 0.200917
0.210565 0.210520 0.210490
0.246523 0.246760 0.247087
0.276670 0.271357 0.272135
0.244231 0.244490 0.245156
0.195303 0.194800 0.194735
0.217539 0.217149 0.217374
0.234816 0.234777 0.234951
0.221378 0.221047 0.221837
0.202661 0.201549 0.198629
0.210845 0.209265 0.209064
0.179445 0.178899 0.180693
0.195360 0.195465 0.196039
0.241021 0.240736 0.241365
0.229055 0.228254 0.228153
0.116294 0.116204 0.115796
0.260302 0.263189 0.264128
0.234830 0.236252 0.236361
0.193803 0.193182 0.193784
0.249135 0.246941 0.246839
0.211164 0.210660 0.209876
0.239952 0.236511 0.236644
0.229895 0.229865 0.229957
0.269851 0.272747 0.274393
0.215200 0.209337 0.211455
0.190494 0.190708 0.190979
0.122849 0.122652 0.122914
0.186107 0.186386 0.186216
0.227970 0.227773 0.228624
0.211122 0.210733 0.210095
0.244214 0.244451 0.244302
0.216244 0.216432 0.215763
0.198253 0.198413 0.198193
0.257491 0.257966 0.255657
0.229629 0.227851 0.214955
0.129292 0.129108 0.129058
0.209793 0.211995 0.214900
0.256021 0.264903 0.266605
0.192910 0.198931 0.199248
0.219591 0.219584 0.217637
0.223108 0.228041 0.227807
0.239272 0.241049 0.240465
0.211059 0.211069 0.210557
0.223837 0.225459 0.226838
0.268438 0.269936 0.271258
0.222266 0.222326 0.220803
0.263089 0.263611 0.267811
0.232494 0.232643 0.232853
0.259478 0.255300 0.255662
0.211304 0.206954 0.206439
0.254809 0.254897 0.255370
0.182812 0.176557 0.174989
0.246899 0.247005 0.247135
0.156586 0.156329 0.156217
0.213700 0.212247 0.209436
0.202952 0.203405 0.203637
0.222122 0.222071 0.220956
0.212806 0.212060 0.207725
0.124928 0.125074 0.125013
0.205985 0.203444 0.203480
0.179710 0.179224 0.179182
0.267220 0.268344 0.270255
0.217020 0.220725 0.221115
0.230499 0.232471 0.232617
0.215424 0.214952 0.212439
0.286096 0.285683 0.288312
0.249464 0.249461 0.249277
0.222359 0.223634 0.226889
0.195012 0.196823 0.196859
0.267247 0.266750 0.265234
0.203893 0.204200 0.204027
0.197917 0.197423 0.195949
0.258835 0.256024 0.252993
0.222563 0.222966 0.222818
0.251077 0.250750 0.251021
0.222301 0.214929 0.214809
0.263808 0.264187 0.265229
0.242436 0.240469 0.239865
0.211378 0.208876 0.208990
0.263536 0.269723 0.279696
0.224803 0.224421 0.225290
0.263432 0.263582 0.266739
0.086200 0.087309 0.087420
0.236539 0.240250 0.241171
0.229389 0.229087 0.228325
0.247235 0.248537 0.249604
0.256805 0.253781 0.245553
0.229241 0.229478 0.230050
0.230445 0.229507 0.229287
0.264961 0.264933 0.264455
0.220652 0.220676 0.220773
0.213436 0.213667 0.220789
0.300739 0.299437 0.296646
0.218826 0.216780 0.219678
0.223241 0.229059 0.228505
0.232671 0.234360 0.236567
0.209711 0.209656 0.207207
0.218934 0.220549 0.221518
0.229769 0.229533 0.233283
0.193758 0.196545 0.196197
0.192701 0.192988 0.195535
0.249386 0.248784 0.248913
0.293666 0.292349 0.291577
0.206377 0.205672 0.204612
0.193896 0.192373 0.189906
0.254677 0.254770 0.255858
0.202306 0.199221 0.198622
0.091224 0.091543 0.091482
0.292396 0.293007 0.293011
0.228236 0.226690 0.224483
0.218510 0.201578 0.197163
0.213002 0.213836 0.213771
0.270807 0.270859 0.271452
0.281432 0.279146 0.282074
0.217832 0.217812 0.218066
0.249546 0.242694 0.240516
0.209690 0.211404 0.212195
0.277966 0.275739 0.264074
0.224907 0.226199 0.226791
0.234494 0.232133 0.230616
0.207806 0.208915 0.209397
0.252811 0.253937 0.260959
0.254450 0.254060 0.253338
0.238693 0.239405 0.241199
0.258497 0.256269 0.249771
0.264150 0.263864 0.262881
0.124468 0.124181 0.124102
0.216348 0.215260 0.215197
0.222748 0.218902 0.220043
0.211334 0.209299 0.207985
0.243997 0.243426 0.243551
0.281067 0.281403 0.279916
0.234187 0.232676 0.230241
0.220668 0.213200 0.208443
