0.681668 0.681004 0.669945
0.318624 0.318407 0.319532
0.249880 0.252589 0.253786
0.248019 0.252202 0.256005
0.274686 0.274793 0.274345
0.409013 0.408741 0.408457
0.385095 0.385953 0.385924
0.288186 0.288172 0.288296
0.398090 0.395432 0.395452
0.584704 0.586926 0.608277
0.274435 0.274892 0.276618
0.288344 0.286956 0.285348
0.339548 0.341195 0.343037
0.618683 0.620135 0.627093
0.444079 0.443648 0.444305
0.691603 0.681873 0.680672
0.309595 0.309503 0.308226
0.475924 0.476076 0.481642
0.466188 0.465326 0.464422
0.274345 0.277370 0.271057
0.296832 0.298711 0.301775
0.697897 0.698436 0.695614
0.273357 0.273798 0.275471
0.516972 0.531430 0.540761
0.485570 0.485072 0.488763
0.792977 0.786357 0.787230
0.335797 0.335352 0.335722
0.272852 0.273131 0.272749
0.310581 0.310751 0.318255
0.286065 0.284317 0.282244
0.283402 0.282322 0.285106
0.310429 0.310133 0.312383
0.275424 0.275327 0.284768
0.666051 0.660860 0.658512
0.290736 0.290245 0.288702
0.439611 0.438381 0.427939
0.509818 0.514011 0.529593
0.496349 0.496420 0.496363
0.475742 0.475765 0.475901
0.274925 0.274548 0.274570
0.305107 0.305282 0.308129
0.410864 0.399663 0.396683
0.512399 0.513430 0.498581
0.260841 0.260390 0.262310
0.302071 0.302129 0.302442
0.410229 0.410655 0.415835
0.264645 0.266099 0.267588
0.222276 0.218195 0.217885
0.358747 0.358540 0.357912
0.318702 0.317807 0.316523
0.432770 0.431176 0.429804
0.336710 0.341589 0.338894
0.399640 0.399208 0.401034
0.329187 0.319577 0.317181
0.271046 0.268839 0.260390
0.661630 0.660170 0.679879
0.381873 0.382068 0.389344
0.626399 0.628651 0.637519
0.357350 0.356185 0.350528
0.608609 0.601414 0.596858
0.367507 0.360790 0.358084
0.363477 0.365857 0.382415
0.371135 0.371514 0.376804
0.257766 0.259636 0.261154
0.256527 0.256923 0.257403
0.381125 0.380199 0.379398
0.335542 0.335665 0.334951
0.321778 0.321471 0.320797
0.297977 0.300484 0.307353
0.544103 0.544748 0.546177
0.270420 0.274531 0.274999
0.348922 0.349390 0.349660
0.554023 0.554891 0.568182
0.660935 0.667062 0.684360
0.281705 0.280264 0.277361
0.238773 0.238339 0.235221
0.787420 0.787832 0.790252
0.273502 0.268170 0.255916
0.301104 0.299777 0.300709
0.355849 0.368950 0.370839
0.659934 0.660328 0.659600
0.305074 0.303950 0.297520
0.264382 0.264176 0.264569
0.294704 0.295877 0.297013
0.260637 0.261206 0.262087
0.376562 0.372746 0.374106
0.269762 0.268881 0.267579
0.281554 0.281748 0.293549
0.582635 0.576890 0.574606
0.504862 0.506329 0.507465
0.371012 0.365944 0.365790
0.378648 0.376531 0.373827
0.300899 0.301650 0.302103
0.422763 0.423093 0.426166
0.282285 0.291989 0.294093
0.541110 0.532806 0.536302
0.464593 0.464339 0.464484
0.273712 0.267660 0.266477
0.514011 0.529593 0.526724
0.232093 0.231434 0.232386
0.279676 0.280246 0.276792
0.240998 0.240307 0.240126
0.245149 0.246847 0.247466
0.285270 0.283756 0.282799
0.312938 0.309953 0.309263
0.312554 0.316034 0.315490
0.653832 0.653134 0.650551
0.458455 0.454322 0.453332
0.340285 0.339604 0.340321
0.256747 0.257957 0.258340
0.278532 0.281121 0.276761
0.280445 0.279094 0.281411
0.564789 0.559094 0.539199
0.564673 0.580590 0.584897
0.397374 0.397355 0.396601
0.398741 0.399166 0.399547
0.274212 0.278850 0.288895
0.287171 0.289704 0.290360
0.469933 0.469353 0.465266
0.292763 0.292530 0.288909
0.274546 0.276322 0.277524
0.650286 0.646643 0.646953
0.330705 0.329055 0.324275
0.382590 0.383059 0.384308
0.269777 0.268874 0.266858
0.258442 0.254577 0.253777
0.275201 0.272517 0.272030
0.308269 0.310803 0.307163
0.624227 0.627323 0.632185
0.626540 0.628573 0.630057
0.302559 0.296289 0.295460
0.277295 0.277383 0.288688
0.625539 0.626399 0.625822
0.309057 0.307258 0.306299
0.320686 0.320708 0.322179
0.311662 0.308850 0.308421
0.253542 0.253035 0.251524
0.268096 0.267158 0.264253
0.401133 0.398194 0.398698
0.426002 0.435871 0.433693
0.762174 0.761491 0.762767
0.286573 0.285139 0.286246
0.579436 0.580464 0.578612
0.272556 0.271433 0.269699
0.208069 0.205213 0.208602
0.308832 0.304490 0.306383
0.605374 0.613756 0.612043
0.532720 0.529877 0.524792
0.584588 0.593934 0.608279
0.308514 0.309100 0.311643
0.504585 0.498093 0.488367
0.564702 0.563143 0.563411
0.348380 0.347813 0.349821
0.284852 0.274572 0.274966
0.423093 0.426166 0.427387
0.651768 0.653886 0.653488
0.228253 0.228275 0.227707
0.368835 0.367708 0.369496
0.313344 0.312689 0.311800
0.310641 0.310050 0.307700
0.226889 0.227005 0.226685
0.266169 0.266427 0.268632
0.260288 0.259343 0.264490
0.294816 0.294262 0.292454
0.451306 0.449939 0.459475
0.385360 0.383681 0.381772
0.264782 0.265614 0.266956
0.238129 0.239102 0.239517
0.383794 0.382772 0.385264
0.339668 0.337747 0.335841
0.669266 0.654850 0.651406
0.480308 0.481159 0.480786
0.434456 0.428319 0.426914
0.283054 0.284765 0.284987
0.893880 0.888068 0.891067
0.283908 0.284645 0.287370
0.496283 0.493395 0.494530
0.499508 0.501175 0.501762
0.245159 0.245406 0.246340
0.387148 0.385865 0.385995
0.287697 0.287517 0.284237
0.295940 0.290118 0.290594
0.449889 0.458785 0.460223
0.499455 0.501375 0.501035
0.256633 0.258243 0.257657
0.290854 0.290036 0.289167
0.258112 0.257857 0.261326
0.292688 0.292443 0.292029
0.650365 0.651768 0.653886
0.312340 0.314328 0.314780
0.298235 0.304898 0.307649
0.408205 0.409269 0.409131
0.707955 0.703044 0.681916
0.587963 0.584588 0.582340
0.368674 0.369011 0.369022
0.338894 0.336476 0.332547
0.244037 0.244870 0.247551
0.282391 0.282441 0.283909
0.251960 0.252206 0.254321
0.428376 0.426998 0.427071
0.385919 0.384155 0.382810
0.386358 0.384037 0.383369
0.384612 0.384706 0.384490
0.240951 0.240990 0.241013
0.269917 0.272170 0.274324
0.278171 0.278854 0.278109
0.334566 0.338715 0.337552
0.635805 0.637678 0.637370
0.346538 0.348020 0.349694
0.311370 0.311594 0.314519
0.281895 0.281725 0.293581
0.232472 0.227875 0.228516
0.451163 0.453701 0.454145
0.333699 0.336643 0.332851
0.915183 0.909373 0.903762
0.518694 0.518261 0.520380
0.308079 0.304181 0.321166
0.666173 0.646024 0.642085
0.841601 0.847981 0.850723
0.295825 0.292729 0.291666
0.589140 0.587823 0.587790
0.651334 0.649636 0.649883
0.470728 0.480108 0.490029
0.250284 0.262877 0.269570
0.328361 0.329638 0.334306
0.286187 0.285205 0.282687
0.290363 0.290353 0.291024
0.296288 0.294921 0.297254
0.468505 0.437457 0.442538
0.584573 0.584919 0.589128
0.367762 0.368323 0.368567
0.430464 0.430281 0.434234
0.567364 0.568967 0.574648
0.414097 0.414013 0.413667
0.435714 0.432987 0.431769
0.325160 0.324973 0.324183
0.292110 0.288062 0.288322
0.271201 0.272859 0.274097
0.673575 0.661071 0.647752
0.544233 0.545492 0.546313
0.337894 0.337489 0.335885
0.289415 0.289014 0.285456
0.676109 0.673305 0.668964
0.309832 0.306169 0.308060
0.510428 0.509695 0.502040
0.350967 0.357270 0.360045
0.400917 0.399519 0.399367
0.299476 0.300040 0.304320
0.488824 0.489443 0.489188
0.678758 0.679082 0.680306
0.311277 0.310307 0.309804
0.386419 0.389868 0.393539
0.336965 0.371508 0.374310
0.290636 0.291151 0.288283
0.294848 0.295031 0.291424
0.453321 0.450870 0.438683
0.300786 0.300686 0.299161
0.340303 0.339795 0.338927
0.343247 0.341342 0.340171
0.563363 0.563799 0.562505
0.325634 0.327779 0.329774
0.508586 0.509648 0.506377
0.639502 0.655311 0.657988
0.505917 0.504142 0.507363
0.342409 0.346518 0.346784
0.638621 0.638980 0.624153
0.382655 0.379677 0.371688
0.495589 0.510768 0.518806
0.314582 0.317293 0.316916
0.299765 0.308296 0.309460
0.311052 0.309641 0.309892
0.298358 0.300189 0.303558
0.591129 0.590785 0.582356
0.294053 0.293760 0.293849
0.656613 0.651851 0.648301
0.357544 0.357413 0.357541
0.254361 0.254401 0.253900
0.635703 0.636722 0.642212
0.652953 0.653007 0.654427
0.369181 0.365756 0.356813
0.256933 0.258264 0.254295
0.576366 0.580864 0.579416
0.395849 0.399260 0.400635
0.343690 0.345069 0.339243
0.527296 0.522014 0.518713
0.401539 0.402136 0.401133
0.611271 0.610910 0.590930
0.457672 0.457120 0.456719
0.242955 0.243857 0.245261
0.274679 0.274116 0.274328
0.665514 0.665233 0.667536
0.346751 0.345970 0.345615
0.760274 0.762682 0.761648
0.240038 0.239432 0.238673
0.351101 0.350094 0.353061
0.385365 0.383482 0.379941
0.300898 0.300476 0.294856
0.323489 0.322268 0.320799
0.501721 0.493856 0.495174
0.394333 0.392165 0.386735
0.627234 0.620626 0.621969
0.255953 0.255301 0.254576
0.337290 0.339977 0.339987
0.651426 0.651386 0.650032
0.619292 0.620409 0.625233
0.244298 0.242169 0.243708
0.694797 0.697105 0.699125
0.392980 0.388556 0.387984
0.289039 0.288852 0.289742
0.321531 0.320704 0.319084
0.317116 0.316347 0.308207
0.265337 0.267057 0.268357
0.283151 0.283150 0.284205
0.243831 0.244646 0.241654
0.387608 0.383655 0.383418
0.528499 0.533767 0.532446
0.309579 0.316377 0.316929
0.280739 0.277621 0.275250
0.257561 0.257220 0.259521
0.240071 0.240472 0.240558
0.384706 0.384490 0.385039
0.896978 0.892922 0.896378
0.371094 0.365943 0.365696
0.210811 0.210653 0.210064
0.629687 0.638718 0.632361
0.274541 0.273169 0.268262
0.533247 0.534678 0.537568
0.527400 0.522409 0.510542
0.275367 0.274828 0.269997
0.285771 0.286255 0.286684
0.293513 0.293265 0.295799
0.344798 0.346243 0.345664
0.228616 0.230728 0.231227
0.266695 0.268083 0.271104
0.427766 0.417311 0.415859
0.688642 0.684156 0.684538
0.464112 0.463442 0.461190
0.540213 0.540353 0.541467
0.305924 0.303738 0.303346
0.565103 0.568163 0.570949
0.248569 0.241527 0.241606
0.284636 0.285434 0.286377
0.276731 0.277051 0.275942
0.516262 0.515608 0.519944
0.270256 0.269599 0.271026
0.639700 0.641490 0.640951
0.239506 0.238947 0.237258
0.223751 0.223994 0.224960
0.254979 0.245538 0.246077
0.405194 0.405245 0.405444
0.331441 0.299161 0.299729
0.311392 0.312835 0.312715
0.339471 0.339566 0.339762
0.278646 0.279593 0.283638
0.373720 0.373480 0.374279
0.475775 0.475882 0.475924
0.344487 0.341013 0.333258
0.463198 0.462436 0.464788
0.444219 0.444212 0.444171
0.592765 0.590862 0.586778
0.522901 0.521586 0.507237
0.498130 0.495953 0.496341
0.289582 0.290672 0.282666
0.649045 0.646328 0.650191
0.312120 0.312383 0.314212
0.258688 0.260303 0.260597
0.295460 0.296001 0.300989
0.678101 0.677622 0.674064
0.399345 0.404654 0.405772
0.328533 0.328115 0.328021
0.280267 0.282476 0.282873
0.264241 0.265818 0.269462
0.271123 0.270541 0.270219
0.275726 0.276431 0.281571
0.348253 0.349252 0.349508
0.615689 0.612871 0.618536
0.318998 0.321681 0.322918
0.549545 0.545649 0.544610
0.313284 0.314753 0.314912
0.249181 0.248722 0.248676
0.351465 0.351747 0.350540
0.896888 0.892957 0.894053
0.292530 0.288909 0.289694
0.293180 0.294357 0.294241
0.669695 0.690449 0.691683
0.498601 0.518221 0.515686
0.341839 0.334785 0.336244
0.288092 0.287421 0.286149
0.328494 0.327900 0.325306
0.293608 0.293759 0.293856
0.300035 0.299630 0.296624
0.339785 0.339177 0.339178
0.323500 0.302780 0.297816
0.652278 0.636161 0.637076
0.324714 0.325137 0.325011
0.313256 0.313371 0.313958
0.404777 0.395751 0.394430
0.222662 0.221638 0.222011
0.230628 0.232492 0.232093
0.379814 0.381260 0.381812
0.345983 0.346482 0.348002
0.299649 0.302255 0.309046
0.342312 0.321235 0.318122
0.234285 0.232472 0.227875
0.688110 0.686945 0.685934
0.691252 0.698263 0.702524
0.580885 0.585268 0.587978
0.398484 0.399399 0.400350
0.276940 0.277193 0.276670
0.452643 0.451938 0.450348
0.301872 0.299811 0.298570
0.848492 0.849639 0.853346
0.644252 0.628777 0.624739
0.651538 0.648478 0.642944
0.371536 0.367176 0.367149
0.398327 0.396355 0.395282
0.296968 0.293828 0.294982
0.262039 0.262607 0.263380
0.328103 0.326332 0.324985
0.651982 0.649002 0.647034
0.586462 0.589223 0.593827
0.304049 0.298212 0.298649
0.317408 0.320729 0.321765
0.589513 0.585350 0.583542
0.264999 0.262932 0.261354
0.306027 0.307382 0.307061
0.548359 0.549345 0.551132
0.327762 0.327849 0.326769
0.282060 0.282973 0.294335
0.348580 0.348372 0.346514
0.422681 0.422763 0.423093
0.389328 0.393149 0.397442
0.642606 0.641959 0.638886
0.274511 0.270151 0.268610
0.526031 0.526288 0.525698
0.504976 0.505153 0.504930
0.372108 0.371111 0.368884
0.246800 0.242891 0.241943
0.229814 0.237222 0.235705
0.258998 0.258667 0.259225
0.684555 0.687359 0.691029
0.301203 0.301249 0.300725
0.299876 0.300071 0.299824
0.312272 0.311843 0.316275
0.473960 0.480935 0.480628
0.360579 0.354098 0.348576
0.269758 0.273049 0.274579
0.646191 0.655855 0.658812
0.347203 0.340835 0.340093
0.319765 0.319750 0.319238
0.380298 0.374170 0.371856
0.279486 0.279265 0.280613
0.257935 0.254501 0.249998
0.211071 0.211745 0.205379
0.300841 0.304903 0.305054
0.614537 0.615689 0.612871
0.321436 0.321430 0.320937
0.347755 0.347001 0.348877
0.286178 0.284307 0.288770
0.327840 0.323395 0.323954
0.535467 0.538497 0.525855
0.652556 0.680933 0.685510
0.386176 0.385927 0.384202
0.393026 0.389601 0.390097
0.293756 0.293913 0.299049
0.538612 0.522035 0.519441
0.251402 0.251612 0.253190
0.445216 0.445591 0.446420
0.329772 0.328959 0.332662
0.278298 0.277829 0.277797
0.610892 0.613441 0.613202
0.246053 0.243578 0.242092
0.315440 0.316572 0.314593
0.528909 0.521758 0.520775
0.360221 0.359223 0.359282
0.293161 0.293737 0.293751
0.648301 0.645472 0.645479
0.275344 0.277883 0.278786
0.589709 0.589444 0.584296
0.289130 0.289284 0.289934
0.434534 0.433821 0.435292
0.536303 0.541455 0.548825
0.409269 0.409131 0.408928
0.397194 0.396721 0.396622
0.341811 0.337894 0.335217
0.240352 0.241651 0.237936
0.298616 0.302937 0.304678
0.368558 0.369871 0.367750
0.370595 0.371278 0.368154
0.248438 0.248877 0.249145
0.360158 0.354434 0.353793
0.233172 0.232704 0.232486
0.384948 0.384306 0.380105
0.709968 0.706679 0.702858
0.212645 0.212550 0.214266
0.513280 0.507694 0.505129
0.609692 0.606590 0.576809
0.280311 0.282092 0.281858
0.347135 0.348716 0.349312
0.676153 0.677971 0.665942
0.379144 0.381606 0.386795
0.271977 0.272629 0.272067
0.256055 0.256780 0.258494
0.260692 0.259125 0.259164
0.264417 0.264539 0.265577
0.397718 0.405358 0.403193
0.356389 0.357771 0.358456
0.568270 0.566131 0.564706
0.442718 0.430395 0.430215
0.410654 0.410053 0.412604
0.291178 0.292365 0.292137
0.281937 0.281554 0.280948
0.317275 0.316120 0.320802
0.523190 0.522656 0.524881
0.284583 0.286558 0.287158
0.260962 0.266236 0.268664
0.324916 0.326847 0.327122
0.378538 0.375226 0.377964
0.300686 0.299161 0.305882
0.329288 0.331932 0.336196
0.306745 0.303747 0.303409
0.280033 0.279636 0.279562
0.254628 0.254848 0.254968
0.383462 0.387318 0.393827
0.675618 0.669423 0.679943
0.181609 0.183889 0.181148
0.314912 0.315641 0.313251
0.665915 0.657889 0.655246
0.529168 0.530246 0.536781
0.339535 0.339526 0.337820
0.583049 0.562379 0.561119
0.792871 0.794262 0.792797
0.249636 0.249529 0.251085
0.659314 0.661919 0.668151
0.269347 0.267814 0.267901
0.287625 0.287050 0.276612
0.488252 0.483532 0.483649
0.194370 0.194598 0.197286
0.552798 0.557078 0.570221
0.406398 0.406943 0.406335
0.414148 0.413955 0.413314
0.454922 0.451929 0.457715
0.341161 0.340360 0.339215
0.272642 0.274563 0.270972
0.384226 0.384284 0.383382
0.448150 0.447556 0.445217
0.387831 0.388021 0.388119
0.265831 0.265703 0.265566
0.297652 0.298009 0.296291
0.277361 0.276180 0.275281
0.444482 0.438022 0.419782
0.313418 0.313375 0.312566
0.418424 0.419859 0.443161
0.498482 0.489840 0.489294
0.278907 0.281639 0.283706
0.282031 0.282941 0.284455
0.584822 0.582870 0.581328
0.264869 0.262168 0.262239
0.337209 0.347046 0.347203
0.296644 0.298216 0.300484
0.222539 0.229839 0.239356
0.282325 0.283953 0.295384
0.383586 0.383788 0.384930
0.688237 0.699412 0.708777
0.391418 0.390431 0.388135
0.367635 0.358335 0.357855
0.618866 0.619886 0.621470
0.285135 0.288322 0.287652
0.894784 0.888241 0.873696
0.288475 0.287923 0.286842
0.268765 0.266856 0.267093
0.261697 0.262913 0.263238
0.321679 0.324645 0.325595
0.282669 0.282897 0.283048
0.261181 0.261077 0.262169
0.269407 0.268507 0.271039
0.275668 0.277694 0.278860
0.310278 0.313418 0.312804
0.381699 0.383365 0.384972
0.674219 0.674024 0.673683
0.731623 0.728111 0.724769
0.292448 0.294652 0.292007
0.242470 0.244399 0.246219
0.318939 0.321000 0.323504
0.540354 0.540365 0.542012
0.243717 0.244112 0.246789
0.537197 0.542180 0.542338
0.541295 0.541593 0.541996
0.300953 0.298640 0.287761
0.345006 0.334017 0.332361
0.653699 0.653124 0.650743
0.445281 0.445861 0.446291
0.256369 0.256224 0.254672
0.297487 0.298475 0.292027
0.393596 0.388690 0.387728
0.677573 0.659549 0.649670
0.244409 0.245162 0.246626
0.264069 0.267446 0.274215
0.320444 0.319588 0.320089
0.278694 0.277386 0.275884
0.272995 0.274216 0.274819
0.329198 0.335148 0.340735
0.304625 0.307172 0.307185
0.602488 0.600525 0.598708
0.362797 0.362341 0.362584
0.275592 0.275649 0.271930
0.315646 0.316761 0.314045
0.422595 0.421316 0.422477
0.313605 0.315159 0.313479
0.260460 0.261084 0.262763
0.298943 0.294694 0.294136
0.280666 0.280810 0.277938
0.487981 0.496508 0.497154
0.370790 0.374006 0.375320
0.332838 0.333806 0.335122
0.281319 0.280447 0.278533
0.242571 0.244249 0.240300
0.268852 0.267305 0.266414
0.386699 0.388592 0.387132
0.330575 0.331911 0.330836
0.280470 0.280467 0.279157
0.495842 0.500363 0.501386
0.659767 0.659451 0.656326
0.271443 0.273722 0.275656
0.376167 0.375153 0.367567
0.607523 0.608486 0.611093
0.290072 0.290551 0.290299
0.289401 0.289012 0.289938
0.648673 0.643598 0.627201
0.293042 0.289193 0.284121
0.385954 0.385991 0.385094
0.627267 0.626331 0.623311
0.390733 0.390958 0.390995
0.543522 0.541776 0.541605
0.277613 0.277863 0.278098
0.395346 0.395713 0.394147
0.517305 0.518206 0.519207
0.541385 0.541522 0.539214
0.529634 0.515751 0.517226
0.428498 0.429769 0.426259
0.315549 0.315154 0.317456
0.275495 0.274505 0.269262
0.489430 0.489470 0.490428
0.582882 0.608269 0.607369
0.391490 0.393397 0.384524
0.307456 0.303792 0.301190
0.284481 0.283940 0.280841
0.535001 0.526776 0.522955
0.681406 0.675841 0.666858
0.554779 0.549337 0.542019
0.611349 0.601092 0.591423
0.285951 0.285230 0.289916
0.616085 0.612236 0.604201
0.267851 0.265633 0.270628
0.642034 0.642287 0.643953
0.387033 0.389907 0.399768
0.292098 0.290729 0.287612
0.318534 0.312505 0.313116
0.460223 0.459420 0.457125
0.271367 0.267965 0.258199
0.692499 0.694239 0.692350
0.269277 0.267093 0.269262
0.505006 0.505837 0.508472
0.275883 0.275538 0.270519
0.631190 0.631858 0.621288
0.516446 0.508880 0.499347
0.294536 0.294902 0.293578
0.276765 0.273502 0.268170
0.353378 0.360115 0.361875
0.266416 0.266922 0.267453
0.344466 0.343105 0.347288
0.224967 0.226821 0.227690
0.450437 0.447917 0.447625
0.682268 0.671856 0.672479
0.584482 0.572779 0.572455
0.295501 0.294399 0.292151
0.390334 0.390598 0.390504
0.730333 0.727832 0.727255
0.712754 0.714059 0.713858
0.252414 0.254717 0.254519
0.648317 0.632086 0.630940
0.692180 0.689598 0.685732
0.239606 0.237100 0.235180
0.282184 0.282462 0.282181
0.281565 0.281995 0.280616
0.254419 0.254128 0.254460
0.643547 0.643291 0.640920
0.312171 0.312352 0.314887
0.194819 0.186093 0.180023
0.289388 0.289689 0.286985
0.154421 0.163474 0.165566
0.243919 0.244813 0.248872
0.274907 0.276608 0.276664
0.307299 0.304583 0.303612
0.301462 0.301522 0.290712
0.281781 0.283496 0.283647
0.260866 0.261289 0.263825
0.402303 0.402082 0.401121
0.229299 0.229481 0.228711
0.303153 0.299154 0.298241
0.282981 0.283551 0.283174
0.500269 0.501148 0.507061
0.274655 0.276603 0.277198
0.661166 0.655968 0.649933
0.239671 0.247905 0.249634
0.297773 0.297552 0.297009
0.489188 0.490275 0.490502
0.288151 0.293436 0.294108
0.401519 0.401668 0.401540
0.539171 0.543652 0.539705
0.295228 0.295808 0.297384
0.588533 0.572952 0.570291
0.274149 0.292212 0.295529
0.596529 0.594745 0.596097
0.308972 0.310718 0.310850
0.678168 0.680302 0.689080
0.309810 0.311099 0.310456
0.250041 0.250527 0.250827
0.224898 0.226096 0.235740
0.315521 0.315709 0.317738
0.263865 0.267169 0.268450
0.638122 0.624916 0.624191
0.289716 0.288965 0.288085
0.692932 0.691776 0.687454
0.291855 0.294054 0.294185
0.583905 0.589703 0.591685
0.466903 0.474240 0.482485
0.263299 0.262951 0.263904
0.139035 0.139088 0.140351
0.275329 0.270913 0.271467
0.283716 0.290729 0.296259
0.388791 0.387883 0.388726
0.653872 0.653014 0.652329
0.567006 0.562621 0.559439
0.263394 0.262949 0.268131
0.313835 0.314239 0.313898
0.299789 0.296606 0.296976
0.512628 0.523131 0.529959
0.759463 0.751417 0.726767
0.717086 0.711084 0.711473
0.243841 0.240700 0.238433
0.307877 0.308711 0.308414
0.405009 0.404431 0.398651
0.333353 0.334633 0.334761
0.659780 0.658709 0.649284
0.265280 0.271993 0.274803
0.279619 0.276333 0.274229
0.329747 0.327007 0.327803
0.394842 0.396151 0.396081
0.697663 0.699857 0.703188
0.350665 0.354917 0.361451
0.373333 0.369340 0.366976
0.547131 0.546235 0.540004
0.420468 0.422816 0.441447
0.611415 0.596209 0.592259
0.377251 0.378011 0.378372
0.292690 0.290069 0.294339
0.280223 0.278969 0.280194
0.274835 0.274167 0.272691
0.593519 0.589825 0.563696
0.277383 0.274131 0.273213
0.339178 0.336921 0.336321
0.226728 0.229413 0.227917
0.401626 0.402379 0.402017
0.282334 0.282243 0.281154
0.300276 0.298078 0.298501
0.338763 0.337847 0.339311
0.292620 0.292704 0.289353
0.283575 0.283142 0.280718
0.401501 0.402781 0.401981
0.659730 0.652646 0.649014
0.261497 0.262126 0.263355
0.307297 0.305140 0.296364
0.284623 0.283108 0.282140
0.313345 0.311388 0.305340
0.797406 0.797307 0.797128
0.274336 0.275072 0.278828
0.283550 0.285841 0.286180
0.620124 0.617558 0.615798
0.251456 0.249717 0.251494
0.398510 0.398205 0.395592
0.293186 0.290893 0.290485
0.320099 0.318476 0.315647
0.387877 0.385838 0.362414
0.254897 0.253459 0.251711
0.389907 0.399768 0.400975
0.302691 0.306219 0.315608
0.445608 0.447746 0.445251
0.297629 0.297591 0.296824
0.674822 0.681675 0.681362
0.386330 0.385529 0.386447
0.292996 0.293137 0.292808
0.394040 0.398866 0.399055
0.611540 0.612262 0.613690
0.223400 0.223467 0.223569
0.235015 0.232030 0.224416
0.312458 0.311396 0.309425
0.348171 0.347608 0.345501
0.280610 0.280769 0.281662
0.500620 0.490871 0.491059
0.287860 0.286083 0.282447
0.327006 0.327841 0.322879
0.285618 0.287422 0.294005
0.264634 0.265520 0.268591
0.290328 0.288693 0.291839
0.336321 0.338510 0.337257
0.583245 0.583604 0.584906
0.258337 0.258869 0.260079
0.308743 0.310741 0.323303
0.395454 0.399962 0.403370
0.425995 0.428840 0.427758
0.665274 0.661189 0.662376
0.691053 0.689958 0.688345
0.584879 0.573912 0.570725
0.423174 0.424868 0.426441
0.596191 0.586345 0.583590
0.240922 0.240670 0.240996
0.479474 0.479075 0.462142
0.559439 0.557769 0.553821
0.277392 0.276490 0.276815
0.649426 0.651576 0.651533
0.677069 0.678408 0.679337
0.263238 0.263527 0.264926
0.383653 0.394320 0.398129
0.269851 0.268599 0.266292
0.562738 0.557245 0.550955
0.234687 0.235699 0.231538
0.278819 0.278389 0.272940
0.339795 0.338927 0.337069
0.674292 0.675346 0.669762
0.586559 0.585657 0.583756
0.314753 0.314912 0.315641
0.342946 0.328092 0.326247
0.294108 0.295097 0.294412
0.572703 0.573199 0.579942
0.463117 0.464097 0.464085
0.322085 0.315587 0.314042
0.690545 0.693618 0.692142
0.295653 0.297414 0.298404
0.260599 0.259831 0.260209
0.331033 0.332107 0.328993
0.255748 0.256037 0.256271
0.375080 0.374151 0.371638
0.315537 0.316837 0.316211
0.300008 0.302243 0.316719
0.264153 0.265362 0.266211
0.282768 0.280998 0.281319
0.279564 0.280129 0.277106
0.254128 0.254460 0.253326
0.362233 0.362131 0.361078
0.305092 0.303867 0.302641
0.318134 0.315104 0.314202
0.231355 0.229015 0.230130
0.276752 0.278247 0.278789
0.314465 0.314247 0.311202
0.250501 0.251167 0.251795
0.684419 0.677665 0.676414
0.310732 0.311728 0.313801
0.368424 0.371216 0.374418
0.258775 0.258476 0.258005
0.335007 0.333957 0.331604
0.415859 0.431748 0.431762
0.477264 0.472407 0.470182
0.232676 0.234886 0.227893
0.711457 0.718491 0.717086
0.267967 0.268986 0.268328
0.375259 0.383060 0.386547
0.411125 0.411123 0.411139
0.368810 0.367571 0.366134
0.472516 0.475131 0.479129
0.529104 0.527549 0.521477
0.543982 0.544326 0.553141
0.286906 0.287299 0.287119
0.436426 0.439564 0.440574
0.565052 0.562378 0.539515
0.262786 0.264666 0.266090
0.305847 0.303836 0.304060
0.338889 0.344259 0.345736
0.247259 0.246983 0.245145
0.139846 0.139064 0.139018
0.276966 0.281734 0.280429
0.629135 0.630000 0.644908
0.241013 0.243284 0.246590
0.655146 0.649426 0.651576
0.264258 0.263974 0.264634
0.734339 0.727483 0.727313
0.266474 0.263583 0.264463
0.428264 0.433350 0.432187
0.392728 0.407490 0.416633
0.298055 0.293064 0.290764
0.641501 0.638677 0.642031
0.267632 0.275668 0.277694
0.267641 0.267851 0.269405
0.468207 0.468630 0.471157
0.429033 0.430426 0.430985
0.236093 0.236559 0.236372
0.628122 0.628469 0.630771
0.407490 0.416633 0.419125
0.264276 0.257584 0.256662
0.408299 0.409577 0.402823
0.238711 0.239608 0.240361
0.262825 0.263459 0.269870
0.276464 0.277461 0.275984
0.342992 0.343916 0.343599
0.267795 0.266479 0.263585
0.429328 0.425443 0.422610
0.378529 0.378485 0.378482
0.282872 0.282498 0.280730
0.697849 0.698366 0.695225
0.681675 0.681362 0.676303
0.383251 0.383999 0.384084
0.279378 0.278247 0.277228
0.334247 0.336356 0.340482
0.300096 0.304939 0.317266
0.339061 0.338505 0.340575
0.392807 0.389598 0.390667
0.637011 0.637100 0.638231
0.299674 0.300284 0.301226
0.253485 0.256540 0.257381
0.281352 0.281493 0.282332
0.429930 0.429328 0.425443
0.301769 0.306879 0.304932
0.409117 0.416169 0.421094
0.283646 0.283890 0.284843
0.336912 0.325719 0.323315
0.395568 0.396133 0.396036
0.652725 0.676752 0.685347
0.556269 0.557562 0.566163
0.357716 0.353182 0.352358
0.280806 0.279704 0.274937
0.271452 0.271052 0.269884
0.399367 0.399739 0.399674
0.338978 0.335386 0.336438
0.405306 0.401031 0.384177
0.349397 0.348707 0.348380
0.292232 0.292695 0.293294
0.239626 0.239409 0.240117
0.291300 0.274186 0.261769
0.595185 0.596128 0.594804
0.284015 0.285694 0.285884
0.258809 0.259404 0.262230
0.625057 0.622737 0.618719
0.254341 0.258549 0.258680
0.356292 0.356923 0.355825
0.275781 0.271207 0.271014
0.287971 0.284162 0.282137
0.267128 0.268205 0.267851
0.750221 0.758968 0.757338
0.285866 0.282996 0.276453
0.302536 0.302657 0.302532
0.272426 0.269902 0.271894
0.376881 0.379843 0.394728
0.315786 0.317459 0.312144
0.596272 0.594782 0.594144
0.478652 0.476647 0.457858
0.280998 0.281319 0.283365
0.259822 0.258924 0.258707
0.264934 0.265652 0.263115
0.665675 0.666240 0.660940
0.355746 0.355145 0.352766
0.346118 0.344487 0.341013
0.649132 0.650365 0.651768
0.336063 0.335981 0.344846
0.322465 0.318162 0.317338
0.293853 0.295981 0.297476
0.278850 0.288895 0.289184
0.288910 0.289682 0.292620
0.390430 0.394778 0.398344
0.283447 0.283589 0.279629
0.567953 0.565742 0.564147
0.688003 0.686042 0.686388
0.483721 0.490945 0.504723
0.291666 0.291083 0.286005
0.519944 0.522044 0.534463
0.293816 0.293103 0.292477
0.391462 0.391498 0.391834
0.315958 0.315269 0.314250
0.285132 0.284748 0.283573
0.442631 0.441017 0.433170
0.387052 0.386749 0.386362
0.377850 0.376022 0.376453
0.673753 0.675357 0.680210
0.786184 0.788779 0.783423
0.526853 0.523938 0.513862
0.277920 0.279444 0.279786
0.287066 0.292439 0.289377
0.300358 0.298346 0.298486
0.287050 0.276612 0.274224
0.235435 0.232560 0.232922
0.639242 0.641399 0.630686
0.658502 0.655136 0.652577
0.450161 0.432075 0.414329
0.698411 0.701887 0.706357
0.299871 0.306325 0.307645
0.285725 0.284852 0.274572
0.488619 0.488710 0.489199
0.288062 0.289652 0.293527
0.167586 0.169099 0.174543
0.294976 0.293595 0.292625
0.274706 0.274426 0.275112
