0.132399 0.132524 0.132849
0.105204 0.105264 0.104990
0.086932 0.086530 0.087049
0.089683 0.089347 0.089072
0.089648 0.089893 0.089686
0.113617 0.115094 0.115102
0.092180 0.091866 0.091637
0.097288 0.096655 0.096455
0.130859 0.131771 0.132773
0.134798 0.134552 0.133496
0.092857 0.092841 0.092805
0.090977 0.089088 0.087954
0.099238 0.097680 0.097724
0.112726 0.114862 0.115003
0.107157 0.106937 0.106720
0.089951 0.089801 0.089844
0.107043 0.107016 0.107923
0.095544 0.096188 0.094979
0.113010 0.112809 0.114993
0.087929 0.087963 0.087486
0.088285 0.088102 0.088522
0.093397 0.093549 0.093532
0.119924 0.118967 0.119346
0.126229 0.126386 0.126235
0.108127 0.108723 0.109913
0.124801 0.123095 0.120826
0.089135 0.089251 0.089573
0.135730 0.136148 0.135946
0.104043 0.103915 0.103814
0.096161 0.096310 0.096138
0.133434 0.132687 0.125313
0.102385 0.102109 0.101984
0.128870 0.128919 0.129193
0.088008 0.088642 0.087295
0.100073 0.101387 0.101729
0.098895 0.099100 0.100031
0.116929 0.116633 0.116893
0.084243 0.084774 0.084845
0.117626 0.117892 0.117697
0.113740 0.113865 0.113855
0.093530 0.093493 0.093609
0.087743 0.089243 0.089117
0.102826 0.102462 0.101957
0.101783 0.098856 0.098845
0.109891 0.110442 0.110916
0.108765 0.108485 0.109208
0.097238 0.098075 0.098948
0.089688 0.089840 0.090057
0.116184 0.115684 0.115669
0.085569 0.084950 0.085205
0.100026 0.099490 0.099018
0.130180 0.127613 0.126558
0.103191 0.105049 0.103967
0.126304 0.127047 0.128076
0.117313 0.117238 0.117440
0.126380 0.125897 0.125320
0.140898 0.141019 0.141266
0.109396 0.109254 0.109211
0.086364 0.086673 0.086262
0.125946 0.126167 0.126328
0.092676 0.092198 0.091083
0.106370 0.106597 0.106521
0.080235 0.080218 0.080204
0.106157 0.105618 0.105443
0.109553 0.108375 0.109488
0.124055 0.124491 0.126897
0.095327 0.095404 0.095763
0.088333 0.087597 0.086442
0.134579 0.136018 0.134780
0.094536 0.092401 0.092792
0.118571 0.118899 0.120387
0.096239 0.096810 0.097604
0.093308 0.092460 0.090835
0.103389 0.103074 0.097051
0.092398 0.092678 0.092707
0.086607 0.086473 0.086100
0.141270 0.141009 0.140708
0.151125 0.151225 0.151829
0.100016 0.101003 0.101890
0.097739 0.097888 0.097388
0.096751 0.096862 0.097454
0.131545 0.130440 0.131884
0.093068 0.093550 0.092242
0.104940 0.102927 0.103135
0.125774 0.126023 0.126120
0.124551 0.125709 0.125222
0.117271 0.115468 0.113134
0.094517 0.094415 0.094288
0.096189 0.095143 0.085657
0.120411 0.121299 0.126216
0.082987 0.082969 0.083024
0.090509 0.090533 0.090608
0.086513 0.086465 0.084673
0.100848 0.100908 0.099620
0.110308 0.110425 0.110644
0.078802 0.079972 0.080316
0.119451 0.118419 0.118334
0.117039 0.119013 0.121671
0.089696 0.089388 0.086288
0.132898 0.133689 0.138853
0.111147 0.111177 0.110228
0.116250 0.115434 0.113721
0.127207 0.127977 0.125409
0.084080 0.084171 0.083034
0.114320 0.113419 0.110383
0.117770 0.118461 0.118886
0.087535 0.089048 0.086281
0.089639 0.091255 0.091710
0.100045 0.100063 0.099778
0.131664 0.129925 0.129792
0.110483 0.107741 0.107815
0.088288 0.088352 0.088522
0.107768 0.108032 0.109193
0.096665 0.097473 0.098382
0.139064 0.139113 0.139693
0.085412 0.085164 0.085183
0.100602 0.100753 0.100624
0.116789 0.116589 0.116023
0.099271 0.099747 0.100253
0.110518 0.110639 0.111134
0.087765 0.088562 0.086965
0.120803 0.118471 0.118578
0.097129 0.096234 0.096119
0.094941 0.095653 0.098236
0.133102 0.132848 0.132679
0.116569 0.116621 0.114671
0.101632 0.102080 0.102951
0.129018 0.129253 0.128937
0.123421 0.123200 0.122858
0.085513 0.085286 0.085141
0.097342 0.097535 0.098102
0.146780 0.135277 0.133398
0.123698 0.123618 0.123359
0.117927 0.118112 0.117963
0.086636 0.086762 0.087531
0.107664 0.106587 0.106289
0.131365 0.130961 0.123442
0.094836 0.094817 0.094761
0.117135 0.118424 0.119842
0.096237 0.096260 0.096458
0.130754 0.130106 0.127525
0.121023 0.120491 0.119827
0.081778 0.082528 0.084541
0.081403 0.081421 0.081200
0.107629 0.107797 0.109263
0.095394 0.095535 0.093815
0.106172 0.105044 0.105034
0.083461 0.083819 0.084128
0.107800 0.109136 0.111929
0.089397 0.090023 0.091342
0.093623 0.093390 0.092840
0.083046 0.082909 0.082845
0.122714 0.122481 0.122818
0.087163 0.086667 0.086462
0.114978 0.114909 0.114683
0.088393 0.089200 0.089327
0.132454 0.131989 0.133148
0.120080 0.119965 0.120043
0.116008 0.116259 0.114327
0.105016 0.105688 0.105829
0.109172 0.109454 0.109662
0.100047 0.099906 0.099298
0.114915 0.114780 0.114487
0.104981 0.106500 0.106081
0.122477 0.123059 0.123869
0.113176 0.113768 0.113173
0.102237 0.101989 0.102341
0.086915 0.087386 0.087167
0.099901 0.100872 0.101062
0.082724 0.081385 0.080862
0.114991 0.114983 0.114819
0.153904 0.154145 0.153294
0.107263 0.105657 0.105331
0.129400 0.128931 0.129840
0.099812 0.099600 0.099502
0.098831 0.100804 0.099916
0.131565 0.131702 0.131825
0.088833 0.090360 0.090656
0.115514 0.116041 0.117114
0.095683 0.094202 0.094408
0.103252 0.104865 0.108402
0.104256 0.106453 0.107096
0.125737 0.124174 0.123874
0.106584 0.106052 0.106131
0.113580 0.113729 0.113020
0.084935 0.084637 0.084777
0.116665 0.116805 0.117469
0.090619 0.090708 0.091620
0.118932 0.118791 0.117915
0.092534 0.092471 0.090193
0.112584 0.112404 0.113443
0.132246 0.132471 0.132441
0.098548 0.098952 0.099336
0.121008 0.120803 0.118471
0.085608 0.085724 0.085263
0.103325 0.103350 0.103673
0.117284 0.117193 0.117058
0.116382 0.115804 0.115623
0.119159 0.119117 0.120054
0.118688 0.118354 0.118169
0.086520 0.086128 0.086113
0.106028 0.106199 0.105907
0.090532 0.090578 0.090663
0.090600 0.090558 0.090539
0.119377 0.118191 0.116717
0.110392 0.110334 0.110602
0.130569 0.131949 0.132721
0.098264 0.098582 0.098696
0.125761 0.126149 0.126091
0.108581 0.107508 0.107356
0.097381 0.096958 0.097151
0.111216 0.110938 0.110348
0.113077 0.114146 0.114115
0.118929 0.119071 0.119120
0.091589 0.091159 0.089934
0.105015 0.105220 0.104282
0.108480 0.108389 0.108275
0.107569 0.107869 0.107778
0.101407 0.101870 0.102015
0.090446 0.090422 0.090275
0.119772 0.119808 0.120342
0.096853 0.096868 0.096951
0.084720 0.084730 0.084627
0.120273 0.120439 0.120816
0.118649 0.118880 0.120002
0.097587 0.097388 0.096842
0.117101 0.117197 0.113908
0.110938 0.110348 0.109929
0.092812 0.093017 0.093283
0.096661 0.094287 0.094302
0.123288 0.124450 0.125816
0.085660 0.086593 0.087147
0.121160 0.121583 0.123053
0.084345 0.084419 0.084401
0.087654 0.089095 0.089512
0.106098 0.105604 0.105469
0.128033 0.128045 0.128177
0.094037 0.093454 0.093893
0.107775 0.106607 0.108339
0.093119 0.091864 0.092017
0.099445 0.102497 0.103097
0.104343 0.107203 0.107371
0.125409 0.124737 0.124473
0.110641 0.110553 0.110338
0.109729 0.109969 0.110341
0.117002 0.118398 0.119644
0.132530 0.132857 0.134942
0.113974 0.113699 0.113370
0.119802 0.119815 0.119805
0.125451 0.125418 0.125544
0.086599 0.086767 0.086923
0.087448 0.087213 0.086856
0.120021 0.120345 0.120650
0.086179 0.086281 0.086002
0.092180 0.091801 0.093265
0.094010 0.093964 0.094367
0.087827 0.087832 0.087932
0.115103 0.115544 0.116191
0.099102 0.099338 0.098424
0.106981 0.107701 0.108935
0.121276 0.123437 0.123268
0.086755 0.086499 0.086565
0.088900 0.088905 0.088511
0.099535 0.099851 0.099486
0.083708 0.084203 0.085096
0.088974 0.088902 0.088904
0.111695 0.111074 0.110678
0.109482 0.110298 0.110192
0.097123 0.097069 0.096886
0.081047 0.080497 0.080397
0.110210 0.110481 0.111473
0.086302 0.086196 0.086569
0.096588 0.095883 0.095450
0.110767 0.110715 0.111506
0.115516 0.120734 0.121711
0.116593 0.111555 0.111172
0.091785 0.091880 0.090766
0.126786 0.126095 0.125621
0.093447 0.093154 0.092778
0.097885 0.097357 0.097277
0.095811 0.095362 0.094698
0.108146 0.107230 0.105884
0.099856 0.101042 0.101963
0.087950 0.086809 0.085695
0.137364 0.136607 0.137414
0.094286 0.094329 0.094092
0.133674 0.133426 0.133045
0.094698 0.094446 0.094027
0.116440 0.115569 0.114831
0.098570 0.099568 0.100407
0.109924 0.109595 0.109417
0.091322 0.090672 0.089942
0.125960 0.125097 0.122409
0.085517 0.085533 0.086489
0.123293 0.123157 0.123182
0.103121 0.103336 0.103868
0.088491 0.090039 0.089951
0.119827 0.119460 0.119901
0.118487 0.118366 0.116781
0.117526 0.117940 0.118020
0.116625 0.116637 0.116671
0.108060 0.108796 0.108897
0.126005 0.126075 0.125973
0.117332 0.117387 0.117278
0.090313 0.090032 0.087588
0.127022 0.127158 0.128056
0.116469 0.116618 0.116358
0.088673 0.089019 0.089121
0.100374 0.100489 0.100766
0.088212 0.088215 0.087840
0.110839 0.109924 0.109595
0.083856 0.084222 0.084481
0.084881 0.087899 0.088102
0.132133 0.133909 0.133781
0.104464 0.103989 0.103596
0.124996 0.124952 0.125261
0.123316 0.123004 0.122068
0.129448 0.130052 0.130373
0.123008 0.123018 0.122998
0.104621 0.104892 0.105107
0.112348 0.112441 0.112641
0.117506 0.117213 0.116848
0.098357 0.098161 0.098225
0.091782 0.091824 0.091911
0.115304 0.115075 0.115177
0.083992 0.082903 0.083059
0.123764 0.123969 0.124339
0.092231 0.091795 0.089932
0.083405 0.083369 0.082935
0.110581 0.110281 0.110269
0.098012 0.097856 0.097808
0.095586 0.095197 0.093968
0.098441 0.098342 0.098790
0.090058 0.089565 0.089787
0.089285 0.085501 0.085499
0.110866 0.110850 0.110332
0.100233 0.102007 0.101200
0.091551 0.091355 0.093409
0.120722 0.121960 0.122100
0.120228 0.119869 0.119802
0.086323 0.086583 0.086443
0.084063 0.083811 0.083556
0.117389 0.117457 0.119756
0.129469 0.128816 0.132216
0.129784 0.130380 0.129934
0.124357 0.124032 0.123410
0.099521 0.099435 0.099471
0.108652 0.109225 0.109526
0.122105 0.122726 0.122797
0.107534 0.106337 0.106802
0.117617 0.118792 0.117233
0.100256 0.101004 0.101811
0.101298 0.101254 0.100862
0.104773 0.104568 0.104640
0.100284 0.102183 0.102492
0.102742 0.103186 0.103441
0.101261 0.103634 0.104310
0.098756 0.098534 0.099121
0.087795 0.087963 0.087914
0.114961 0.115050 0.115332
0.122087 0.122603 0.122881
0.117820 0.117863 0.118869
0.126261 0.128076 0.127878
0.102128 0.102387 0.102977
0.096658 0.096934 0.095602
0.087963 0.087914 0.088343
0.104850 0.106354 0.107379
0.100228 0.099942 0.098213
0.109110 0.109338 0.109620
0.104757 0.104914 0.104866
0.119970 0.120158 0.120094
0.092383 0.091519 0.091814
0.096159 0.095770 0.096005
0.082302 0.082601 0.082518
0.121277 0.119805 0.119434
0.087726 0.087901 0.088287
0.119611 0.119589 0.118902
0.084411 0.084419 0.084886
0.094850 0.094553 0.094037
0.129149 0.130735 0.130222
0.091645 0.091921 0.092147
0.090346 0.090332 0.089415
0.095746 0.098833 0.098182
0.087868 0.088475 0.090007
0.087834 0.086056 0.085580
0.138853 0.139091 0.137369
0.111514 0.111002 0.111427
0.082244 0.081997 0.082517
0.086215 0.086759 0.087690
0.105416 0.104753 0.104388
0.088320 0.088034 0.088138
0.125159 0.125033 0.123489
0.126654 0.126351 0.126228
0.097126 0.095222 0.095873
0.118802 0.118858 0.117378
0.120546 0.122042 0.122444
0.082766 0.083025 0.083075
0.128060 0.129351 0.129591
0.103187 0.103147 0.101995
0.103549 0.104063 0.104569
0.108372 0.109501 0.113287
0.119303 0.118431 0.114937
0.097583 0.098044 0.098140
0.093920 0.095056 0.095029
0.098613 0.098515 0.099273
0.129286 0.129401 0.130769
0.098599 0.100219 0.100806
0.088632 0.089154 0.088706
0.092598 0.092562 0.092694
0.123267 0.122504 0.119731
0.117337 0.117391 0.117131
0.100182 0.100467 0.101309
0.095070 0.094762 0.094275
0.130888 0.135765 0.136152
0.115863 0.115672 0.112314
0.113106 0.111800 0.111642
0.113884 0.112670 0.112023
0.131150 0.128890 0.129852
0.083746 0.083705 0.083836
0.152308 0.153109 0.153276
0.086213 0.085945 0.084036
0.082637 0.081534 0.081279
0.113931 0.113325 0.116636
0.117291 0.113106 0.109706
0.104061 0.103985 0.104047
0.121251 0.120754 0.120381
0.096773 0.096877 0.096935
0.107481 0.104314 0.102827
0.138828 0.138854 0.138181
0.086463 0.085510 0.089269
0.090158 0.090104 0.087228
0.110655 0.110647 0.110714
0.094102 0.092775 0.092086
0.136905 0.137206 0.138485
0.094718 0.094273 0.096156
0.106343 0.105962 0.105768
0.104092 0.105296 0.106584
0.136115 0.136073 0.135910
0.132540 0.131715 0.131855
0.108097 0.107834 0.107188
0.101729 0.099678 0.098596
0.087357 0.088336 0.088466
0.084738 0.084392 0.082114
0.089000 0.088426 0.087694
0.108069 0.111765 0.110233
0.100233 0.100025 0.099915
0.134881 0.134149 0.133913
0.085791 0.085707 0.086518
0.131366 0.130638 0.131241
0.085603 0.086054 0.092053
0.147698 0.147376 0.141939
0.119227 0.118856 0.116800
0.093505 0.093394 0.093001
0.122745 0.122790 0.121186
0.085413 0.085209 0.085229
0.095093 0.094318 0.092630
0.087682 0.087374 0.087299
0.095499 0.095523 0.096816
0.104831 0.104961 0.106081
0.118094 0.117881 0.117846
0.118520 0.118316 0.115286
0.121417 0.121756 0.124283
0.110874 0.108170 0.107844
0.139521 0.144080 0.144443
0.093321 0.093263 0.092654
0.082502 0.082692 0.083572
0.119151 0.119019 0.119085
0.094815 0.095392 0.096581
0.115451 0.115497 0.117617
0.091939 0.091531 0.093425
0.100642 0.100484 0.101353
0.115607 0.115652 0.116597
0.136841 0.137095 0.137140
0.096939 0.097262 0.097245
0.099277 0.098842 0.097373
0.091629 0.091520 0.093379
0.107351 0.106063 0.103017
0.101159 0.103105 0.102872
0.096975 0.095990 0.095568
0.098526 0.098539 0.098538
0.093231 0.093255 0.093606
0.116464 0.116426 0.116713
0.098739 0.098874 0.100361
0.102724 0.101573 0.101082
0.091089 0.090308 0.089979
0.129933 0.122016 0.121138
0.095770 0.096005 0.095914
0.100819 0.100516 0.098557
0.107701 0.108935 0.109075
0.103019 0.103042 0.104438
0.113315 0.113531 0.112697
0.098524 0.098665 0.098743
0.104841 0.105516 0.105265
0.106603 0.107779 0.106391
0.084472 0.083821 0.086952
0.113626 0.115028 0.114505
0.102985 0.102887 0.105303
0.096609 0.095986 0.095482
0.110543 0.110175 0.110310
0.096317 0.096228 0.095829
0.102206 0.102714 0.102724
0.099854 0.098455 0.099678
0.098983 0.098454 0.098767
0.123378 0.123554 0.124124
0.125812 0.125388 0.126653
0.088878 0.088848 0.088825
0.106016 0.106159 0.106218
0.099470 0.099985 0.100117
0.102692 0.100110 0.098518
0.094677 0.096342 0.096973
0.114616 0.114435 0.114266
0.090995 0.093062 0.093513
0.113485 0.115014 0.115054
0.111260 0.110593 0.109966
0.120651 0.122292 0.123131
0.118086 0.118745 0.119203
0.103966 0.103389 0.103074
0.098298 0.098169 0.097554
0.130523 0.130646 0.131783
0.091864 0.092657 0.093021
0.099422 0.099090 0.097094
0.098511 0.099102 0.099338
0.107674 0.108770 0.109428
0.109866 0.111508 0.114072
0.119234 0.119317 0.118037
0.084719 0.080229 0.080001
0.100178 0.100364 0.100425
0.133442 0.132239 0.131724
0.109780 0.111706 0.113088
0.113344 0.113373 0.113641
0.132091 0.131660 0.131044
0.108604 0.108947 0.108996
0.097457 0.097652 0.097932
0.096919 0.097799 0.097189
0.108637 0.108582 0.108300
0.152936 0.152791 0.145708
0.115949 0.115746 0.115682
0.107534 0.108219 0.108191
0.120854 0.120735 0.120321
0.094470 0.094407 0.093941
0.099113 0.098809 0.098858
0.093626 0.093863 0.094537
0.087666 0.087869 0.088605
0.096175 0.095975 0.095912
0.133718 0.133538 0.123809
0.128771 0.129850 0.131340
0.118367 0.115703 0.116019
0.101530 0.103540 0.105170
0.117776 0.118028 0.117655
0.113044 0.113043 0.114285
0.097882 0.099243 0.103686
0.118950 0.118910 0.118644
0.106966 0.108732 0.111071
0.104022 0.103721 0.100690
0.080283 0.079444 0.079340
0.116293 0.116146 0.116168
0.081528 0.080650 0.081209
0.097509 0.098924 0.098105
0.101858 0.102922 0.103391
0.107972 0.108553 0.109256
0.130412 0.127096 0.126173
0.087792 0.088239 0.088566
0.134601 0.129329 0.129299
0.109357 0.109686 0.109737
0.117412 0.117135 0.118424
0.120231 0.119196 0.118547
0.086131 0.082201 0.081529
0.115725 0.115712 0.116023
0.100683 0.100665 0.100660
0.104738 0.104550 0.104289
0.099558 0.099505 0.099460
0.087465 0.087713 0.088090
0.090766 0.091589 0.091760
0.101973 0.101876 0.101537
0.092538 0.092546 0.092733
0.092526 0.093088 0.092857
0.100604 0.100366 0.100300
0.112347 0.110708 0.110202
0.132104 0.130756 0.127767
0.109949 0.109440 0.105340
0.126926 0.128653 0.129763
0.111195 0.110746 0.110279
0.114563 0.115167 0.115664
0.095576 0.095232 0.094018
0.086069 0.086631 0.088807
0.083470 0.083828 0.084133
0.083616 0.083523 0.081987
0.102624 0.102593 0.102462
0.108761 0.108429 0.108723
0.088413 0.088057 0.088071
0.128545 0.129866 0.129475
0.112138 0.111015 0.110303
0.091977 0.091944 0.091337
0.107454 0.105607 0.105114
0.090743 0.090836 0.090832
0.079121 0.079371 0.079521
0.153318 0.152936 0.152791
0.084751 0.084285 0.084047
0.093815 0.093871 0.094096
0.116750 0.116670 0.115127
0.096630 0.096391 0.097157
0.114903 0.116258 0.116091
0.105161 0.104162 0.104354
0.105587 0.106641 0.107077
0.098505 0.095718 0.095849
0.101194 0.101310 0.100877
0.111042 0.111275 0.111568
0.111812 0.112100 0.112216
0.084656 0.083065 0.082004
0.090576 0.090410 0.089836
0.122981 0.123944 0.124223
0.121879 0.122043 0.120260
0.130747 0.130412 0.127096
0.085587 0.085704 0.085986
0.114256 0.114195 0.114593
0.135070 0.135270 0.133434
0.131504 0.131633 0.131757
0.102359 0.102297 0.102324
0.112357 0.111597 0.111148
0.095287 0.095085 0.094738
0.095414 0.094940 0.095128
0.093203 0.093160 0.093433
0.121700 0.120289 0.118437
0.100877 0.101134 0.101951
0.107944 0.107690 0.107033
0.114560 0.116967 0.117155
0.095127 0.094183 0.092790
0.126653 0.126394 0.126268
0.105971 0.105540 0.104477
0.108618 0.109803 0.111554
0.092556 0.094589 0.094987
0.110168 0.110604 0.110360
0.090402 0.090647 0.089642
0.094401 0.094476 0.094577
0.112461 0.112332 0.111892
0.119366 0.119271 0.119291
0.098541 0.098491 0.096954
0.129880 0.131967 0.132643
0.110250 0.110191 0.109139
0.096670 0.097078 0.097980
0.119342 0.119294 0.118593
0.115039 0.115848 0.116003
0.107090 0.107852 0.108015
0.099601 0.099115 0.098749
0.089279 0.088987 0.089453
0.133894 0.134045 0.134259
0.100096 0.100053 0.100021
0.113420 0.112820 0.111861
0.082282 0.081839 0.081737
0.108202 0.108242 0.109010
0.109929 0.109609 0.109416
0.101862 0.101437 0.101126
0.105526 0.105250 0.104888
0.111145 0.110112 0.101820
0.119992 0.120397 0.121616
0.123571 0.123431 0.123991
0.094985 0.095262 0.095396
0.078528 0.078418 0.076760
0.091901 0.093441 0.094208
0.111747 0.111297 0.111287
0.091558 0.093036 0.093224
0.123174 0.123530 0.123479
0.134304 0.136282 0.135331
0.103903 0.103807 0.102829
0.103985 0.103188 0.101710
0.083487 0.083708 0.084203
0.130023 0.129859 0.129797
0.114493 0.113253 0.112892
0.092367 0.092403 0.092296
0.093240 0.092546 0.090916
0.112319 0.112373 0.112545
0.131348 0.131328 0.131574
0.115926 0.116068 0.116739
0.118314 0.118325 0.117712
0.084718 0.084613 0.086867
0.117050 0.116257 0.116021
0.094021 0.091523 0.089560
0.081330 0.081377 0.079215
0.100718 0.100254 0.096163
0.115858 0.115712 0.115805
0.106107 0.105171 0.104837
0.126781 0.125218 0.124865
0.133331 0.132604 0.130830
0.107281 0.106927 0.104256
0.130676 0.130963 0.131579
0.096027 0.095878 0.096015
0.130389 0.130835 0.130783
0.102066 0.103303 0.104305
0.087848 0.087748 0.087689
0.118780 0.119341 0.119471
0.118543 0.118908 0.120738
0.116075 0.115829 0.115832
0.082606 0.082059 0.081728
0.114438 0.114172 0.114067
0.084595 0.083511 0.083895
0.125441 0.125373 0.122853
0.089838 0.089601 0.088751
0.129946 0.130138 0.130709
0.101277 0.100967 0.100315
0.121697 0.122033 0.122709
0.101833 0.101937 0.102356
0.132471 0.132441 0.132681
0.090753 0.091741 0.091730
0.128995 0.129679 0.129925
0.127007 0.127157 0.127585
0.090836 0.090758 0.090485
0.088150 0.088142 0.088108
0.091653 0.091669 0.092015
0.121285 0.121513 0.122065
0.098805 0.098298 0.098579
0.129182 0.129462 0.130559
0.130286 0.130518 0.130860
0.098243 0.098572 0.099227
0.085061 0.085188 0.085887
0.122618 0.122512 0.120457
0.117434 0.116892 0.112753
0.084086 0.083637 0.083558
0.105654 0.106319 0.106603
0.101143 0.104043 0.103915
0.106558 0.107626 0.107740
0.093167 0.093248 0.092222
0.126323 0.125358 0.125514
0.090221 0.091237 0.100349
0.122227 0.121970 0.121186
0.080915 0.079690 0.079213
0.132119 0.132951 0.132442
0.110009 0.110229 0.110425
0.102799 0.098600 0.098067
0.102571 0.102385 0.097252
0.108126 0.106830 0.106258
0.141543 0.139081 0.139206
0.102012 0.101967 0.100322
0.134938 0.134939 0.134864
0.100360 0.100421 0.100316
0.123322 0.122380 0.121780
0.091661 0.090752 0.090180
0.125263 0.125129 0.123485
0.091867 0.095833 0.095770
0.089673 0.089483 0.088046
0.092411 0.092438 0.092313
0.082718 0.082502 0.082692
0.087733 0.087338 0.085994
0.109358 0.110432 0.109056
0.133633 0.135117 0.136037
0.104788 0.102612 0.101060
0.112111 0.112221 0.111756
0.128666 0.129027 0.129206
0.110387 0.111303 0.114796
0.125480 0.125136 0.124933
0.085948 0.085372 0.084955
0.100589 0.100787 0.101637
0.130718 0.131921 0.133289
0.095062 0.095231 0.094970
0.089547 0.089870 0.090276
0.107123 0.106335 0.103543
0.126369 0.127475 0.127705
0.105108 0.105670 0.105427
0.109837 0.109538 0.108306
0.135383 0.134956 0.134544
0.135939 0.136642 0.136912
0.112310 0.112380 0.112589
0.082069 0.082322 0.083167
0.108303 0.108028 0.106795
0.119181 0.119080 0.118987
0.112991 0.113327 0.113545
0.095755 0.095980 0.096143
0.090966 0.091549 0.090140
0.092380 0.092742 0.094216
0.099184 0.100307 0.100493
0.117335 0.116386 0.118820
0.095960 0.097214 0.098088
0.129487 0.129247 0.130534
0.083203 0.083689 0.083912
0.106545 0.106205 0.105416
0.096080 0.093716 0.092680
0.094196 0.094257 0.094320
0.100551 0.100219 0.099865
0.099755 0.100335 0.100266
0.080211 0.080228 0.077877
0.114975 0.116116 0.115788
0.141399 0.141218 0.140915
0.125711 0.126273 0.126293
0.093157 0.092817 0.092408
0.115298 0.115916 0.118581
0.089472 0.090358 0.088798
0.123288 0.122025 0.121968
0.120394 0.122095 0.126554
0.129476 0.134779 0.135434
0.101039 0.101064 0.101090
0.134383 0.134407 0.132830
0.087392 0.086352 0.086579
0.105933 0.106051 0.106144
0.094733 0.094865 0.096507
0.112316 0.112215 0.112055
0.092325 0.094056 0.094432
0.093376 0.093455 0.096374
0.103050 0.105534 0.102646
0.084732 0.084392 0.082094
0.103870 0.104817 0.105194
0.099809 0.099807 0.099846
0.111078 0.111005 0.110831
0.109281 0.109462 0.109533
0.093390 0.092840 0.091169
0.090513 0.089137 0.090203
0.113134 0.114404 0.114970
0.122832 0.122677 0.122544
0.108304 0.107965 0.107811
0.092534 0.092687 0.092990
0.090942 0.091006 0.090847
0.125431 0.125130 0.125066
0.104088 0.104404 0.106736
0.102144 0.101847 0.102024
0.087763 0.088198 0.088272
0.095786 0.096842 0.097779
0.126075 0.125041 0.124801
0.102300 0.102393 0.102470
0.120081 0.120034 0.119633
0.099356 0.099526 0.099801
0.114725 0.119846 0.119883
0.101349 0.100591 0.099792
0.144532 0.144434 0.143664
0.105553 0.105200 0.104307
0.095450 0.091317 0.091096
0.113198 0.112322 0.109921
0.089934 0.089534 0.089490
0.112777 0.112759 0.113253
0.121149 0.121492 0.124501
0.099835 0.095870 0.095306
0.116082 0.116590 0.115433
0.100838 0.098993 0.098573
0.130783 0.131463 0.135585
0.103176 0.103628 0.103556
0.089993 0.090451 0.092090
0.100315 0.099752 0.095579
0.138347 0.137536 0.137587
0.100761 0.100509 0.100491
0.125860 0.125459 0.123994
0.133563 0.133225 0.132382
0.090294 0.091397 0.092180
0.094286 0.094532 0.093767
0.102681 0.102771 0.101607
0.093285 0.094204 0.096181
0.087548 0.087414 0.087530
0.102126 0.102106 0.102479
0.108805 0.108109 0.106198
0.109665 0.109216 0.109943
0.115192 0.117742 0.117378
0.115649 0.116737 0.124646
0.099552 0.099831 0.097037
0.126794 0.124038 0.123569
0.101528 0.101386 0.101359
0.095918 0.096036 0.096109
0.108597 0.108459 0.108146
0.108267 0.108139 0.108023
0.129509 0.129473 0.129576
0.116497 0.116287 0.116220
0.110632 0.111964 0.115513
0.141272 0.141481 0.141458
0.093761 0.093864 0.094333
0.081147 0.081323 0.081675
0.089863 0.089804 0.090921
0.129495 0.127592 0.129480
0.095486 0.095450 0.091317
0.096149 0.095845 0.094149
0.106900 0.106098 0.105604
0.111516 0.111370 0.111268
0.081167 0.081335 0.081245
0.123322 0.123261 0.122001
0.098582 0.098696 0.098961
0.084260 0.084176 0.083104
0.099644 0.099597 0.099667
0.092156 0.094637 0.094645
0.137366 0.136650 0.135973
0.099456 0.099647 0.101229
0.083700 0.081768 0.081684
0.104413 0.104999 0.105543
0.120645 0.120761 0.120231
0.118142 0.118693 0.118734
0.088306 0.087815 0.088062
0.131650 0.131487 0.130543
0.135104 0.136841 0.137095
0.097472 0.095124 0.093479
0.117245 0.115915 0.115903
0.109085 0.109361 0.109209
0.107844 0.107785 0.107599
0.109861 0.109929 0.108670
0.121010 0.120842 0.118759
0.118291 0.119309 0.118043
0.110899 0.110943 0.111234
0.115789 0.115685 0.115582
0.107464 0.108676 0.108962
0.107367 0.105848 0.105543
0.098887 0.099678 0.100465
0.096652 0.095997 0.095180
0.127492 0.127346 0.128193
0.092824 0.092618 0.092969
0.111674 0.112314 0.112618
0.129832 0.130797 0.132959
0.094997 0.095066 0.095424
0.117213 0.116848 0.117002
0.092805 0.093007 0.093137
0.088275 0.088708 0.090009
0.100276 0.100433 0.100353
0.098754 0.099108 0.098988
0.083051 0.081401 0.081160
0.102169 0.102391 0.102329
0.115648 0.113995 0.113931
0.094924 0.094356 0.093599
0.093121 0.092832 0.093009
0.112188 0.112492 0.112533
0.108770 0.109428 0.110143
0.097310 0.095896 0.095426
0.099676 0.099608 0.099579
0.103274 0.101179 0.099961
0.123147 0.123225 0.123510
0.147885 0.147061 0.147899
0.102144 0.102093 0.101955
0.102121 0.102919 0.102731
0.114698 0.114428 0.115170
0.084659 0.085133 0.085115
0.118683 0.117134 0.116284
0.107345 0.106582 0.106419
0.090261 0.090448 0.089775
0.102128 0.102750 0.102933
0.101587 0.101686 0.102568
0.118779 0.120120 0.122695
0.108670 0.108612 0.108301
0.126090 0.125848 0.125894
0.134580 0.134875 0.135550
0.089129 0.087812 0.088000
0.094680 0.094235 0.095072
0.123024 0.123008 0.123018
0.083422 0.083798 0.083942
0.104733 0.104046 0.104687
0.094640 0.094349 0.090452
0.092087 0.092398 0.092376
0.100721 0.100193 0.099920
0.101593 0.101963 0.102812
0.089235 0.089444 0.089739
0.119632 0.119161 0.119276
0.139021 0.139390 0.137804
0.085365 0.084823 0.084846
0.118185 0.117931 0.118047
0.102635 0.102643 0.098695
0.110279 0.110323 0.109203
0.107882 0.107732 0.106471
0.089440 0.089763 0.089465
0.129475 0.129291 0.128721
0.114240 0.114770 0.115289
0.112031 0.113210 0.113440
0.098945 0.100303 0.099667
0.112313 0.111969 0.111552
0.114099 0.114244 0.113871
0.086365 0.086146 0.086534
0.095140 0.094513 0.094483
0.130160 0.128364 0.129639
0.104876 0.104413 0.101598
0.109016 0.109517 0.110496
0.131265 0.131375 0.130817
0.125365 0.125404 0.125628
0.085108 0.083790 0.083497
0.103012 0.104313 0.104815
0.116541 0.116494 0.116560
0.133437 0.133031 0.131869
0.098088 0.098515 0.098681
0.105423 0.106481 0.105873
0.105062 0.105084 0.105237
0.088304 0.089084 0.089215
0.107469 0.106546 0.106071
0.108093 0.108015 0.108002
0.116670 0.115127 0.114433
0.092307 0.092269 0.090979
0.102587 0.102247 0.099789
0.129398 0.128771 0.129850
0.113412 0.112877 0.112441
0.124618 0.124615 0.124729
0.105250 0.105201 0.105166
0.085128 0.084964 0.083468
0.097019 0.096353 0.096311
0.085724 0.085263 0.084792
0.111807 0.111670 0.112389
0.112580 0.112542 0.111891
0.087111 0.086745 0.087221
0.126528 0.125691 0.125578
0.086396 0.086135 0.085909
0.131209 0.135718 0.135438
0.093863 0.094102 0.096334
0.101781 0.101598 0.101147
0.091281 0.091208 0.090788
0.099929 0.099277 0.098842
0.091758 0.088627 0.088364
0.093096 0.093516 0.094186
0.097460 0.102106 0.102974
0.085926 0.085812 0.085670
0.098676 0.098772 0.098606
0.096110 0.095611 0.093340
0.104470 0.104061 0.103999
0.100495 0.100602 0.100753
0.111780 0.111440 0.110898
0.099650 0.099116 0.099014
