0.471454 0.465719 0.461177
0.299380 0.305206 0.305725
0.408899 0.409866 0.396832
0.469131 0.467745 0.469513
0.372750 0.366635 0.352342
0.346094 0.349795 0.350282
0.593602 0.593977 0.592330
0.301005 0.301716 0.303261
0.501426 0.504049 0.504893
0.436365 0.436020 0.435873
0.161378 0.159951 0.160242
0.271359 0.272580 0.279749
0.339185 0.318348 0.317004
0.454733 0.451462 0.447187
0.353338 0.355430 0.355600
0.498078 0.500472 0.504123
0.511979 0.510741 0.512279
0.495722 0.494222 0.493940
0.483427 0.482656 0.482014
0.507299 0.508293 0.509322
0.453592 0.450831 0.449536
0.293410 0.295183 0.287993
0.534886 0.534892 0.535675
0.302313 0.300720 0.298589
0.344558 0.337491 0.336209
0.515016 0.514190 0.515102
0.251765 0.251187 0.246098
0.505678 0.513579 0.511780
0.442995 0.441107 0.440202
0.343531 0.342678 0.341398
0.615034 0.613418 0.617386
0.494820 0.495633 0.496727
0.193194 0.193087 0.193109
0.466122 0.461448 0.460752
0.153929 0.153616 0.153136
0.154692 0.154831 0.155519
0.126289 0.123766 0.123081
0.234795 0.235797 0.240583
0.140865 0.140959 0.140992
0.455787 0.456975 0.459374
0.473307 0.473883 0.473788
0.288999 0.288178 0.287271
0.489014 0.489044 0.492250
0.576959 0.580336 0.581412
0.472276 0.477494 0.475719
0.537540 0.537366 0.538065
0.543425 0.543335 0.539435
0.359448 0.358582 0.358442
0.114260 0.115256 0.116291
0.255854 0.256128 0.256033
0.551134 0.554022 0.554268
0.454554 0.451890 0.450072
0.525181 0.524870 0.526554
0.486142 0.485828 0.482803
0.488652 0.486832 0.484964
0.496084 0.496520 0.554341
0.472107 0.471514 0.474439
0.140125 0.139941 0.139989
0.570644 0.572446 0.560783
0.184912 0.184674 0.182442
0.139263 0.138571 0.138860
0.472339 0.477389 0.478890
0.497858 0.519926 0.520249
0.318662 0.318420 0.316192
0.593612 0.594950 0.593792
0.572734 0.566794 0.555803
0.549690 0.546863 0.545620
0.149279 0.149440 0.150061
0.217389 0.215058 0.214506
0.221861 0.221731 0.220997
0.556443 0.556575 0.557583
0.282283 0.282345 0.282431
0.509739 0.510766 0.509774
0.591053 0.591034 0.586407
0.470627 0.477274 0.481969
0.277992 0.277534 0.277216
0.265163 0.254253 0.249193
0.583202 0.583645 0.583349
0.321516 0.323776 0.323974
0.557633 0.556951 0.557727
0.551290 0.546480 0.545208
0.470639 0.467317 0.482456
0.277630 0.277320 0.277418
0.588372 0.589488 0.588311
0.186402 0.189336 0.190178
0.153211 0.153540 0.153899
0.465894 0.462709 0.455386
0.547379 0.540175 0.542133
0.181744 0.181319 0.180224
0.428043 0.427762 0.427732
0.140138 0.139760 0.139798
0.142347 0.141289 0.136616
0.467233 0.466896 0.465715
0.227320 0.227266 0.226658
0.343336 0.341012 0.340630
0.480657 0.477550 0.480095
0.374979 0.369478 0.360721
0.392962 0.390919 0.390738
0.489784 0.488712 0.485291
0.482557 0.484019 0.490868
0.380251 0.380909 0.379601
0.519868 0.521557 0.521483
0.508689 0.507425 0.507024
0.527122 0.526112 0.523951
0.471691 0.466077 0.472518
0.349388 0.348130 0.347879
0.494179 0.495294 0.496224
0.455176 0.453683 0.450808
0.493268 0.490945 0.488705
0.107601 0.109880 0.111191
0.277340 0.277917 0.279133
0.469407 0.469181 0.470311
0.518075 0.526019 0.535002
0.276713 0.275783 0.273852
0.249496 0.249546 0.249668
0.571108 0.569269 0.570299
0.441968 0.447237 0.453887
0.500437 0.501795 0.499193
0.462961 0.463168 0.470905
0.550276 0.545863 0.543778
0.194633 0.195237 0.195570
0.490945 0.488705 0.484368
0.221335 0.201528 0.195428
0.602787 0.603548 0.595899
0.201690 0.202553 0.203572
0.519134 0.519630 0.515533
0.346015 0.343657 0.337159
0.169645 0.167611 0.163659
0.245676 0.247743 0.251417
0.242306 0.241956 0.241070
0.138415 0.138337 0.138794
0.492022 0.492014 0.479487
0.369141 0.369052 0.369302
0.422906 0.437610 0.442471
0.496454 0.502859 0.512132
0.341802 0.329423 0.330224
0.254382 0.254429 0.254670
0.548883 0.548737 0.549043
0.139620 0.139485 0.139240
0.223095 0.215798 0.202969
0.100788 0.100270 0.100120
0.555889 0.555219 0.554023
0.552517 0.551290 0.546480
0.198480 0.198178 0.197819
0.466212 0.463623 0.465663
0.113374 0.113988 0.114155
0.122681 0.122776 0.123624
0.438189 0.440455 0.440383
0.200182 0.194240 0.190278
0.258835 0.260676 0.267015
0.251286 0.251869 0.252810
0.430784 0.433606 0.430116
0.280693 0.280506 0.280233
0.504563 0.508780 0.512574
0.205060 0.204673 0.204348
0.610819 0.611924 0.615024
0.195674 0.195848 0.196916
0.530640 0.530430 0.530186
0.549651 0.548220 0.548364
0.514144 0.512683 0.513032
0.231718 0.240064 0.259983
0.264616 0.264042 0.264116
0.469155 0.469529 0.470372
0.148814 0.149248 0.151320
0.153080 0.153236 0.153383
0.207566 0.212064 0.216418
0.205372 0.205148 0.195188
0.571504 0.572705 0.572673
0.240859 0.241046 0.241048
0.515705 0.501069 0.499033
0.296854 0.297868 0.297483
0.574347 0.576614 0.583977
0.455405 0.453861 0.457250
0.530813 0.529793 0.533411
0.535363 0.544682 0.543021
0.541837 0.540930 0.536905
0.519515 0.518184 0.517816
0.456653 0.455951 0.458131
0.619684 0.623019 0.617531
0.491481 0.491417 0.494134
0.471223 0.470097 0.468255
0.477080 0.477284 0.478601
0.514190 0.515102 0.511879
0.145741 0.145561 0.145577
0.140054 0.138685 0.137854
0.579615 0.585414 0.592419
0.132424 0.132572 0.132665
0.506250 0.503477 0.500390
0.266171 0.266933 0.267734
0.435520 0.431139 0.427962
0.239937 0.240083 0.240191
0.543598 0.533921 0.532097
0.114155 0.115020 0.116047
0.228465 0.228526 0.228522
0.465350 0.469917 0.471761
0.145309 0.145803 0.145616
0.595899 0.593640 0.594360
0.587179 0.592350 0.603417
0.575023 0.571815 0.562675
0.525511 0.519042 0.522406
0.547583 0.547823 0.550425
0.434008 0.433655 0.443665
0.246521 0.246891 0.246720
0.393962 0.392360 0.389690
0.483839 0.481261 0.476492
0.469250 0.471842 0.473684
0.474315 0.472244 0.469604
0.112840 0.112864 0.112731
0.278222 0.278356 0.277675
0.277619 0.278388 0.283061
0.509936 0.508067 0.509010
0.584308 0.583227 0.582664
0.157542 0.156074 0.153914
0.217644 0.221797 0.225726
0.458833 0.459806 0.461258
0.321995 0.323114 0.321028
0.556959 0.555658 0.557188
0.134527 0.134333 0.134103
0.550488 0.553669 0.553566
0.233082 0.232258 0.229100
0.514965 0.514864 0.506373
0.556951 0.557727 0.558361
0.468340 0.464611 0.462827
0.119534 0.119367 0.119409
0.222004 0.236723 0.242315
0.468776 0.469687 0.470832
0.154691 0.154594 0.154248
0.301716 0.303261 0.305342
0.564985 0.563330 0.562545
0.468544 0.470661 0.469455
0.134325 0.129740 0.127272
0.520638 0.520574 0.521130
0.247997 0.252936 0.254068
0.527319 0.526967 0.524126
0.552454 0.551643 0.552746
0.510971 0.509988 0.506902
0.577482 0.578940 0.580168
0.605712 0.596837 0.599725
0.174588 0.175197 0.174772
0.149288 0.149279 0.149440
0.532950 0.532172 0.543054
0.494221 0.495669 0.496057
0.384321 0.381670 0.379006
0.364980 0.354341 0.355473
0.196021 0.183879 0.184429
0.481920 0.483450 0.488472
0.476634 0.477395 0.477123
0.504075 0.516250 0.517592
0.264021 0.264280 0.264085
0.118622 0.119041 0.118937
0.135654 0.135864 0.136543
0.124574 0.124283 0.123263
0.219629 0.219249 0.217647
0.546314 0.548937 0.548724
0.457751 0.457430 0.454060
0.340587 0.336148 0.334223
0.276483 0.272740 0.268537
0.149641 0.149203 0.148490
0.259763 0.290266 0.284763
0.164725 0.166898 0.168984
0.137017 0.137254 0.137810
0.290135 0.287461 0.277251
0.509167 0.497020 0.494376
0.121314 0.122274 0.122209
0.151392 0.151369 0.150430
0.426393 0.430824 0.437559
0.529360 0.531535 0.547445
0.618146 0.620940 0.621138
0.146768 0.152004 0.153166
0.490687 0.474861 0.474363
0.589402 0.569619 0.556166
0.280630 0.279952 0.281565
0.271088 0.271110 0.271315
0.445126 0.447244 0.452982
0.517465 0.459270 0.458806
0.563203 0.569977 0.570613
0.595699 0.595825 0.595716
0.489285 0.487739 0.486385
0.334223 0.333506 0.332564
0.577740 0.575645 0.572654
0.165313 0.156388 0.156115
0.523341 0.522409 0.517252
0.535237 0.533482 0.523940
0.302037 0.302138 0.302026
0.533113 0.540277 0.540762
0.401679 0.405860 0.408651
0.273534 0.268672 0.261561
0.345786 0.343371 0.342396
0.342964 0.346041 0.346525
0.583653 0.583478 0.580666
0.490715 0.489426 0.486124
0.220021 0.220574 0.220804
0.421903 0.421232 0.421427
0.241035 0.241033 0.240147
0.121371 0.109262 0.105803
0.519993 0.519350 0.519322
0.602278 0.601748 0.603562
0.475398 0.477154 0.471124
0.502345 0.506019 0.509804
0.423958 0.424919 0.438870
0.395507 0.394985 0.396721
0.426121 0.424502 0.427194
0.459437 0.459633 0.459921
0.150001 0.150660 0.151439
0.484767 0.484678 0.484512
0.430842 0.437231 0.438649
0.211310 0.217472 0.220021
0.422412 0.420836 0.382861
0.559060 0.561655 0.577267
0.544482 0.544130 0.543510
0.130413 0.134714 0.134996
0.453655 0.458103 0.463345
0.279689 0.280064 0.280519
0.521283 0.517689 0.517213
0.248802 0.249165 0.249680
0.458659 0.455673 0.450141
0.460725 0.458497 0.456373
0.463053 0.464203 0.465799
0.236104 0.235795 0.236995
0.134148 0.134377 0.134356
0.453999 0.449114 0.445433
0.545541 0.544247 0.526881
0.282445 0.281764 0.281657
0.180472 0.180736 0.181249
0.246775 0.246307 0.246271
0.578265 0.584089 0.584302
0.540108 0.542692 0.545101
0.563819 0.554414 0.554389
0.256501 0.256909 0.256884
0.181945 0.182038 0.182349
0.278000 0.276516 0.276690
0.404110 0.405339 0.403701
0.464328 0.466077 0.472245
0.352362 0.353203 0.353743
0.542139 0.537546 0.523974
0.213531 0.212072 0.215618
0.236305 0.221119 0.198553
0.596674 0.601394 0.602982
0.522486 0.514905 0.509827
0.090550 0.100224 0.103590
0.284462 0.286718 0.285723
0.456821 0.458478 0.460026
0.476201 0.476224 0.480563
0.136642 0.136850 0.137237
0.485795 0.486439 0.484199
0.142976 0.141574 0.141147
0.471655 0.473339 0.476982
0.340663 0.341404 0.344110
0.175919 0.175456 0.174899
0.617690 0.615561 0.614689
0.483450 0.484715 0.478116
0.476355 0.476597 0.478230
0.154746 0.154837 0.152452
0.401474 0.400825 0.399752
0.222933 0.222131 0.222056
0.489513 0.491382 0.496178
0.508327 0.511670 0.511315
0.300704 0.298616 0.294435
0.305482 0.305748 0.305900
0.192591 0.190235 0.190312
0.149217 0.149189 0.149444
0.409305 0.409115 0.409457
0.161724 0.163768 0.180334
0.345059 0.341451 0.314116
0.105910 0.105916 0.105727
0.149183 0.152698 0.169632
0.575167 0.580755 0.584630
0.208698 0.209305 0.220297
0.555583 0.553336 0.554184
0.106001 0.106352 0.106056
0.551413 0.551173 0.555717
0.180556 0.180000 0.178734
0.255136 0.250934 0.249579
0.552584 0.545792 0.544535
0.451384 0.450090 0.452740
0.245782 0.241014 0.239790
0.472976 0.480732 0.480929
0.485255 0.485023 0.482656
0.268356 0.268511 0.267854
0.440999 0.436641 0.429097
0.609765 0.603084 0.599577
0.468524 0.470504 0.473918
0.250700 0.249466 0.246204
0.491568 0.489242 0.487915
0.525753 0.524965 0.525795
0.480948 0.481693 0.484641
0.474097 0.476897 0.477236
0.577521 0.571957 0.572965
0.484694 0.486797 0.486800
0.121021 0.121177 0.121472
0.189705 0.181738 0.177334
0.499684 0.503246 0.497051
0.398241 0.394374 0.393478
0.526586 0.527642 0.525441
0.547864 0.541565 0.537404
0.478372 0.479778 0.478991
0.488574 0.485629 0.478035
0.544021 0.544666 0.543846
0.273426 0.279835 0.283351
0.237537 0.221932 0.218999
0.567276 0.566541 0.568198
0.135746 0.136003 0.137668
0.249851 0.250157 0.249327
0.147937 0.148001 0.147897
0.605758 0.605986 0.604319
0.343172 0.342521 0.339129
0.620771 0.620145 0.618864
0.123795 0.123895 0.128255
0.563713 0.558244 0.555462
0.616743 0.617785 0.621014
0.128550 0.128623 0.128759
0.486602 0.479692 0.478885
0.384036 0.388930 0.394303
0.250692 0.251100 0.251347
0.302006 0.302183 0.300700
0.604162 0.606192 0.612159
0.133780 0.134623 0.136265
0.120670 0.125005 0.133419
0.348129 0.343109 0.343213
0.245076 0.247860 0.249006
0.111212 0.110996 0.111342
0.464191 0.467316 0.467718
0.113382 0.113019 0.113415
0.403044 0.399697 0.395509
0.449303 0.448753 0.447434
0.587190 0.585514 0.575083
0.110848 0.111197 0.111212
0.459344 0.447509 0.443686
0.367026 0.369228 0.369342
0.572178 0.571070 0.572708
0.248552 0.249223 0.255753
0.103582 0.104848 0.105789
0.275123 0.275073 0.275892
0.464435 0.466429 0.466075
0.150588 0.150533 0.150290
0.295551 0.300159 0.299578
0.285707 0.279343 0.279038
0.576350 0.581354 0.583552
0.500628 0.496879 0.496183
0.480737 0.473336 0.475365
0.621534 0.621625 0.620743
0.321395 0.322249 0.323907
0.471696 0.470631 0.462474
0.529919 0.529973 0.530375
0.594130 0.594041 0.594027
0.586568 0.585893 0.587438
0.376597 0.376979 0.376528
0.180525 0.180953 0.181914
0.509090 0.510069 0.513225
0.467200 0.468242 0.473725
0.323941 0.325913 0.328411
0.465143 0.466988 0.464299
0.282004 0.282445 0.281764
0.140606 0.143725 0.151835
0.275263 0.278523 0.279635
0.257445 0.257437 0.256579
0.449640 0.452873 0.464191
0.446098 0.444764 0.444416
0.480214 0.476844 0.473653
0.269169 0.269727 0.270174
0.512293 0.509424 0.506189
0.467289 0.440776 0.439799
0.294682 0.291046 0.295282
0.146706 0.147082 0.147638
0.344322 0.346454 0.350853
0.148590 0.148576 0.148670
0.394714 0.394117 0.393940
0.276278 0.272109 0.270642
0.149517 0.149705 0.149424
0.154978 0.154937 0.154686
0.614429 0.616179 0.619538
0.275121 0.275511 0.276423
0.127156 0.128146 0.127541
0.249474 0.249934 0.249064
0.182737 0.182732 0.182724
0.457631 0.457291 0.458637
0.309258 0.304480 0.297867
0.251577 0.243028 0.238890
0.437495 0.442266 0.448792
0.494409 0.496276 0.497609
0.485059 0.487240 0.485654
0.191523 0.191860 0.192876
0.292814 0.293301 0.293704
0.568855 0.564618 0.562050
0.280039 0.280587 0.280974
0.428766 0.424349 0.424485
0.547693 0.547899 0.537224
0.135650 0.135788 0.136029
0.294211 0.291423 0.289798
0.459615 0.453795 0.452591
0.557922 0.562588 0.562994
0.416096 0.414240 0.419358
0.436219 0.460392 0.459631
0.498087 0.498373 0.496913
0.305510 0.305287 0.313401
0.451935 0.452351 0.453721
0.254144 0.255527 0.255679
0.478713 0.480020 0.482522
0.506804 0.506771 0.506401
0.542972 0.545747 0.560026
0.483205 0.487174 0.501377
0.503930 0.511979 0.510741
0.510533 0.509329 0.508604
0.508153 0.516690 0.522708
0.175066 0.175338 0.175711
0.534217 0.535889 0.536401
0.281021 0.283444 0.282303
0.511577 0.512944 0.515502
0.180434 0.180747 0.180110
0.267819 0.262289 0.268944
0.603417 0.604419 0.603554
0.492161 0.484498 0.484397
0.506031 0.507850 0.508947
0.485510 0.485502 0.482955
0.608903 0.610097 0.607427
0.536161 0.536338 0.538429
0.460088 0.460181 0.459723
0.292684 0.289990 0.285479
0.569123 0.570644 0.571419
0.288892 0.288630 0.293279
0.541289 0.552268 0.543886
0.524366 0.525528 0.530703
0.137141 0.138026 0.137924
0.180775 0.180082 0.179886
0.194957 0.175721 0.174956
0.522085 0.522788 0.522352
0.489807 0.489424 0.486829
0.208971 0.208858 0.207961
0.626257 0.624920 0.624805
0.554987 0.554634 0.554061
0.597659 0.597471 0.597106
0.405860 0.408651 0.405349
0.574273 0.572266 0.571754
0.579262 0.580006 0.583405
0.464006 0.460447 0.454344
0.301916 0.296905 0.298483
0.433827 0.429618 0.426737
0.533617 0.537571 0.542354
0.239671 0.248205 0.264273
0.366209 0.369726 0.385509
0.551778 0.553552 0.551879
0.484369 0.486431 0.483939
0.530906 0.540384 0.547090
0.451996 0.456441 0.457637
0.586057 0.586220 0.585132
0.148543 0.148590 0.148332
0.569206 0.571505 0.572906
0.365048 0.363861 0.363073
0.512713 0.514309 0.522264
0.569754 0.570672 0.571100
0.529251 0.519013 0.462275
0.278168 0.266804 0.274696
0.590417 0.591147 0.589402
0.149326 0.153418 0.153119
0.621035 0.626626 0.626866
0.447109 0.446990 0.444519
0.492401 0.491787 0.489789
0.590829 0.588851 0.588690
0.470884 0.469846 0.468442
0.515425 0.521170 0.530131
0.114517 0.114454 0.114738
0.482680 0.488924 0.488116
0.576007 0.572787 0.571140
0.508877 0.508271 0.505961
0.451038 0.450701 0.447685
0.388753 0.394308 0.423508
0.275243 0.273877 0.259727
0.181077 0.182325 0.189331
0.450373 0.457837 0.456368
0.195581 0.195472 0.233129
0.312179 0.317132 0.318468
0.332429 0.334462 0.334795
0.273719 0.273804 0.274096
0.193775 0.194073 0.195365
0.491988 0.487470 0.493103
0.088898 0.094152 0.100490
0.495750 0.496158 0.495996
0.506792 0.506441 0.505954
0.450275 0.450122 0.449605
0.500487 0.499547 0.470521
0.461864 0.460905 0.461277
0.547125 0.534988 0.525186
0.584744 0.585387 0.585610
0.196556 0.195878 0.196035
0.509266 0.512714 0.512381
0.525115 0.523092 0.529198
0.130360 0.130222 0.129890
0.444075 0.444775 0.443100
0.456611 0.461948 0.465210
0.427072 0.427028 0.428019
0.108501 0.108694 0.107813
0.106450 0.108599 0.112020
0.530020 0.528473 0.531203
0.269555 0.269717 0.270894
0.278312 0.277945 0.277678
0.237378 0.233144 0.233083
0.566111 0.570639 0.572431
0.563313 0.561743 0.561506
0.610425 0.596177 0.595733
0.148058 0.147765 0.147440
0.449114 0.445433 0.453138
0.255291 0.255251 0.255403
0.510744 0.507325 0.507088
0.463736 0.460708 0.455758
0.358334 0.356823 0.313499
0.521361 0.518388 0.528103
0.559935 0.541825 0.538504
0.503985 0.511061 0.509197
0.519984 0.499447 0.491180
0.165604 0.163593 0.159628
0.100179 0.100610 0.101104
0.582786 0.567683 0.587142
0.581829 0.578813 0.578461
0.508037 0.507755 0.504790
0.509307 0.508644 0.505379
0.377904 0.377113 0.373181
0.196031 0.196359 0.196196
0.395578 0.395022 0.399452
0.488713 0.491704 0.492224
0.191755 0.191477 0.191309
0.487202 0.489688 0.491088
0.255365 0.255022 0.255076
0.184570 0.186090 0.187887
0.128524 0.128741 0.129052
0.246418 0.241458 0.242061
0.524897 0.521388 0.520804
0.481310 0.482009 0.485815
0.569223 0.569112 0.569754
0.220643 0.220309 0.219973
0.274283 0.274365 0.274451
0.139649 0.129532 0.127545
0.472416 0.472043 0.471328
0.395022 0.399452 0.402018
0.409905 0.412196 0.413847
0.428959 0.430967 0.437624
0.494133 0.489785 0.490239
0.293429 0.293546 0.296872
0.113142 0.112910 0.112331
0.280639 0.279605 0.281559
0.529311 0.534925 0.543954
0.489274 0.489572 0.491080
0.475981 0.474435 0.474733
0.408977 0.408854 0.409571
0.534845 0.534865 0.534977
0.136670 0.136742 0.136175
0.134250 0.134353 0.134131
0.319100 0.319040 0.320587
0.265213 0.260715 0.258242
0.149109 0.149625 0.150255
0.491180 0.492459 0.491301
0.240938 0.239841 0.239937
0.130909 0.129952 0.130023
0.254497 0.254729 0.254633
0.440776 0.439799 0.438533
0.156924 0.159322 0.166482
0.491923 0.487895 0.487394
0.191111 0.193742 0.193804
0.274840 0.274883 0.274729
0.317572 0.321691 0.325514
0.511482 0.510119 0.509055
0.335750 0.338242 0.350331
0.149248 0.151320 0.151122
0.519781 0.517793 0.516932
0.540550 0.538167 0.537835
0.385262 0.391616 0.390104
0.452684 0.452693 0.453066
0.191586 0.193775 0.193804
0.547832 0.545983 0.542021
0.579786 0.577536 0.578835
0.498248 0.499474 0.500453
0.554784 0.557183 0.552691
0.431517 0.431820 0.432786
0.316571 0.306350 0.300932
0.442170 0.443793 0.451286
0.547753 0.544034 0.537560
0.470832 0.467264 0.466844
0.136693 0.136703 0.137017
0.183656 0.191184 0.190358
0.332596 0.331761 0.328355
0.203489 0.203727 0.203245
0.459339 0.458545 0.457329
0.288170 0.289837 0.292156
0.547888 0.547956 0.547729
0.139869 0.139359 0.137814
0.471888 0.481604 0.484110
0.459859 0.461212 0.462415
0.195387 0.193954 0.194555
0.400528 0.387095 0.377731
0.167451 0.170287 0.171468
0.450153 0.459530 0.464213
0.160329 0.160664 0.160451
0.531555 0.547446 0.547047
0.497429 0.498367 0.498211
0.131461 0.131284 0.131322
0.250965 0.252114 0.241719
0.376472 0.365175 0.363475
0.187637 0.189158 0.190189
0.252614 0.250900 0.250029
0.528240 0.529050 0.523808
0.560967 0.558185 0.551989
0.552344 0.560584 0.563484
0.182702 0.196968 0.198819
0.540036 0.539821 0.536830
0.122444 0.122423 0.123046
0.321678 0.317196 0.307070
0.123663 0.123265 0.123568
0.491152 0.494056 0.494415
0.187156 0.187812 0.189377
0.582642 0.582968 0.583893
0.153240 0.151666 0.141498
0.481130 0.482073 0.485523
0.358173 0.360692 0.362234
0.490400 0.516690 0.525956
0.241577 0.240860 0.240411
0.394406 0.393593 0.386899
0.254878 0.251789 0.248859
0.487176 0.484783 0.484958
0.530748 0.532573 0.537987
0.154232 0.154145 0.153300
0.490954 0.483935 0.480882
0.591534 0.585589 0.578560
0.184664 0.183564 0.183041
0.578767 0.577969 0.576403
0.289116 0.284728 0.284206
0.512900 0.514302 0.518380
0.493601 0.494551 0.494031
0.365982 0.359781 0.358971
0.106358 0.106083 0.106333
0.202971 0.201566 0.200182
0.113211 0.110618 0.098770
0.198306 0.195488 0.195473
0.456600 0.457520 0.457506
0.302138 0.302026 0.302194
0.566464 0.563636 0.560615
0.544094 0.576585 0.590360
0.539644 0.539830 0.542537
0.474369 0.473733 0.462270
0.511407 0.510841 0.513199
0.483674 0.488323 0.490508
0.507394 0.506985 0.507148
0.549002 0.549449 0.549736
0.282005 0.278254 0.276952
0.236342 0.236435 0.234979
0.497798 0.497281 0.496101
0.164813 0.167583 0.170119
0.165364 0.153839 0.153905
0.588819 0.591340 0.590355
0.584966 0.585017 0.585273
0.457669 0.457770 0.455497
0.148727 0.149202 0.149701
0.509010 0.506828 0.504508
0.505379 0.503780 0.500602
0.182956 0.181819 0.181899
0.338084 0.341589 0.348522
0.130443 0.129582 0.129797
0.543260 0.554091 0.560014
0.152749 0.153352 0.152778
0.522717 0.521277 0.520325
0.473582 0.473573 0.472771
0.538203 0.537548 0.544199
0.288772 0.299076 0.305246
0.112431 0.112601 0.112836
0.522145 0.522500 0.527348
0.522069 0.521754 0.520767
0.225737 0.226174 0.226534
0.561258 0.555002 0.554533
0.607247 0.605723 0.604265
0.437426 0.436929 0.437988
0.266989 0.257752 0.245257
0.238946 0.243030 0.246807
0.418144 0.419792 0.418309
0.338508 0.337870 0.337043
0.254955 0.254788 0.254514
0.504419 0.506078 0.507418
0.373181 0.369618 0.361509
0.234587 0.231850 0.235735
0.129125 0.129509 0.130109
0.242362 0.241813 0.246889
0.601573 0.623280 0.630970
0.470410 0.470413 0.470701
0.114443 0.114841 0.115784
0.273373 0.273186 0.272600
0.109698 0.109239 0.109508
0.227554 0.231721 0.240704
0.300511 0.305402 0.307667
0.394576 0.394065 0.392926
0.543255 0.542371 0.541359
0.575830 0.576536 0.573283
0.277530 0.276467 0.276589
0.456515 0.456338 0.454554
0.503489 0.506039 0.508375
0.277531 0.277290 0.265953
0.582959 0.584482 0.585010
0.133371 0.133075 0.132484
0.448425 0.449034 0.449813
0.570364 0.570477 0.566706
0.585359 0.585366 0.586128
0.257752 0.245257 0.235816
0.468756 0.469889 0.472509
0.155221 0.155442 0.155709
0.113332 0.113081 0.112632
0.458637 0.459941 0.462858
0.426131 0.421149 0.421402
0.420676 0.417929 0.418587
0.127093 0.126305 0.125654
0.462830 0.491437 0.486771
0.457872 0.458326 0.432544
0.300754 0.301250 0.303210
0.475304 0.475435 0.475373
0.250892 0.248362 0.246954
0.471649 0.472674 0.471474
0.213814 0.213219 0.212328
0.563786 0.571151 0.570724
0.171025 0.171003 0.171408
0.547534 0.550775 0.548874
0.495510 0.511887 0.501977
0.520669 0.520638 0.520574
0.487115 0.484591 0.487857
0.462589 0.460531 0.458928
0.290727 0.290840 0.289224
0.278810 0.280307 0.282639
0.124198 0.124156 0.123047
0.128581 0.128630 0.128457
0.138342 0.149448 0.152437
0.279571 0.282199 0.282552
0.490232 0.489285 0.487739
0.620159 0.621519 0.623442
0.153190 0.153444 0.153363
0.184989 0.183485 0.183047
0.282301 0.281537 0.279949
0.587229 0.584832 0.586484
0.447451 0.449239 0.449675
0.271569 0.271615 0.271531
0.155556 0.155108 0.154978
0.401044 0.400027 0.397636
0.496727 0.498200 0.500255
0.122206 0.122100 0.121258
0.479748 0.479202 0.474716
0.393051 0.392727 0.392093
0.506421 0.506515 0.506554
0.137889 0.138236 0.138604
0.551345 0.551388 0.540953
0.524291 0.524429 0.522669
0.563710 0.568514 0.568802
0.127556 0.127107 0.126439
0.532568 0.537244 0.535727
0.454531 0.465895 0.468834
0.394075 0.393559 0.392769
0.132686 0.132831 0.132793
0.254352 0.253618 0.251224
0.463346 0.465773 0.470681
0.186913 0.186592 0.187650
0.121596 0.121596 0.120738
0.248825 0.249074 0.249600
0.528950 0.529690 0.524486
0.148238 0.148413 0.147626
0.475839 0.484690 0.484476
0.488350 0.476894 0.472452
0.205538 0.205368 0.204286
0.484481 0.484413 0.485108
0.193599 0.193381 0.193179
0.258623 0.249392 0.247943
0.485638 0.485095 0.479239
0.256165 0.257603 0.257631
0.405952 0.402016 0.400845
0.153896 0.153611 0.152979
0.507046 0.511717 0.512783
0.475363 0.475043 0.473580
0.485108 0.487130 0.489457
0.151265 0.148796 0.141010
0.594851 0.546840 0.543586
0.155645 0.155606 0.155218
0.271962 0.280073 0.282064
0.341201 0.342107 0.341802
0.497767 0.500046 0.500727
0.543361 0.556202 0.555548
0.110185 0.111654 0.112209
0.605020 0.603912 0.603809
0.521045 0.518786 0.517391
0.468946 0.468687 0.472318
0.473726 0.473392 0.477402
0.474127 0.475456 0.475096
0.578690 0.579036 0.561776
0.255973 0.256029 0.255927
0.582739 0.584966 0.606959
0.579416 0.585731 0.577899
0.289688 0.286390 0.284697
0.357161 0.345976 0.340989
0.291179 0.290727 0.290840
0.600297 0.602128 0.608708
0.167652 0.167346 0.162968
0.457506 0.457306 0.458958
0.391800 0.392405 0.392925
0.508043 0.506061 0.507524
0.184554 0.182552 0.182560
0.475549 0.481964 0.481965
0.115322 0.115424 0.113985
0.484617 0.484519 0.484228
0.242444 0.243612 0.237025
0.120909 0.120865 0.120800
0.542346 0.543425 0.543335
0.282582 0.282472 0.282422
0.268522 0.266452 0.265049
0.505405 0.506245 0.507670
0.221506 0.220473 0.226321
0.465578 0.467865 0.468653
0.304480 0.297867 0.297940
0.554653 0.554873 0.554151
0.094037 0.092211 0.096390
0.529287 0.530906 0.540384
0.554870 0.578872 0.583495
0.472994 0.465023 0.460088
0.582292 0.582725 0.583912
0.379141 0.382987 0.397508
0.442735 0.438667 0.421638
0.357330 0.354250 0.353764
0.522264 0.520345 0.518675
0.478325 0.456022 0.443674
0.231424 0.229278 0.229935
0.271062 0.271212 0.271051
0.513247 0.512824 0.512818
0.427640 0.427072 0.427028
0.542768 0.546314 0.548937
0.248095 0.250707 0.251340
0.305725 0.305743 0.305564
0.385262 0.449199 0.454303
0.135864 0.137045 0.136349
0.439849 0.440028 0.446347
0.471453 0.469060 0.464518
0.488964 0.490620 0.491287
0.546162 0.548037 0.548624
0.512724 0.513008 0.511529
0.499656 0.499810 0.489089
0.141776 0.141535 0.142101
0.342872 0.341141 0.340254
0.516020 0.519879 0.521696
0.526085 0.526982 0.537200
0.249220 0.247945 0.246752
0.230782 0.197744 0.195477
0.154638 0.154781 0.154958
0.154357 0.154872 0.155015
0.504222 0.504872 0.505458
0.255014 0.255291 0.255251
0.481145 0.480783 0.481488
0.198559 0.198271 0.198264
0.586451 0.586477 0.588106
0.272285 0.272112 0.271426
0.578376 0.576376 0.576754
0.595696 0.595889 0.595910
0.484096 0.483042 0.472865
0.195915 0.195786 0.193775
0.458293 0.458096 0.457669
0.142920 0.138778 0.133191
0.182522 0.182364 0.182956
0.480867 0.479417 0.478788
0.170335 0.171735 0.173200
0.513882 0.516519 0.539641
0.154969 0.154878 0.155617
0.149667 0.149294 0.149487
0.174784 0.175013 0.175218
0.180577 0.180796 0.180740
0.265666 0.266769 0.267464
0.468911 0.478931 0.480538
0.561925 0.557928 0.558510
0.282498 0.281538 0.281557
0.124039 0.124214 0.124378
0.463976 0.461522 0.455586
0.465109 0.464749 0.465881
0.349800 0.349311 0.348927
0.492397 0.489829 0.488227
0.198645 0.198585 0.199736
0.305747 0.305903 0.305507
0.482585 0.494925 0.496408
0.280064 0.280519 0.282902
0.556218 0.557681 0.559931
0.424385 0.423241 0.422993
0.139467 0.127167 0.123651
0.453571 0.452684 0.452693
0.469833 0.472453 0.473076
0.249664 0.247235 0.242632
0.563849 0.565410 0.570915
0.122425 0.122439 0.122824
0.484247 0.484998 0.490520
0.271833 0.273310 0.267659
0.122515 0.122541 0.122188
0.123441 0.123472 0.123393
0.265700 0.266040 0.267004
0.348869 0.348999 0.343555
0.490934 0.489916 0.489246
0.487924 0.487599 0.483776
0.582186 0.584398 0.582175
0.169643 0.169728 0.169753
0.255805 0.255792 0.256101
0.474738 0.466290 0.463498
0.481150 0.477778 0.469368
0.496018 0.495423 0.495888
0.249768 0.249779 0.249807
0.187644 0.188825 0.189474
0.288591 0.290850 0.302436
0.433440 0.430907 0.429498
