0.438522 0.445182 0.446094
0.298100 0.300302 0.297912
0.351217 0.352256 0.354474
0.350559 0.347574 0.347556
0.332905 0.331967 0.328798
0.330801 0.337000 0.340331
0.279446 0.280995 0.283936
0.432540 0.431215 0.431120
0.409369 0.411718 0.415023
0.351531 0.348554 0.346204
0.354274 0.352595 0.352738
0.332561 0.333091 0.333324
0.437535 0.437052 0.437127
0.429766 0.432513 0.432162
0.414410 0.413568 0.412783
0.392420 0.393155 0.392772
0.422137 0.429376 0.434905
0.414342 0.413248 0.416772
0.299381 0.299535 0.298754
0.276463 0.275845 0.274217
0.340615 0.339744 0.340799
0.362369 0.360903 0.360473
0.431976 0.432418 0.433601
0.316210 0.316045 0.318868
0.505469 0.507941 0.511969
0.458992 0.455958 0.452596
0.417074 0.422468 0.423544
0.378006 0.377154 0.378620
0.350303 0.347316 0.341817
0.320858 0.320102 0.319819
0.377757 0.372540 0.366364
0.349630 0.350665 0.348899
0.438456 0.438428 0.440024
0.381773 0.379713 0.376973
0.410243 0.412631 0.409717
0.430115 0.430604 0.431205
0.364314 0.364465 0.367880
0.340745 0.340544 0.339511
0.452956 0.453707 0.455148
0.389742 0.388711 0.387102
0.363997 0.343338 0.341415
0.331424 0.330831 0.329922
0.337624 0.335593 0.328555
0.369212 0.369286 0.369534
0.403728 0.404997 0.406524
0.569115 0.570407 0.572043
0.372087 0.370729 0.370830
0.576730 0.575433 0.574647
0.576433 0.573710 0.570246
0.443729 0.449049 0.450402
0.366988 0.367778 0.369102
0.441893 0.442183 0.442491
0.325323 0.325996 0.329086
0.338322 0.338231 0.339098
0.388508 0.388621 0.388947
0.435575 0.432704 0.432709
0.452005 0.448527 0.442715
0.444621 0.443941 0.443783
0.390098 0.388088 0.387003
0.321517 0.322296 0.322473
0.366654 0.365903 0.364947
0.331984 0.335448 0.338411
0.409217 0.412624 0.411042
0.374947 0.376110 0.377123
0.356678 0.356690 0.356159
0.313590 0.312588 0.313576
0.369457 0.363383 0.362407
0.300654 0.300656 0.300927
0.411368 0.410447 0.412145
0.432753 0.431514 0.431288
0.308599 0.308601 0.308624
0.443147 0.440344 0.440244
0.455747 0.450213 0.445558
0.408084 0.403273 0.404028
0.444158 0.437351 0.431655
0.328235 0.330077 0.331887
0.376036 0.376569 0.375241
0.339686 0.331835 0.330513
0.283510 0.282954 0.281592
0.418710 0.420012 0.419059
0.320814 0.321165 0.328097
0.432099 0.446613 0.448507
0.419244 0.415699 0.415385
0.397538 0.398701 0.404911
0.403805 0.400538 0.399358
0.325517 0.325892 0.323242
0.331842 0.330932 0.331496
0.341127 0.341412 0.342397
0.311230 0.307417 0.305489
0.400528 0.404256 0.406267
0.365862 0.363174 0.362194
0.449761 0.451979 0.455331
0.492981 0.488621 0.484470
0.388846 0.391421 0.400414
0.372386 0.376089 0.372601
0.294082 0.294130 0.293839
0.323174 0.322090 0.319407
0.435115 0.434948 0.420605
0.406720 0.408249 0.411261
0.324205 0.327295 0.332733
0.387664 0.386135 0.386273
0.437934 0.438717 0.435204
0.325576 0.325666 0.323757
0.383834 0.385224 0.387465
0.357226 0.356889 0.354903
0.392021 0.394623 0.396353
0.372132 0.367550 0.368909
0.483328 0.485040 0.483118
0.390277 0.391036 0.395836
0.386082 0.382389 0.383292
0.399274 0.399588 0.399690
0.407289 0.405650 0.406477
0.353112 0.353881 0.354722
0.506088 0.507084 0.508753
0.380665 0.375514 0.376968
0.335794 0.338291 0.338825
0.383815 0.385341 0.390493
0.470409 0.464936 0.463803
0.394687 0.397762 0.394642
0.456718 0.456080 0.456611
0.280410 0.280158 0.278663
0.419286 0.419329 0.421083
0.267013 0.276405 0.282509
0.388039 0.388887 0.386091
0.402917 0.414217 0.415993
0.368179 0.368254 0.367937
0.411267 0.407851 0.405148
0.411036 0.412853 0.405972
0.383932 0.385607 0.388490
0.346960 0.335455 0.334427
0.418982 0.419514 0.418906
0.366213 0.365157 0.362337
0.311126 0.310968 0.312133
0.314797 0.316513 0.314959
0.419413 0.418499 0.416899
0.420076 0.419277 0.415335
0.363931 0.360237 0.353049
0.450592 0.451181 0.450493
0.323623 0.322355 0.323375
0.418670 0.422705 0.415826
0.363225 0.362399 0.359787
0.394199 0.402117 0.406344
0.425704 0.424293 0.405082
0.356309 0.359030 0.358780
0.347139 0.346322 0.343352
0.443044 0.442366 0.438858
0.371179 0.372137 0.371043
0.301198 0.302034 0.302943
0.381247 0.381686 0.380014
0.363141 0.361528 0.359591
0.400705 0.400710 0.400713
0.374237 0.373358 0.371951
0.307784 0.308270 0.307983
0.388254 0.389155 0.392180
0.362083 0.361678 0.361768
0.329897 0.329117 0.332067
0.333185 0.336581 0.336597
0.407025 0.405123 0.407137
0.443453 0.442275 0.440412
0.404689 0.404153 0.410316
0.298221 0.294756 0.293767
0.474695 0.468931 0.457073
0.415868 0.418408 0.416890
0.323934 0.324322 0.323836
0.300883 0.282951 0.283471
0.404914 0.404552 0.404093
0.360333 0.361690 0.362078
0.398321 0.388642 0.387595
0.386241 0.385888 0.394785
0.388856 0.386989 0.387604
0.407797 0.406195 0.405073
0.375388 0.373638 0.373496
0.391748 0.391748 0.389769
0.417771 0.421613 0.422269
0.432627 0.431136 0.436425
0.402120 0.399428 0.391356
0.301347 0.300703 0.300636
0.370545 0.371495 0.369305
0.408025 0.407457 0.409131
0.381978 0.382242 0.382761
0.401288 0.401345 0.402436
0.418099 0.416017 0.405002
0.352613 0.355152 0.360814
0.427297 0.432194 0.438912
0.411704 0.410816 0.409148
0.347805 0.348341 0.350609
0.450296 0.451103 0.449964
0.404312 0.404118 0.404130
0.321269 0.321543 0.332108
0.345642 0.344375 0.343932
0.428554 0.431013 0.430483
0.396115 0.395544 0.394465
0.340497 0.348264 0.348803
0.419969 0.423487 0.423866
0.284700 0.280861 0.280429
0.324499 0.324682 0.324097
0.341293 0.341782 0.342426
0.331689 0.334006 0.332546
0.584337 0.588031 0.593722
0.434032 0.432689 0.433069
0.511896 0.511255 0.511535
0.471161 0.473713 0.475991
0.334722 0.336945 0.343307
0.324890 0.329979 0.330623
0.416701 0.422854 0.430097
0.403513 0.397946 0.399817
0.401866 0.400967 0.400823
0.406341 0.408992 0.409241
0.383880 0.384902 0.391194
0.353641 0.355284 0.355358
0.284811 0.284072 0.285293
0.430113 0.429908 0.430068
0.355535 0.353657 0.352514
0.398038 0.400172 0.401709
0.380714 0.379290 0.378883
0.476203 0.476259 0.474535
0.297877 0.298646 0.298515
0.421524 0.422108 0.423798
0.322765 0.319865 0.318647
0.360559 0.366495 0.369456
0.363112 0.362387 0.361532
0.414453 0.422413 0.423650
0.433502 0.432319 0.427928
0.472018 0.472713 0.467164
0.368959 0.368743 0.363843
0.365124 0.364195 0.343608
0.306192 0.312788 0.313638
0.371686 0.371491 0.368198
0.309590 0.308827 0.308848
0.346931 0.348929 0.349097
0.423250 0.422844 0.421509
0.405053 0.405478 0.399545
0.420360 0.420312 0.419771
0.320589 0.319653 0.319690
0.341365 0.341073 0.341053
0.416634 0.418964 0.417823
0.307716 0.308058 0.308057
0.302476 0.310307 0.310070
0.309746 0.308495 0.307976
0.312829 0.309977 0.309736
0.419613 0.413411 0.412309
0.370698 0.369897 0.371265
0.325914 0.325212 0.319423
0.386506 0.391056 0.390728
0.302454 0.301735 0.300438
0.406734 0.406566 0.406889
0.308370 0.306538 0.309602
0.349428 0.350204 0.350884
0.383547 0.383114 0.381752
0.445655 0.443416 0.443078
0.429288 0.426351 0.424627
0.460643 0.462467 0.469063
0.328804 0.330730 0.335018
0.653889 0.654346 0.655219
0.406292 0.403862 0.396869
0.393737 0.393122 0.393339
0.435452 0.435122 0.435405
0.402473 0.402762 0.394022
0.339875 0.342761 0.348818
0.459138 0.458793 0.450327
0.416791 0.413525 0.401636
0.461633 0.459033 0.457107
0.415791 0.414914 0.414573
0.376363 0.376263 0.381751
0.345054 0.338852 0.340114
0.368101 0.367135 0.369028
0.305637 0.307104 0.307143
0.357040 0.354864 0.353895
0.334901 0.333288 0.330683
0.416714 0.406302 0.403489
0.384160 0.377391 0.373781
0.395994 0.394243 0.395958
0.398633 0.400637 0.404183
0.438471 0.441060 0.441396
0.351264 0.350301 0.349858
0.337954 0.338752 0.341598
0.298860 0.295583 0.297877
0.308766 0.308932 0.310494
0.466627 0.456332 0.455569
0.359784 0.360002 0.360116
0.284111 0.290468 0.317072
0.433121 0.431560 0.427340
0.379854 0.374284 0.369804
0.291429 0.289924 0.291371
0.298151 0.297944 0.294232
0.436360 0.435987 0.432794
0.479296 0.492331 0.492886
0.385889 0.377775 0.374851
0.447541 0.448727 0.449068
0.377336 0.376363 0.376689
0.406433 0.408527 0.407819
0.428554 0.428234 0.428160
0.409687 0.402309 0.400730
0.353701 0.351772 0.344801
0.434144 0.434951 0.432103
0.370802 0.372572 0.374481
0.376254 0.376359 0.378381
0.354415 0.352257 0.349421
0.417296 0.406216 0.401138
0.392785 0.395362 0.394434
0.396167 0.396367 0.397261
0.425906 0.427390 0.428603
0.331047 0.332020 0.332231
0.403250 0.403041 0.402607
0.355154 0.358730 0.359225
0.330438 0.330151 0.329322
0.405147 0.407793 0.408597
0.322520 0.323515 0.322728
0.414718 0.426371 0.427397
0.404952 0.404301 0.403362
0.296918 0.295560 0.292524
0.355557 0.358264 0.367463
0.457910 0.470187 0.470515
0.370697 0.370333 0.372469
0.390735 0.390619 0.390342
0.352319 0.352408 0.352900
0.408994 0.409646 0.407124
0.305759 0.307013 0.302226
0.382569 0.377240 0.374476
0.367611 0.368273 0.369615
0.403213 0.396108 0.389062
0.326472 0.325380 0.318535
0.362199 0.362623 0.362025
0.392826 0.392954 0.396820
0.297785 0.297696 0.298099
0.336795 0.339247 0.340389
0.409780 0.409185 0.408825
0.380742 0.377008 0.372271
0.349682 0.349868 0.350096
0.367241 0.366082 0.365596
0.400656 0.378270 0.371370
0.340469 0.338351 0.334479
0.435442 0.434938 0.434861
0.451222 0.454006 0.455059
0.341722 0.343481 0.343754
0.443373 0.442796 0.437992
0.362291 0.362083 0.361678
0.450520 0.454852 0.455242
0.400342 0.400367 0.400284
0.346059 0.352209 0.347379
0.426432 0.426628 0.426590
0.405493 0.401935 0.403695
0.295426 0.293069 0.294691
0.398770 0.402127 0.404637
0.331110 0.327131 0.327086
0.400181 0.403231 0.414315
0.298833 0.300626 0.319696
0.398509 0.400311 0.395378
0.300461 0.300478 0.301591
0.445524 0.445950 0.444825
0.321797 0.321854 0.321403
0.478638 0.478692 0.478427
0.364592 0.363631 0.363643
0.354580 0.354336 0.352825
0.376139 0.379672 0.376254
0.398240 0.396451 0.391274
0.338787 0.335636 0.335683
0.408278 0.406330 0.398190
0.339841 0.342300 0.341552
0.349534 0.352405 0.353414
0.431991 0.431976 0.432418
0.398346 0.403022 0.405317
0.485971 0.478975 0.460136
0.592958 0.597837 0.589499
0.365330 0.368152 0.372241
0.388364 0.392665 0.386173
0.406271 0.399597 0.391445
0.359749 0.357863 0.358212
0.369811 0.369858 0.370892
0.293877 0.293392 0.294647
0.411141 0.409668 0.409616
0.443997 0.446602 0.449347
0.410744 0.410938 0.414349
0.392477 0.388421 0.385896
0.304503 0.304034 0.305139
0.284484 0.284821 0.284956
0.453256 0.451978 0.451029
0.492901 0.489920 0.469949
0.416818 0.412911 0.413307
0.352520 0.355481 0.358814
0.415757 0.416747 0.418953
0.331054 0.331206 0.332012
0.408257 0.410743 0.413560
0.330858 0.330266 0.333530
0.425804 0.428604 0.428750
0.324711 0.324237 0.325470
0.445618 0.441030 0.442342
0.421512 0.419461 0.420007
0.392106 0.391146 0.394219
0.302922 0.302541 0.302036
0.284847 0.282232 0.279867
0.425083 0.425649 0.427022
0.356571 0.358809 0.363301
0.376943 0.374305 0.367439
0.421272 0.416422 0.416143
0.405136 0.403695 0.406998
0.374030 0.374790 0.375585
0.315082 0.314716 0.312808
0.293957 0.293957 0.295055
0.415222 0.420236 0.420991
0.395621 0.377588 0.377056
0.466996 0.461525 0.460022
0.398218 0.398486 0.402338
0.438201 0.438920 0.442688
0.343985 0.345531 0.341578
0.374002 0.369222 0.369442
0.302318 0.300032 0.301414
0.435776 0.436040 0.433610
0.367887 0.369334 0.368727
0.422885 0.423361 0.424320
0.334983 0.338765 0.339822
0.397803 0.408308 0.409356
0.291138 0.291849 0.292658
0.319224 0.318782 0.316654
0.430364 0.430892 0.428544
0.437433 0.438196 0.437546
0.431314 0.429840 0.422605
0.376514 0.377774 0.376889
0.377270 0.379688 0.379614
0.260574 0.260544 0.262445
0.403778 0.403912 0.405490
0.413703 0.411530 0.412074
0.421712 0.423334 0.423008
0.401808 0.405037 0.405498
0.439603 0.435235 0.437190
0.342953 0.337242 0.335536
0.381335 0.379242 0.379172
0.401953 0.408882 0.409388
0.396237 0.396240 0.397172
0.298993 0.296880 0.298176
0.363279 0.363439 0.362960
0.410910 0.405667 0.409466
0.361994 0.367137 0.368300
0.379694 0.377619 0.385162
0.360109 0.361705 0.363977
0.367693 0.363079 0.360455
0.454450 0.457809 0.460138
0.334278 0.334255 0.335412
0.433577 0.423811 0.423850
0.357594 0.357499 0.361398
0.411263 0.409550 0.409655
0.420339 0.420347 0.420867
0.361111 0.359054 0.358673
0.296787 0.300501 0.301173
0.366627 0.366136 0.361255
0.420420 0.420499 0.421459
0.401857 0.404694 0.407302
0.424821 0.425041 0.425479
0.319032 0.318336 0.319588
0.433722 0.433837 0.430771
0.318347 0.316489 0.307536
0.447210 0.451548 0.453145
0.347461 0.347009 0.346553
0.325609 0.326163 0.321909
0.417036 0.417144 0.412618
0.467348 0.466822 0.468058
0.419471 0.414878 0.415207
0.313000 0.307920 0.305528
0.423498 0.424458 0.426264
0.412410 0.411714 0.412108
0.333494 0.333751 0.332724
0.369305 0.362849 0.363650
0.405495 0.401277 0.401127
0.429962 0.430614 0.431206
0.417875 0.414459 0.412413
0.434161 0.436642 0.437652
0.345535 0.347119 0.343636
0.326597 0.320777 0.317158
0.335770 0.337633 0.339946
0.397592 0.401825 0.406521
0.374416 0.374715 0.375181
0.470094 0.470885 0.469998
0.358252 0.356600 0.357144
0.338581 0.339477 0.339315
0.373444 0.376653 0.376522
0.385315 0.381252 0.376457
0.356100 0.355628 0.353615
0.326579 0.325458 0.322488
0.350887 0.358319 0.362712
0.341799 0.341862 0.347618
0.438906 0.434370 0.428973
0.417211 0.411756 0.409272
0.416246 0.417803 0.415190
0.366748 0.366456 0.365712
0.297182 0.289922 0.283495
0.348969 0.348511 0.347805
0.454593 0.458658 0.456754
0.333653 0.337175 0.339888
0.480629 0.477371 0.474991
0.432808 0.431242 0.430764
0.415105 0.414958 0.414467
0.308018 0.308933 0.304229
0.388339 0.387511 0.387864
0.339351 0.334793 0.335130
0.401724 0.398603 0.396633
0.271386 0.270453 0.270645
0.350076 0.350160 0.350779
0.346192 0.345356 0.345463
0.416965 0.420331 0.419937
0.433837 0.430771 0.428810
0.435865 0.441630 0.436685
0.361513 0.363551 0.364097
0.342980 0.341330 0.341408
0.383143 0.387246 0.387781
0.412790 0.414082 0.412463
0.345010 0.345095 0.341680
0.331453 0.333724 0.330644
0.407666 0.408984 0.408901
0.321071 0.326836 0.328132
0.371649 0.369678 0.367909
0.301861 0.300249 0.301198
0.349370 0.349555 0.347070
0.306524 0.308610 0.306811
0.392741 0.392660 0.391910
0.394332 0.386584 0.386221
0.281801 0.281144 0.280517
0.299293 0.297389 0.282878
0.378034 0.375329 0.369711
0.392835 0.392046 0.385859
0.417065 0.417132 0.415313
0.390835 0.390303 0.389385
0.419036 0.418433 0.419923
0.373482 0.373186 0.384977
0.347108 0.347490 0.345885
0.311155 0.312104 0.311505
0.389487 0.390330 0.390866
0.307698 0.308687 0.306865
0.470785 0.470904 0.476586
0.406864 0.410873 0.413399
0.468512 0.467916 0.467402
0.312961 0.315047 0.315376
0.401030 0.405721 0.405842
0.348096 0.348837 0.351419
0.437374 0.431991 0.431976
0.317814 0.317839 0.318398
0.351696 0.352226 0.352084
0.377937 0.374885 0.370763
0.438585 0.438814 0.439594
0.489266 0.485006 0.481225
0.385732 0.385423 0.385825
0.411124 0.412153 0.411325
0.404153 0.410316 0.411519
0.354752 0.359530 0.359049
0.353669 0.358881 0.374586
0.391025 0.388460 0.388215
0.403907 0.404791 0.404461
0.394517 0.393889 0.393486
0.431388 0.446528 0.474683
0.427880 0.426765 0.426294
0.341070 0.345894 0.349640
0.289188 0.284207 0.282619
0.386413 0.386214 0.393088
0.346798 0.344573 0.344037
0.327875 0.328156 0.328429
0.343977 0.345408 0.350990
0.340404 0.340480 0.339166
0.413056 0.413322 0.414518
0.379057 0.392394 0.394822
0.355048 0.357894 0.357543
0.414291 0.421339 0.421739
0.360264 0.359582 0.355007
0.430289 0.428676 0.427910
0.436740 0.434532 0.435233
0.336135 0.334434 0.334388
0.311999 0.311955 0.313838
0.455242 0.449286 0.449393
0.435853 0.424325 0.430639
0.417542 0.408259 0.408533
0.411591 0.406603 0.408564
0.592001 0.591746 0.589634
0.385481 0.385440 0.386598
0.323593 0.324161 0.325651
0.420836 0.414350 0.413873
0.386765 0.388150 0.391742
0.372282 0.374680 0.375332
0.330925 0.331022 0.327944
0.348743 0.347651 0.344586
0.362638 0.362346 0.359445
0.350020 0.361043 0.364833
0.342210 0.337123 0.335264
0.436694 0.436249 0.436275
0.391154 0.390311 0.399242
0.387948 0.384775 0.380655
0.336456 0.349260 0.382297
0.399519 0.398673 0.398341
0.387667 0.385783 0.386124
0.403061 0.397041 0.397158
0.326291 0.329225 0.341682
0.429943 0.430763 0.432682
0.480800 0.485250 0.486858
0.363877 0.363999 0.363044
0.319666 0.317056 0.317623
0.466072 0.470901 0.469742
0.379483 0.374370 0.369595
0.399770 0.406655 0.410536
0.404847 0.404644 0.403486
0.361683 0.361490 0.354408
0.423057 0.427266 0.426541
0.345690 0.356155 0.353201
0.385493 0.383653 0.381408
0.346856 0.352300 0.352296
0.327971 0.327790 0.328331
0.417884 0.416749 0.417101
0.377269 0.377270 0.379688
0.402338 0.403423 0.402999
0.375121 0.374897 0.376327
0.359354 0.361529 0.360605
0.330164 0.331049 0.330825
0.412489 0.413566 0.415920
0.412367 0.412840 0.410572
0.360722 0.359299 0.358040
0.381509 0.376991 0.371925
0.381335 0.387492 0.390133
0.408924 0.408618 0.406763
0.338816 0.337651 0.340497
0.372381 0.374838 0.373625
0.380161 0.380363 0.382384
0.269223 0.267801 0.267784
0.438766 0.438702 0.440453
0.372541 0.365649 0.366751
0.398868 0.402924 0.407942
0.419969 0.422331 0.424502
0.436468 0.433852 0.430541
0.358719 0.360126 0.350599
0.341133 0.344305 0.347141
0.318920 0.320143 0.320399
0.356352 0.355314 0.353553
0.347946 0.349694 0.352357
0.394653 0.395639 0.397485
0.355220 0.355198 0.357342
0.330712 0.330456 0.330381
0.302317 0.302879 0.297587
0.373370 0.374511 0.375655
0.419836 0.422713 0.424394
0.379350 0.393790 0.392112
0.392628 0.391628 0.392371
0.346700 0.347334 0.352840
0.397631 0.398629 0.401449
0.422418 0.426951 0.432026
0.412898 0.412424 0.411933
0.425844 0.424866 0.426148
0.300748 0.300163 0.300284
0.338936 0.338331 0.338064
0.420089 0.418887 0.413360
0.393995 0.391700 0.389226
0.297063 0.285026 0.283864
0.362190 0.361138 0.362849
0.423887 0.425907 0.431359
0.356902 0.357867 0.355540
0.355541 0.358080 0.355756
0.456252 0.456451 0.456852
0.384083 0.394802 0.392659
0.418012 0.417206 0.419462
0.358109 0.356748 0.356684
0.319866 0.319408 0.317241
0.441718 0.434684 0.435156
0.363985 0.364928 0.366637
0.379731 0.382747 0.383100
0.307110 0.303448 0.306904
0.419842 0.419542 0.417573
0.342040 0.341343 0.335860
0.393160 0.390734 0.389051
0.396006 0.397320 0.398126
0.372426 0.380098 0.383069
0.386479 0.386111 0.385975
0.408966 0.410370 0.408856
0.452578 0.442397 0.439020
0.491872 0.491839 0.490628
0.411251 0.415048 0.423012
0.314959 0.317111 0.317008
0.393346 0.393660 0.393868
0.391792 0.386590 0.386113
0.374493 0.373983 0.375977
0.300549 0.297792 0.297274
0.354595 0.349764 0.349877
0.426908 0.426822 0.429386
0.440779 0.439847 0.443534
0.396007 0.400973 0.400049
0.262240 0.259952 0.257769
0.378836 0.378129 0.377735
0.405556 0.402280 0.400417
0.437069 0.438358 0.445659
0.290556 0.289014 0.290402
0.418752 0.415820 0.416041
0.490925 0.487502 0.484297
0.449110 0.446352 0.446821
0.433703 0.433599 0.431987
0.280274 0.279545 0.279511
0.336666 0.335491 0.334895
0.403332 0.405432 0.405874
0.321336 0.321205 0.321262
0.348745 0.343691 0.342396
0.324085 0.327637 0.332183
0.302619 0.303573 0.300820
0.359096 0.362539 0.363931
0.343169 0.345163 0.346722
0.384402 0.384897 0.384794
0.403717 0.397516 0.392947
0.347320 0.346979 0.347580
0.357786 0.355941 0.355578
0.411894 0.412030 0.413419
0.423155 0.423747 0.421512
0.421852 0.425742 0.427610
0.327756 0.317269 0.312586
0.489528 0.489249 0.487614
0.392269 0.392521 0.403570
0.390519 0.393726 0.406699
0.332958 0.331858 0.328681
0.295867 0.296336 0.295736
0.442780 0.445684 0.446278
0.319865 0.320326 0.316210
0.335225 0.334825 0.334204
0.433601 0.434141 0.434009
0.437121 0.436839 0.435939
0.418375 0.419618 0.419176
0.346267 0.345661 0.346669
0.461706 0.459776 0.452343
0.327355 0.325915 0.327594
0.371809 0.370163 0.360642
0.385910 0.383797 0.382179
0.339773 0.338954 0.340884
0.414705 0.410298 0.407436
0.362911 0.358735 0.358301
0.290354 0.290904 0.292420
0.361739 0.365490 0.366054
0.415313 0.406619 0.385165
0.371742 0.359514 0.357752
0.402530 0.394177 0.391088
0.367844 0.368538 0.397119
0.320379 0.319968 0.315415
0.356637 0.351773 0.351801
0.369535 0.370152 0.372448
0.366473 0.374540 0.374769
0.443056 0.445786 0.441221
0.352350 0.351986 0.353346
0.479197 0.476903 0.477816
0.379797 0.379434 0.379332
0.436249 0.436275 0.437353
0.325031 0.325946 0.324834
0.572951 0.569320 0.567502
0.335040 0.335865 0.335210
0.415251 0.418470 0.417738
0.379058 0.384050 0.386241
0.369014 0.378111 0.379162
0.426675 0.430514 0.430924
0.320225 0.315914 0.316571
0.326923 0.333675 0.339650
0.406671 0.405278 0.402977
0.370113 0.370485 0.369548
0.369673 0.369873 0.371367
0.353666 0.355100 0.356369
0.363650 0.363006 0.364639
0.438747 0.444610 0.450240
0.386334 0.390892 0.391069
0.391607 0.385756 0.386413
0.390890 0.399495 0.411049
0.399901 0.400396 0.400984
0.325865 0.329519 0.334024
0.435305 0.440251 0.436522
0.449049 0.450402 0.450607
0.400056 0.399127 0.402423
0.318509 0.322090 0.336822
0.346649 0.345578 0.337388
0.410563 0.412067 0.412995
0.407457 0.409131 0.419044
0.390522 0.391895 0.397012
0.443678 0.442965 0.443775
0.446332 0.446650 0.447095
0.434263 0.438262 0.435163
0.393098 0.395259 0.391766
0.461519 0.456254 0.453759
0.420349 0.421911 0.423954
0.330542 0.330243 0.334109
0.422983 0.433279 0.434671
0.427798 0.426382 0.426105
0.465591 0.466222 0.467467
0.284007 0.281222 0.279361
0.408192 0.408005 0.394410
0.345474 0.341145 0.340219
0.389832 0.390456 0.390246
0.382362 0.383533 0.395966
0.345349 0.344811 0.342996
0.416983 0.418031 0.420919
0.300125 0.300015 0.299770
0.333691 0.328988 0.329034
0.300909 0.299999 0.300624
0.350785 0.351170 0.350203
0.397262 0.396564 0.394819
0.343942 0.341904 0.341788
0.364544 0.367301 0.369175
0.411260 0.410489 0.407168
0.306734 0.308508 0.308202
0.388508 0.388149 0.390437
0.440643 0.440506 0.435322
0.383832 0.381272 0.381779
0.432698 0.435778 0.433477
0.384490 0.383069 0.384753
0.365624 0.364977 0.364309
0.420722 0.424548 0.428572
0.364542 0.363028 0.360131
0.401620 0.407474 0.404213
0.308932 0.310494 0.310855
0.323898 0.322113 0.320155
0.440434 0.440350 0.441755
0.358753 0.359837 0.365642
0.388669 0.388216 0.387233
0.362412 0.360892 0.361508
0.423056 0.428481 0.428397
0.367201 0.371938 0.380806
0.373052 0.366858 0.366030
0.471770 0.463324 0.465354
0.389783 0.389357 0.389497
0.360928 0.364236 0.367130
0.326303 0.327673 0.329930
0.375717 0.382210 0.384833
0.400673 0.404952 0.404301
0.302034 0.302943 0.304723
0.454747 0.455582 0.454828
0.384231 0.382715 0.377862
0.442204 0.441984 0.447588
0.400515 0.407007 0.407886
0.355981 0.357768 0.357827
0.350878 0.351379 0.351100
0.259755 0.260886 0.263924
0.435817 0.438855 0.442062
0.395138 0.395320 0.396006
0.347922 0.350195 0.352662
0.310491 0.315162 0.316087
0.411353 0.411905 0.411251
0.428616 0.430809 0.435699
0.308790 0.308359 0.308521
0.285962 0.290070 0.291233
0.425896 0.428017 0.424260
0.405579 0.406051 0.405799
0.564380 0.552997 0.555621
0.416165 0.410150 0.408927
0.440034 0.430340 0.430314
0.428376 0.425899 0.426312
0.526099 0.513122 0.510457
0.279022 0.280643 0.281142
0.333523 0.333806 0.344176
0.329916 0.328750 0.329834
0.430536 0.430505 0.432187
0.318609 0.319388 0.319555
0.373990 0.373908 0.377080
0.409291 0.410586 0.407824
0.382297 0.384952 0.384420
0.451962 0.451761 0.451838
0.367690 0.367890 0.366672
0.386231 0.386419 0.386693
0.299404 0.300352 0.297600
0.304796 0.303923 0.307038
0.459141 0.460000 0.465881
0.439405 0.438034 0.438686
0.407461 0.405566 0.407754
0.479364 0.479020 0.476327
0.390331 0.385877 0.381728
0.439425 0.440057 0.434610
0.394671 0.398576 0.399276
0.330726 0.331363 0.337065
0.386797 0.388517 0.391884
0.429095 0.421698 0.417291
0.283661 0.283262 0.284240
0.492331 0.492886 0.493284
0.379131 0.378727 0.382087
0.308624 0.309207 0.310966
0.462981 0.465194 0.472823
0.370459 0.370483 0.369040
0.455126 0.455959 0.460002
0.374508 0.374972 0.373844
0.337564 0.337845 0.339001
0.497823 0.494527 0.489080
0.341668 0.342053 0.350025
0.394225 0.394787 0.395892
0.423398 0.426895 0.438220
0.310943 0.310008 0.309957
0.328893 0.331054 0.331206
0.415151 0.415878 0.416755
0.358441 0.361328 0.362705
0.352971 0.351818 0.351208
0.515409 0.515210 0.514581
0.420176 0.414365 0.413479
0.336799 0.334372 0.320579
0.423016 0.419456 0.420418
0.410969 0.406944 0.408390
0.397399 0.399688 0.406758
0.374923 0.374839 0.377862
0.447882 0.439082 0.438633
0.416471 0.416817 0.417731
0.297970 0.298022 0.298149
0.448102 0.451323 0.453212
0.347992 0.350602 0.350789
0.413568 0.412783 0.413818
0.430222 0.433407 0.434279
0.361499 0.363087 0.361917
0.331796 0.331630 0.331402
0.390680 0.395280 0.407962
0.333704 0.330714 0.330327
0.403866 0.405908 0.408643
0.344937 0.344889 0.344267
0.375604 0.377757 0.372540
0.449339 0.442082 0.440489
0.455397 0.460576 0.459523
0.365675 0.363247 0.364865
0.463180 0.462374 0.460897
0.387030 0.389691 0.389742
0.405600 0.407693 0.406360
0.329754 0.331782 0.338211
0.404461 0.402847 0.400796
0.348483 0.353214 0.353859
0.341675 0.337952 0.338325
0.332844 0.330126 0.330957
0.405958 0.406229 0.410132
0.417896 0.418396 0.419036
0.427613 0.429070 0.429167
0.301150 0.306380 0.309604
0.385024 0.388964 0.395893
0.331363 0.337065 0.348817
0.431021 0.431379 0.432492
0.367400 0.368211 0.370346
0.445798 0.446918 0.447929
0.417716 0.419136 0.424126
0.356077 0.357528 0.358077
0.396269 0.397122 0.395794
0.396228 0.396755 0.395688
0.352236 0.352324 0.352191
0.403482 0.395543 0.393158
0.335861 0.337589 0.337228
0.353885 0.355356 0.355729
0.341056 0.339284 0.344312
0.348754 0.343602 0.342013
0.364791 0.361617 0.365268
0.384025 0.383729 0.383611
0.357011 0.358117 0.358488
0.328518 0.325185 0.314012
0.433752 0.436446 0.435581
0.403973 0.399967 0.398660
0.378358 0.379554 0.380424
0.359687 0.359380 0.359811
0.357157 0.356902 0.357867
0.415048 0.423012 0.427048
0.337801 0.344996 0.346517
0.306110 0.301968 0.300328
0.423066 0.425049 0.425645
0.421677 0.421176 0.411351
0.345513 0.349184 0.350466
0.378605 0.374339 0.369565
0.397192 0.398291 0.396279
0.295321 0.292726 0.294557
0.372051 0.378977 0.381776
0.426889 0.433332 0.440714
0.365343 0.364430 0.363334
0.316068 0.311871 0.310475
0.351154 0.351899 0.351732
0.383435 0.383314 0.382928
0.300263 0.298027 0.303540
0.337430 0.331640 0.336468
0.427783 0.426903 0.425108
0.647424 0.645068 0.627980
0.415360 0.412422 0.408557
0.436039 0.436601 0.436464
0.381524 0.381230 0.381369
0.361221 0.358510 0.358076
0.406970 0.411618 0.412812
0.387830 0.387756 0.386346
0.395849 0.394632 0.394398
0.335636 0.342435 0.343695
0.334951 0.334568 0.333660
0.419061 0.419969 0.422331
0.340779 0.340261 0.340914
0.388049 0.388452 0.388294
0.402537 0.406703 0.406698
0.352548 0.349609 0.350320
0.345498 0.347694 0.385933
0.425049 0.426634 0.429833
0.351005 0.351835 0.355103
0.401468 0.398436 0.399601
0.412160 0.413003 0.416809
0.357585 0.366293 0.368017
0.417284 0.415993 0.415386
0.354882 0.354169 0.351958
0.387373 0.388283 0.386199
0.330861 0.332232 0.332042
0.401987 0.405108 0.416663
0.295721 0.296497 0.301594
0.506911 0.507548 0.508457
0.357374 0.358720 0.354996
0.360326 0.358822 0.355414
0.403848 0.406444 0.408576
0.384161 0.382624 0.391091
0.434175 0.430518 0.427340
0.442444 0.441296 0.439925
0.338848 0.340926 0.330608
0.434700 0.435029 0.436325
0.407118 0.406799 0.407000
0.395780 0.395745 0.394483
0.448524 0.448300 0.446430
0.304620 0.304737 0.301826
0.379625 0.384679 0.389478
0.365708 0.377534 0.375725
