0.252793 0.251523 0.250797
0.276285 0.279246 0.279868
0.320520 0.319439 0.319445
0.273118 0.275006 0.275559
0.324038 0.325327 0.327463
0.250136 0.251263 0.251265
0.258828 0.260426 0.261923
0.275365 0.278957 0.278626
0.191988 0.190903 0.190704
0.189869 0.191680 0.192880
0.181231 0.181260 0.178242
0.255534 0.256622 0.255960
0.250570 0.250525 0.250906
0.288176 0.297414 0.297021
0.259272 0.260556 0.261084
0.245137 0.244218 0.240882
0.271316 0.272022 0.271336
0.290292 0.288785 0.286715
0.172623 0.174467 0.179809
0.177145 0.176030 0.175658
0.218676 0.217788 0.217236
0.203242 0.203238 0.206234
0.202943 0.203803 0.200629
0.254415 0.255943 0.257046
0.253144 0.252773 0.252484
0.250235 0.248470 0.248779
0.279810 0.282335 0.283589
0.181753 0.179447 0.176796
0.221546 0.222548 0.224499
0.246225 0.245464 0.250774
0.235850 0.240993 0.241522
0.209852 0.209871 0.211990
0.282917 0.280862 0.281098
0.183703 0.180278 0.180102
0.276976 0.276847 0.276756
0.271519 0.272559 0.278483
0.260786 0.259513 0.266412
0.202161 0.203171 0.205818
0.183318 0.183131 0.185878
0.237788 0.237589 0.239141
0.180147 0.175180 0.176674
0.302647 0.303116 0.303283
0.173266 0.176575 0.176580
0.289709 0.290645 0.290242
0.266009 0.263577 0.262817
0.183477 0.184817 0.183735
0.221774 0.218528 0.218159
0.254597 0.250680 0.252304
0.276515 0.276500 0.274965
0.300267 0.300774 0.302174
0.276707 0.272282 0.269208
0.167382 0.167760 0.167367
0.198818 0.198846 0.196458
0.231907 0.231543 0.231640
0.271195 0.269376 0.265600
0.283239 0.284232 0.284381
0.288802 0.288898 0.288339
0.281728 0.281325 0.275712
0.210147 0.210920 0.210359
0.199827 0.200765 0.206337
0.176188 0.175720 0.175036
0.301368 0.302804 0.303660
0.303909 0.302231 0.305155
0.229831 0.232214 0.237509
0.211793 0.211741 0.209955
0.173984 0.174388 0.181360
0.301806 0.303732 0.304243
0.243672 0.249431 0.246781
0.274122 0.275090 0.274762
0.295103 0.293749 0.294096
0.195954 0.195643 0.195053
0.257691 0.261628 0.253380
0.294297 0.293141 0.291450
0.178934 0.197153 0.197824
0.219271 0.219952 0.219965
0.296205 0.295356 0.293777
0.208927 0.207828 0.208621
0.178029 0.176243 0.176296
0.233292 0.233130 0.233053
0.252420 0.252735 0.253085
0.186481 0.186315 0.186571
0.214156 0.245857 0.246722
0.262379 0.261797 0.261715
0.240553 0.243012 0.245441
0.267817 0.266981 0.272570
0.231892 0.230435 0.230072
0.222443 0.225168 0.225446
0.183745 0.186327 0.186589
0.320462 0.322349 0.322298
0.277728 0.278456 0.277657
0.178931 0.179847 0.177775
0.328520 0.330283 0.330971
0.234598 0.234441 0.235584
0.289077 0.289515 0.289732
0.235339 0.234545 0.229333
0.180148 0.180678 0.180784
0.268032 0.270513 0.278144
0.190836 0.191618 0.191294
0.253808 0.259436 0.259658
0.236165 0.238101 0.239442
0.302664 0.300599 0.291809
0.281412 0.284810 0.286665
0.273157 0.274288 0.275066
0.209565 0.211709 0.221524
0.220437 0.220068 0.217045
0.284198 0.291990 0.293102
0.280387 0.280473 0.281605
0.224371 0.224670 0.219760
0.227783 0.228844 0.228536
0.226086 0.229840 0.231990
0.209045 0.208956 0.209725
0.270610 0.272340 0.273019
0.282623 0.283241 0.283278
0.250547 0.252221 0.252015
0.228934 0.229848 0.229972
0.190999 0.192489 0.193429
0.218815 0.215279 0.212824
0.277269 0.278326 0.278366
0.237510 0.236188 0.238593
0.171999 0.171337 0.170926
0.226850 0.221513 0.222000
0.264438 0.264833 0.263071
0.289600 0.290952 0.292922
0.291889 0.293318 0.295971
0.295200 0.294123 0.294010
0.271876 0.269693 0.273378
0.269846 0.269993 0.272855
0.175660 0.175652 0.172913
0.223586 0.218594 0.218805
0.266336 0.257285 0.258161
0.255785 0.254074 0.254339
0.232951 0.230453 0.230593
0.166615 0.166406 0.163135
0.274831 0.276088 0.282478
0.221086 0.218231 0.219426
0.202602 0.202392 0.202590
0.178380 0.178430 0.177984
0.277242 0.275814 0.269498
0.212049 0.213441 0.214984
0.288725 0.288821 0.289581
0.220794 0.220478 0.220502
0.294511 0.262767 0.261090
0.192062 0.192073 0.191494
0.263977 0.257147 0.256638
0.269390 0.270293 0.269610
0.232901 0.232342 0.231430
0.283035 0.280678 0.281437
0.244759 0.246585 0.246518
0.239991 0.239121 0.238952
0.183614 0.183699 0.182022
0.271278 0.271736 0.271698
0.243065 0.241979 0.241877
0.266665 0.266270 0.266391
0.177679 0.178231 0.178447
0.196511 0.196440 0.196667
0.287319 0.285348 0.284864
0.187235 0.187862 0.188257
0.165037 0.164564 0.164608
0.285513 0.284927 0.282128
0.205204 0.205044 0.201042
0.295776 0.294339 0.293290
0.230044 0.232666 0.232406
0.240638 0.239502 0.240107
0.239644 0.239755 0.239859
0.282943 0.282917 0.280862
0.199976 0.200098 0.199557
0.187291 0.190016 0.193841
0.224359 0.223675 0.222868
0.287827 0.287623 0.277736
0.252735 0.253085 0.253040
0.219886 0.221449 0.222174
0.219893 0.219858 0.220420
0.257895 0.257930 0.257526
0.291529 0.290551 0.289465
0.289313 0.290240 0.302050
0.161043 0.162685 0.163857
0.207854 0.208795 0.208919
0.271543 0.271790 0.270488
0.339363 0.340848 0.341502
0.165178 0.164578 0.164585
0.183856 0.183705 0.182056
0.225014 0.225237 0.227019
0.211031 0.206726 0.206755
0.168729 0.169433 0.171822
0.251809 0.252330 0.250597
0.246447 0.245460 0.244613
0.287196 0.287077 0.287836
0.278457 0.278709 0.278453
0.244261 0.243468 0.242966
0.265841 0.265675 0.266211
0.287221 0.287334 0.287550
0.235081 0.237542 0.248207
0.236115 0.223942 0.215228
0.298283 0.298672 0.298746
0.225167 0.224994 0.225304
0.195610 0.195652 0.197153
0.231501 0.231017 0.230412
0.195331 0.194041 0.194807
0.231981 0.232069 0.233029
0.296479 0.293334 0.293574
0.218603 0.218415 0.218027
0.245289 0.248428 0.253197
0.286271 0.289213 0.287173
0.252351 0.253984 0.254182
0.246259 0.246608 0.247765
0.285915 0.288644 0.290994
0.270583 0.269727 0.268988
0.205424 0.204044 0.203688
0.288648 0.283978 0.281860
0.278577 0.278206 0.279253
0.227066 0.230602 0.227020
0.218476 0.214520 0.192766
0.263841 0.263785 0.263898
0.266584 0.257247 0.258046
0.154707 0.154966 0.156043
0.208344 0.208855 0.208081
0.308561 0.311771 0.306559
0.201371 0.200633 0.200605
0.274629 0.270082 0.269395
0.273897 0.272504 0.278339
0.188583 0.187910 0.187267
0.245569 0.245683 0.245537
0.247587 0.248244 0.248646
0.230516 0.229844 0.228975
0.288884 0.287711 0.281150
0.286729 0.288124 0.289949
0.290913 0.295610 0.327258
0.238869 0.236736 0.224325
0.243043 0.243319 0.243217
0.261576 0.261899 0.260719
0.295001 0.295340 0.294330
0.267627 0.270755 0.271464
0.323931 0.325262 0.321566
0.203080 0.202681 0.202655
0.300685 0.300541 0.300900
0.200836 0.202160 0.200306
0.224418 0.224291 0.226864
0.212904 0.212598 0.213181
0.253767 0.252044 0.250691
0.185106 0.185567 0.184540
0.260543 0.261008 0.259460
0.256664 0.258482 0.259118
0.282586 0.282906 0.282631
0.163552 0.162516 0.162658
0.261932 0.263037 0.263390
0.244536 0.247683 0.247346
0.245899 0.244345 0.243207
0.298434 0.298623 0.298037
0.164841 0.164892 0.166494
0.229944 0.230493 0.231801
0.228875 0.227757 0.227906
0.166955 0.158711 0.157803
0.186296 0.186696 0.187935
0.287368 0.288057 0.285436
0.225149 0.226209 0.231302
0.198907 0.198891 0.197539
0.186159 0.186644 0.186469
0.221610 0.221716 0.223655
0.172018 0.172608 0.172666
0.265594 0.265221 0.265409
0.293621 0.292917 0.292599
0.176521 0.177005 0.176921
0.174375 0.174168 0.172046
0.241350 0.242725 0.243125
0.273425 0.274671 0.275012
0.225250 0.222639 0.217422
0.164860 0.162759 0.161267
0.252253 0.251803 0.251922
0.220188 0.221775 0.221086
0.279396 0.280088 0.295971
0.252668 0.251929 0.251262
0.199070 0.198892 0.198136
0.185550 0.182228 0.183064
0.213098 0.214101 0.217774
0.298453 0.296552 0.294965
0.179191 0.178855 0.181102
0.230195 0.231248 0.235036
0.200363 0.199318 0.198258
0.213989 0.214051 0.213964
0.215079 0.217151 0.217170
0.315083 0.315444 0.326526
0.233217 0.232387 0.232727
0.233805 0.233387 0.230805
0.239910 0.237292 0.236455
0.241806 0.241516 0.241390
0.212050 0.218635 0.218024
0.316025 0.317643 0.316738
0.177726 0.178074 0.176019
0.266883 0.269188 0.269746
0.247123 0.247010 0.244828
0.299078 0.297918 0.297239
0.251702 0.251800 0.251068
0.251709 0.254186 0.255754
0.293659 0.293038 0.289515
0.200678 0.200391 0.201621
0.243169 0.242884 0.243550
0.245114 0.244409 0.245146
0.241043 0.242557 0.244571
0.192371 0.192641 0.194485
0.233847 0.233415 0.234756
0.239867 0.234450 0.231327
0.253051 0.255728 0.258616
0.201556 0.203146 0.203923
0.203379 0.203902 0.207994
0.283994 0.298282 0.300805
0.173226 0.170066 0.168926
0.160595 0.160331 0.161599
0.196209 0.195159 0.190927
0.258373 0.252436 0.242323
0.272804 0.271334 0.270040
0.307726 0.308352 0.307298
0.242861 0.242728 0.242214
0.294831 0.287424 0.285820
0.203706 0.204033 0.210935
0.162820 0.161809 0.162797
0.189721 0.189577 0.188230
0.196001 0.196048 0.195572
0.183575 0.181454 0.180742
0.240202 0.237288 0.236545
0.246845 0.247555 0.242359
0.268805 0.268604 0.266584
0.200642 0.201489 0.200958
0.302369 0.299844 0.299220
0.169565 0.169374 0.169757
0.184963 0.184823 0.185620
0.193172 0.191787 0.191979
0.240305 0.246374 0.246882
0.189942 0.191073 0.192173
0.260800 0.261168 0.261350
0.303117 0.297222 0.313191
0.242148 0.242679 0.242280
0.262904 0.262728 0.261761
0.188614 0.190836 0.192282
0.214190 0.214057 0.213605
0.258991 0.259023 0.260124
0.283809 0.283088 0.282326
0.227443 0.230415 0.237778
0.311155 0.310274 0.313676
0.262784 0.263183 0.267289
0.234150 0.233253 0.232951
0.179703 0.182304 0.182286
0.214938 0.214711 0.215291
0.234951 0.233284 0.233285
0.306460 0.304437 0.302203
0.231811 0.231346 0.230466
0.205735 0.204520 0.197688
0.349599 0.349737 0.349985
0.305827 0.305594 0.306302
0.243490 0.245879 0.247494
0.219426 0.220126 0.220519
0.278865 0.277188 0.276082
0.209467 0.209238 0.209394
0.352621 0.352791 0.354254
0.155178 0.154773 0.155958
0.270696 0.270535 0.269440
0.151422 0.152036 0.153019
0.226375 0.226396 0.226567
0.233830 0.233408 0.234895
0.233373 0.233539 0.233416
0.235961 0.234421 0.234229
0.240458 0.239067 0.241127
0.188183 0.188183 0.188715
0.259089 0.258247 0.257695
0.261199 0.260196 0.247595
0.203992 0.202701 0.200684
0.293010 0.292007 0.292724
0.282048 0.282218 0.281239
0.332690 0.332751 0.332998
0.298432 0.299983 0.312377
0.276952 0.276757 0.275631
0.197729 0.198002 0.198199
0.252328 0.254195 0.248119
0.181568 0.181226 0.180970
0.220223 0.223013 0.231939
0.260858 0.261132 0.263060
0.259685 0.260647 0.267968
0.300532 0.300663 0.300122
0.209403 0.208824 0.208377
0.263801 0.263408 0.262156
0.167191 0.169145 0.170093
0.284324 0.284944 0.286605
0.214452 0.213173 0.212271
0.289651 0.283126 0.281750
0.306279 0.305861 0.306774
0.274374 0.275688 0.276299
0.288017 0.287939 0.288831
0.192590 0.192874 0.196806
0.253180 0.252687 0.252681
0.237595 0.237454 0.237176
0.271451 0.270537 0.269717
0.295752 0.295873 0.295746
0.293456 0.293753 0.294960
0.157166 0.153606 0.153700
0.246739 0.247019 0.247065
0.257796 0.277233 0.297128
0.203879 0.203688 0.207610
0.166774 0.166881 0.166195
0.258728 0.256203 0.255802
0.199369 0.198097 0.198613
0.216680 0.217926 0.217954
0.165073 0.166190 0.166171
0.259612 0.257773 0.257272
0.176983 0.177114 0.177358
0.179181 0.178658 0.177629
0.226318 0.222904 0.217893
0.239441 0.240460 0.240102
0.224879 0.229914 0.230223
0.305224 0.302591 0.303636
0.254698 0.256055 0.257511
0.260091 0.259622 0.259861
0.208053 0.207536 0.203656
0.180384 0.180334 0.181928
0.246784 0.246981 0.246021
0.230991 0.215799 0.212813
0.250123 0.251493 0.263432
0.277673 0.277025 0.276571
0.182056 0.181579 0.182953
0.307216 0.306572 0.306309
0.251597 0.252254 0.251902
0.200782 0.203853 0.204450
0.289436 0.288911 0.288696
0.180867 0.181241 0.181471
0.272098 0.272645 0.274317
0.274966 0.276870 0.287041
0.303191 0.305576 0.312910
0.263994 0.263109 0.263639
0.216456 0.216238 0.215289
0.193328 0.192805 0.192908
0.161523 0.161187 0.161530
0.248187 0.247720 0.247737
0.263010 0.256886 0.256735
0.281369 0.282194 0.283420
0.234508 0.234508 0.234747
0.260443 0.258019 0.256010
0.249051 0.249169 0.249261
0.286009 0.289678 0.289739
0.276798 0.277103 0.279199
0.247419 0.247133 0.246832
0.284082 0.273882 0.273910
0.222098 0.223470 0.223597
0.247391 0.245165 0.247657
0.344580 0.345253 0.343983
0.247886 0.247834 0.246063
0.269210 0.271271 0.271434
0.269203 0.266843 0.264610
0.190481 0.190597 0.189988
0.269398 0.272693 0.271530
0.249879 0.249341 0.246495
0.182002 0.181338 0.178585
0.297767 0.297377 0.297077
0.250171 0.250546 0.250426
0.292294 0.292964 0.295595
0.256644 0.264410 0.266173
0.224261 0.223359 0.220356
0.223596 0.226168 0.226477
0.245651 0.245856 0.240008
0.273446 0.271595 0.267748
0.295356 0.296172 0.303112
0.286036 0.286002 0.286258
0.293987 0.296852 0.301949
0.263382 0.252924 0.252400
0.183257 0.183274 0.182392
0.216503 0.229892 0.227392
0.292596 0.292561 0.293621
0.256961 0.257429 0.257622
0.273728 0.271944 0.269585
0.248692 0.246465 0.244940
0.201057 0.203724 0.202784
0.192759 0.192117 0.191105
0.174506 0.178298 0.178972
0.198931 0.199250 0.200054
0.255433 0.260597 0.261579
0.208074 0.208998 0.206694
0.270188 0.270669 0.272574
0.188739 0.186120 0.183984
0.188780 0.203566 0.209595
0.192442 0.195812 0.196243
0.268111 0.267518 0.273033
0.205835 0.218155 0.220276
0.230920 0.232060 0.234976
0.188309 0.189514 0.192109
0.206231 0.205751 0.205171
0.354651 0.355251 0.354854
0.180792 0.180492 0.181917
0.204757 0.203801 0.200799
0.290082 0.288467 0.287357
0.314574 0.313688 0.301765
0.181091 0.181076 0.181869
0.177470 0.181640 0.181890
0.207423 0.213043 0.219057
0.269608 0.269385 0.269197
0.252171 0.250721 0.242233
0.200499 0.199897 0.199900
0.219279 0.220872 0.221068
0.298419 0.290153 0.278619
0.309802 0.309995 0.307835
0.241048 0.237037 0.235473
0.211744 0.213938 0.217787
0.233590 0.231335 0.229662
0.261080 0.260156 0.254983
0.204379 0.200441 0.201531
0.186743 0.184717 0.183750
0.184542 0.184989 0.186846
0.229673 0.235310 0.237340
0.280764 0.281295 0.281411
0.259963 0.261648 0.263315
0.212972 0.208601 0.208437
0.173710 0.174001 0.177094
0.228428 0.228458 0.228444
0.202974 0.202616 0.202522
0.242137 0.239603 0.241035
0.178205 0.176573 0.178496
0.241675 0.240385 0.240775
0.284481 0.297772 0.298455
0.191454 0.195466 0.197553
0.231577 0.232845 0.233155
0.237194 0.237750 0.239567
0.319678 0.318476 0.316867
0.280086 0.280171 0.280352
0.192013 0.192623 0.193767
0.296984 0.296069 0.295358
0.192217 0.192432 0.195438
0.160331 0.161599 0.161948
0.232768 0.232681 0.229077
0.271772 0.264358 0.264170
0.239208 0.239405 0.238775
0.270339 0.265377 0.265249
0.256985 0.251780 0.252725
0.186975 0.188791 0.190921
0.231580 0.239434 0.241062
0.268679 0.273975 0.274990
0.175658 0.173155 0.172487
0.250301 0.250610 0.250970
0.292358 0.294483 0.296682
0.267394 0.268016 0.269481
0.163370 0.163384 0.163333
0.305663 0.306917 0.306580
0.236107 0.236622 0.239382
0.188149 0.183750 0.180772
0.257152 0.246991 0.242646
0.296132 0.294973 0.295356
0.356557 0.357674 0.358346
0.297262 0.295563 0.288656
0.234158 0.234653 0.234860
0.236517 0.231603 0.231516
0.208975 0.209130 0.205313
0.270223 0.270084 0.272185
0.188872 0.187479 0.187307
0.191160 0.192515 0.195029
0.290367 0.290458 0.289560
0.147854 0.146975 0.147662
0.176082 0.176931 0.176229
0.230605 0.236924 0.235189
0.275806 0.275625 0.272772
0.252571 0.252488 0.252458
0.205479 0.207105 0.204518
0.214165 0.220378 0.220040
0.275193 0.271902 0.271274
0.282406 0.281311 0.279358
0.241557 0.241553 0.240654
0.244940 0.245096 0.240216
0.216238 0.215289 0.212872
0.228136 0.228248 0.227740
0.297471 0.298111 0.301413
0.179788 0.179713 0.176587
0.173622 0.173167 0.174149
0.233365 0.235464 0.240790
0.251232 0.252111 0.252183
0.301892 0.300070 0.290319
0.323624 0.324431 0.324897
0.220423 0.220950 0.223925
0.270203 0.270786 0.272939
0.159009 0.161024 0.161656
0.274411 0.279987 0.280136
0.255474 0.254908 0.253479
0.262985 0.263446 0.264743
0.281904 0.280548 0.280504
0.301933 0.306724 0.305340
0.276414 0.277268 0.278048
0.216604 0.215992 0.215893
0.277170 0.275803 0.274955
0.182002 0.182222 0.184358
0.196840 0.196309 0.196254
0.212859 0.214169 0.214028
0.301063 0.302235 0.301584
0.180275 0.179538 0.178576
0.222552 0.222146 0.222214
0.196419 0.194693 0.193629
0.196516 0.194523 0.194576
0.178500 0.178603 0.178908
0.222942 0.224699 0.225784
0.194861 0.194008 0.194832
0.206700 0.206569 0.205322
0.237953 0.229624 0.229819
0.245559 0.245012 0.245180
0.306768 0.305762 0.304723
0.161949 0.160760 0.160856
0.264257 0.266498 0.267936
0.240869 0.241454 0.239405
0.224364 0.223876 0.224347
0.254117 0.254270 0.249784
0.241650 0.241891 0.242184
0.287307 0.284456 0.277633
0.163927 0.164589 0.165968
0.227508 0.229353 0.229680
0.334455 0.334960 0.336476
0.279562 0.278341 0.273804
0.315671 0.314163 0.314181
0.263045 0.265841 0.265675
0.243724 0.243965 0.244355
0.291873 0.287141 0.287210
0.195371 0.195907 0.196327
0.290585 0.292217 0.294896
0.274953 0.275469 0.279553
0.266156 0.265800 0.297323
0.313960 0.311464 0.309929
0.267035 0.265098 0.264300
0.192747 0.192683 0.192915
0.239377 0.240798 0.247978
0.261232 0.261968 0.261630
0.259656 0.259796 0.255455
0.201259 0.201006 0.201033
0.241178 0.238847 0.238432
0.220535 0.220730 0.220134
0.205106 0.206133 0.206015
0.281542 0.281473 0.282562
0.304576 0.302948 0.300723
0.240983 0.240573 0.240337
0.257142 0.261051 0.261533
0.277335 0.279344 0.278647
0.181868 0.180062 0.179742
0.314531 0.314411 0.313967
0.236061 0.239503 0.237060
0.253883 0.253972 0.257773
0.189096 0.189433 0.190375
0.184941 0.190199 0.210034
0.241664 0.242507 0.239926
0.299090 0.299395 0.298471
0.256977 0.256719 0.258979
0.284407 0.284397 0.285106
0.240568 0.240120 0.239643
0.297632 0.298186 0.298140
0.172159 0.175843 0.176886
0.226541 0.226589 0.227741
0.246872 0.245330 0.245276
0.231086 0.231283 0.231633
0.198833 0.195416 0.181445
0.153647 0.153013 0.152435
0.347394 0.340947 0.343538
0.238370 0.238096 0.238956
0.259838 0.260807 0.263001
0.179651 0.178420 0.178158
0.265852 0.266611 0.267582
0.182950 0.185935 0.185783
0.246070 0.247422 0.246488
0.290000 0.286525 0.284154
0.195049 0.194468 0.194072
0.220701 0.220499 0.220893
0.201546 0.202404 0.202423
0.276683 0.277550 0.281315
0.209388 0.209457 0.209434
0.280108 0.282105 0.282261
0.161875 0.161707 0.160543
0.173203 0.172788 0.170958
0.214971 0.213292 0.210642
0.292831 0.289496 0.289217
0.258559 0.257742 0.255349
0.177293 0.175746 0.174174
0.261453 0.260198 0.259637
0.202286 0.204995 0.213158
0.301231 0.307474 0.308493
0.196559 0.196432 0.197322
0.188337 0.188832 0.189900
0.269563 0.269085 0.272684
0.271312 0.272244 0.271447
0.301483 0.302499 0.302658
0.301678 0.301693 0.301171
0.286835 0.287656 0.287444
0.208835 0.208810 0.209155
0.271727 0.276315 0.276922
0.175503 0.173867 0.173935
0.244388 0.243282 0.243169
0.182393 0.187588 0.190375
0.200040 0.200109 0.199783
0.242683 0.243126 0.242784
0.262044 0.262713 0.262324
0.272592 0.270918 0.269844
0.249593 0.250236 0.253000
0.243248 0.244035 0.244478
0.223353 0.223732 0.220712
0.217687 0.215634 0.215259
0.256101 0.257063 0.254402
0.201630 0.201722 0.202197
0.189412 0.189505 0.184038
0.161795 0.163151 0.163912
0.285630 0.287495 0.287604
0.315319 0.316076 0.315406
0.182143 0.181550 0.180892
0.259861 0.260467 0.260795
0.248206 0.248799 0.246544
0.246934 0.242589 0.240869
0.182555 0.182748 0.182566
0.193570 0.190065 0.190380
0.245701 0.244513 0.243491
0.175337 0.178646 0.179427
0.226259 0.223982 0.223843
0.324572 0.324641 0.325408
0.219260 0.219468 0.219434
0.223421 0.222419 0.217553
0.244075 0.244420 0.245439
0.283115 0.280443 0.278587
0.239379 0.238694 0.238408
0.226173 0.219874 0.223163
0.245490 0.244426 0.244936
0.238416 0.238715 0.238783
0.187001 0.188272 0.189508
0.287756 0.287836 0.285395
0.283540 0.283502 0.280113
0.204095 0.203969 0.203681
0.254053 0.253947 0.254777
0.228451 0.228610 0.231864
0.266858 0.266615 0.266304
0.192670 0.192590 0.189788
0.246102 0.244219 0.243447
0.176823 0.176549 0.177167
0.238600 0.238700 0.238019
0.224782 0.220943 0.223221
0.188558 0.187886 0.187305
0.239710 0.237223 0.234528
0.241820 0.244249 0.242670
0.329244 0.327654 0.327797
0.251811 0.251741 0.253694
0.247263 0.247218 0.247241
0.240999 0.241135 0.240557
0.184302 0.183614 0.183699
0.182111 0.181535 0.181834
0.293755 0.293876 0.296242
0.186469 0.187272 0.187613
0.236849 0.237747 0.238730
0.255909 0.256282 0.254884
0.311421 0.311414 0.311539
0.299209 0.289631 0.282316
0.230766 0.231587 0.233845
0.162136 0.162808 0.162585
0.192109 0.191518 0.191071
0.201762 0.201546 0.203404
0.205454 0.205196 0.205061
0.252681 0.248441 0.248466
0.193863 0.194791 0.195516
0.248500 0.247665 0.249119
0.252058 0.253094 0.249693
0.209944 0.210058 0.209831
0.239012 0.246024 0.244137
0.311960 0.314214 0.315632
0.290344 0.290772 0.291660
0.293165 0.298492 0.298628
0.268898 0.269362 0.266760
0.279456 0.277795 0.273850
0.248438 0.248874 0.248777
0.272051 0.272373 0.273029
0.252572 0.252367 0.251545
0.219907 0.221372 0.222854
0.161441 0.161326 0.161342
0.252919 0.253076 0.253240
0.216887 0.215835 0.213610
0.310308 0.314353 0.314383
0.304718 0.305830 0.304518
0.173122 0.173434 0.173946
0.182258 0.182058 0.177257
0.164866 0.164807 0.165126
0.219468 0.217308 0.214108
0.276191 0.277284 0.278432
0.223512 0.222988 0.224004
0.226164 0.223499 0.223699
0.281492 0.280199 0.280544
0.281090 0.283863 0.284041
0.195464 0.193864 0.196010
0.234942 0.235042 0.235226
0.255636 0.255624 0.256046
0.240859 0.242127 0.242503
0.279603 0.284612 0.286884
0.300454 0.300092 0.299550
0.254647 0.253886 0.248391
0.287179 0.287840 0.287359
0.217031 0.216641 0.217668
0.286355 0.293014 0.292987
0.239850 0.239388 0.238853
0.306645 0.306223 0.305107
0.168096 0.169577 0.174640
0.188446 0.188294 0.190132
0.305749 0.305636 0.305292
0.313579 0.313917 0.314633
0.242576 0.242633 0.239270
0.266611 0.267582 0.274093
0.200913 0.201371 0.200633
0.303964 0.302689 0.305720
0.293406 0.295368 0.295686
0.309312 0.307175 0.308934
0.271215 0.270404 0.264931
0.296753 0.296260 0.296468
0.310402 0.310768 0.308453
0.243147 0.243407 0.243625
0.171479 0.171996 0.172297
0.227728 0.227956 0.224113
0.210920 0.210359 0.202287
0.222256 0.222934 0.223299
0.186139 0.186029 0.190965
0.246965 0.239960 0.240131
0.213389 0.214673 0.213883
0.271373 0.271876 0.269693
0.255489 0.254995 0.250435
0.291042 0.291037 0.291806
0.249086 0.245613 0.245780
0.196395 0.201482 0.211033
0.227521 0.227834 0.231498
0.308185 0.308166 0.308180
0.311483 0.310741 0.310160
0.183768 0.184330 0.184046
0.304130 0.306384 0.304762
0.261172 0.261476 0.261746
0.272593 0.271853 0.272238
0.260492 0.260504 0.260425
0.261212 0.260984 0.257814
0.257851 0.258024 0.257917
0.306178 0.306890 0.310111
0.182227 0.181866 0.181893
0.310117 0.310736 0.310149
0.309437 0.306880 0.306327
0.228144 0.231656 0.233199
0.315464 0.315472 0.315357
0.185803 0.185662 0.184420
0.249086 0.248983 0.246226
0.212567 0.212620 0.216205
0.241472 0.241035 0.243772
0.349776 0.349715 0.349175
0.171572 0.171695 0.172611
0.234755 0.234531 0.233217
0.172994 0.174592 0.167252
0.209536 0.209384 0.211691
0.228982 0.228829 0.231826
0.229284 0.228835 0.226959
0.258511 0.258713 0.258058
0.327334 0.327054 0.328529
0.288949 0.291012 0.294098
0.296578 0.294841 0.294528
0.287909 0.287542 0.285756
0.265647 0.266498 0.267627
0.206279 0.206332 0.204919
0.246457 0.245423 0.245245
0.276553 0.286324 0.286604
0.171300 0.173722 0.177252
0.187183 0.186560 0.186593
0.306878 0.304761 0.304499
0.161673 0.160380 0.160453
0.198908 0.198907 0.198891
0.219588 0.233043 0.238210
0.157925 0.157782 0.159812
0.270533 0.272454 0.275689
0.190882 0.187401 0.186912
0.184183 0.194452 0.196991
0.262886 0.266378 0.283933
0.225317 0.225330 0.224006
0.217520 0.217622 0.218287
0.238595 0.234350 0.224292
0.257868 0.254548 0.245079
0.256641 0.255838 0.255675
0.169384 0.169320 0.169254
0.185046 0.178326 0.177151
0.235531 0.241678 0.242648
0.258237 0.257187 0.257946
0.197028 0.195761 0.194028
0.232690 0.232693 0.232265
0.320128 0.319451 0.323863
0.299945 0.300042 0.299853
0.294155 0.295556 0.295106
0.167362 0.168050 0.166770
0.224361 0.223315 0.223642
0.286563 0.288636 0.289904
0.298482 0.298580 0.300355
0.200967 0.200438 0.198313
0.173827 0.172619 0.171667
0.291526 0.291289 0.291602
0.346521 0.345485 0.344066
0.229931 0.228244 0.231116
0.218225 0.218099 0.218143
0.237511 0.238794 0.236971
0.273208 0.274726 0.274854
0.201033 0.201000 0.199516
0.207007 0.214231 0.214525
0.331728 0.331818 0.330761
0.358060 0.358464 0.360695
0.228538 0.237728 0.238613
0.255928 0.256188 0.256049
0.253699 0.253762 0.254320
0.194314 0.192253 0.185377
0.237485 0.239938 0.248695
0.251178 0.251000 0.252055
0.220736 0.221164 0.221704
0.243810 0.241816 0.241774
0.226853 0.227663 0.227793
0.295263 0.295667 0.295048
0.239769 0.238814 0.240261
0.250196 0.254212 0.257200
0.268836 0.267598 0.247262
0.262877 0.264373 0.266197
0.271902 0.271274 0.269805
0.284554 0.280483 0.277588
0.184051 0.184587 0.185084
0.171377 0.171506 0.169811
0.250323 0.251410 0.247938
0.169340 0.170201 0.171114
0.182274 0.175699 0.175002
0.229512 0.231651 0.233032
0.251097 0.249251 0.243480
0.252400 0.251750 0.253001
0.242889 0.240983 0.240573
0.245180 0.245983 0.247933
0.280250 0.281200 0.281642
0.296242 0.296113 0.294862
0.343746 0.343165 0.342621
0.200969 0.201127 0.199438
0.210004 0.211217 0.209169
0.298519 0.298462 0.297524
0.283729 0.283801 0.282325
0.261547 0.261360 0.261701
0.165716 0.166367 0.165215
0.194298 0.193774 0.193704
0.276477 0.276975 0.276255
0.184268 0.179125 0.177762
0.237062 0.236120 0.235969
0.223183 0.223112 0.223281
0.252250 0.251593 0.251621
0.180776 0.181288 0.182854
0.278633 0.279276 0.279810
0.256795 0.256215 0.256023
0.181086 0.181926 0.182128
0.206042 0.205553 0.206207
0.305977 0.306046 0.307223
0.234097 0.233634 0.231533
0.245131 0.244892 0.245840
0.244615 0.241498 0.240465
0.278406 0.280142 0.279593
0.174881 0.173311 0.173537
0.195284 0.189773 0.171382
0.187126 0.190423 0.191910
0.208606 0.208565 0.208453
0.166710 0.167340 0.165626
0.241503 0.240578 0.240435
0.223839 0.223964 0.223998
0.285891 0.284542 0.276203
0.196468 0.195122 0.193923
0.172091 0.172411 0.172175
0.221535 0.218791 0.217252
0.254637 0.254432 0.254480
0.162955 0.162645 0.163539
0.221572 0.220119 0.216590
0.163282 0.163357 0.162569
0.247590 0.248246 0.260143
0.292594 0.292500 0.295361
0.305762 0.304723 0.304056
0.291058 0.291398 0.294745
0.306582 0.313520 0.314049
0.184675 0.183955 0.182645
0.260518 0.250112 0.244223
0.245575 0.246836 0.249543
0.175635 0.172560 0.172152
0.293644 0.295034 0.294207
0.246544 0.241734 0.242622
0.171745 0.170557 0.170137
0.271345 0.270261 0.269856
0.204028 0.204974 0.206007
0.236476 0.236648 0.240850
0.246369 0.246855 0.248649
0.314484 0.315569 0.316346
0.241209 0.241867 0.240718
0.228170 0.230688 0.236196
0.269802 0.267786 0.272421
0.229716 0.229306 0.229592
0.243033 0.244991 0.245167
0.229225 0.229463 0.228154
0.193531 0.192302 0.193247
0.238219 0.239270 0.239945
0.214789 0.212906 0.213803
0.197026 0.197949 0.198593
0.265543 0.265479 0.265927
0.295304 0.293677 0.294218
0.213074 0.204109 0.205690
0.218471 0.219104 0.219039
0.177828 0.178273 0.178660
0.292332 0.291515 0.291032
0.251158 0.251864 0.249978
0.282511 0.282374 0.282253
0.246896 0.246421 0.246878
0.142990 0.142976 0.144098
0.228722 0.230857 0.231400
0.191081 0.189613 0.188861
0.293305 0.291628 0.291167
0.271947 0.272569 0.272329
0.266030 0.265291 0.263552
0.287344 0.286000 0.278469
