0.208155 0.206676 0.212378
0.133427 0.132987 0.133031
0.238118 0.235821 0.236957
0.181704 0.182119 0.182731
0.145710 0.145067 0.145343
0.205692 0.205197 0.205219
0.221638 0.208225 0.198199
0.137063 0.139808 0.139741
0.226522 0.225527 0.225033
0.202106 0.202108 0.201469
0.193433 0.193814 0.193432
0.136503 0.136410 0.136356
0.187845 0.187390 0.186291
0.215405 0.214321 0.214244
0.207567 0.207366 0.207420
0.146375 0.150021 0.150081
0.243965 0.246532 0.253386
0.141599 0.141319 0.141167
0.128482 0.128360 0.127918
0.241316 0.240534 0.240477
0.136576 0.136684 0.136547
0.134585 0.134441 0.134331
0.131587 0.131396 0.131460
0.232204 0.229004 0.228947
0.141939 0.141419 0.141066
0.136124 0.135809 0.135551
0.231399 0.231181 0.231765
0.130850 0.128812 0.128802
0.148808 0.149602 0.153770
0.225711 0.226927 0.227695
0.208425 0.206089 0.205386
0.229230 0.228891 0.227398
0.153671 0.153928 0.153824
0.141173 0.140677 0.140685
0.160943 0.159998 0.151494
0.136183 0.145472 0.146867
0.143812 0.144896 0.144648
0.136305 0.136187 0.136443
0.269284 0.269465 0.269590
0.216389 0.205575 0.203917
0.262595 0.263456 0.261031
0.234287 0.234523 0.234202
0.244419 0.244702 0.244686
0.138198 0.138364 0.138216
0.225324 0.226483 0.238334
0.133067 0.132889 0.132205
0.214658 0.220191 0.220462
0.120206 0.120236 0.120933
0.131459 0.131476 0.130975
0.200872 0.201938 0.202289
0.138738 0.137025 0.136874
0.132675 0.133559 0.134357
0.146004 0.145240 0.145015
0.131604 0.131261 0.131621
0.141212 0.140702 0.139951
0.134612 0.135001 0.134835
0.137393 0.144902 0.145037
0.233628 0.233735 0.227561
0.209405 0.220088 0.221716
0.190700 0.190565 0.190090
0.131339 0.130906 0.131121
0.197478 0.194195 0.195590
0.140568 0.140758 0.140838
0.229764 0.229716 0.229183
0.133500 0.133565 0.133429
0.144331 0.134647 0.134315
0.130644 0.130573 0.130666
0.237835 0.240883 0.241634
0.182897 0.181434 0.181259
0.190688 0.191259 0.191633
0.238915 0.238630 0.238225
0.134681 0.134361 0.134151
0.184206 0.182552 0.176965
0.132808 0.132583 0.132603
0.247383 0.246341 0.243242
0.224009 0.224885 0.224952
0.184959 0.185393 0.188953
0.140708 0.140698 0.140330
0.148309 0.149073 0.148991
0.199872 0.208981 0.210453
0.173239 0.179482 0.179586
0.214251 0.217123 0.220261
0.239873 0.238031 0.237823
0.127105 0.126878 0.128065
0.119995 0.120078 0.119955
0.260843 0.260195 0.260376
0.234840 0.235906 0.235691
0.177566 0.177282 0.177303
0.214348 0.224543 0.223781
0.132424 0.132537 0.132577
0.155561 0.156723 0.156658
0.135217 0.135022 0.135593
0.133076 0.133257 0.133965
0.231345 0.217592 0.216874
0.222193 0.224155 0.224272
0.147544 0.147789 0.147649
0.140781 0.141996 0.141960
0.138918 0.138748 0.138918
0.143932 0.144146 0.146250
0.147461 0.139209 0.138788
0.206789 0.205675 0.206296
0.212496 0.213617 0.212342
0.205904 0.204201 0.204019
0.189069 0.189049 0.189087
0.130707 0.130885 0.130183
0.202068 0.202996 0.203274
0.249860 0.246471 0.246007
0.225894 0.226134 0.225885
0.196793 0.203404 0.205312
0.135551 0.134975 0.134702
0.256788 0.256146 0.249243
0.134173 0.131127 0.125305
0.156956 0.157024 0.156649
0.155984 0.154701 0.144850
0.160246 0.160500 0.163584
0.217177 0.216077 0.221270
0.137512 0.137258 0.135531
0.133791 0.133427 0.132987
0.145901 0.145262 0.145389
0.221200 0.222222 0.222542
0.147623 0.147677 0.147840
0.241667 0.241520 0.241524
0.120807 0.130268 0.130466
0.240005 0.242974 0.242541
0.193376 0.200789 0.203158
0.263859 0.264246 0.265940
0.133297 0.133921 0.141140
0.133872 0.133983 0.133561
0.233306 0.234666 0.245095
0.252980 0.254493 0.255147
0.122841 0.118838 0.118652
0.131241 0.130580 0.130511
0.135312 0.135244 0.135176
0.233978 0.233859 0.233378
0.134990 0.135036 0.143037
0.139946 0.139859 0.139608
0.229028 0.228675 0.229130
0.144458 0.144237 0.144589
0.223049 0.223902 0.225917
0.219284 0.219242 0.218755
0.248806 0.241625 0.241718
0.137267 0.137868 0.137802
0.195797 0.194160 0.187359
0.226621 0.225739 0.225442
0.137572 0.137384 0.137279
0.147774 0.147789 0.147797
0.214102 0.213979 0.214057
0.143965 0.143622 0.143376
0.282980 0.274312 0.271194
0.212369 0.216219 0.218020
0.213543 0.212597 0.212980
0.128855 0.129230 0.129217
0.225096 0.224066 0.223535
0.212035 0.212625 0.212768
0.208751 0.202371 0.202630
0.198339 0.196477 0.196607
0.177378 0.177566 0.177282
0.208171 0.214319 0.215992
0.142953 0.143440 0.142622
0.142644 0.142940 0.144112
0.132784 0.133482 0.133497
0.132966 0.132544 0.132179
0.188949 0.189126 0.189699
0.134646 0.134655 0.134758
0.190303 0.189223 0.188485
0.148726 0.148088 0.148065
0.129418 0.128826 0.129022
0.172902 0.171713 0.171514
0.196377 0.196578 0.200310
0.217550 0.219420 0.220485
0.274224 0.274831 0.276303
0.131111 0.131216 0.131079
0.195690 0.193833 0.193147
0.191108 0.190925 0.190856
0.132446 0.132227 0.131625
0.211610 0.211339 0.213922
0.134036 0.133556 0.133484
0.148544 0.148702 0.148864
0.186713 0.187975 0.186774
0.196056 0.195575 0.195502
0.133952 0.133655 0.133736
0.208362 0.208690 0.209603
0.325810 0.325966 0.324022
0.219351 0.219304 0.219255
0.141172 0.141622 0.141746
0.246005 0.250747 0.250916
0.205723 0.209538 0.206561
0.139474 0.138563 0.135952
0.139809 0.139158 0.139114
0.283015 0.284584 0.284461
0.203125 0.207575 0.206916
0.201103 0.200919 0.199938
0.139175 0.139587 0.139605
0.220098 0.221810 0.217298
0.223743 0.223262 0.221490
0.233369 0.235420 0.236473
0.128143 0.135797 0.135287
0.150957 0.150904 0.150938
0.138019 0.137238 0.132198
0.129007 0.129271 0.131552
0.156447 0.155864 0.154988
0.137158 0.137573 0.137955
0.214172 0.216673 0.216350
0.133559 0.133429 0.133159
0.138940 0.133907 0.130276
0.181793 0.181703 0.181517
0.144232 0.143690 0.144001
0.150742 0.154038 0.154318
0.244319 0.244886 0.249153
0.249917 0.246976 0.246509
0.139063 0.138549 0.138580
0.151392 0.151688 0.151799
0.143897 0.140326 0.140280
0.209335 0.209237 0.209421
0.137083 0.137629 0.137558
0.141996 0.141055 0.139843
0.215179 0.215226 0.218480
0.134359 0.143692 0.141949
0.237583 0.237787 0.239098
0.222877 0.222955 0.222875
0.224926 0.225786 0.225878
0.209179 0.206885 0.204569
0.134478 0.134975 0.136205
0.267578 0.266721 0.271226
0.213144 0.213244 0.213512
0.263176 0.264087 0.265026
0.209233 0.208987 0.208267
0.208954 0.208674 0.207291
0.209527 0.209178 0.212952
0.144907 0.143910 0.142860
0.221793 0.223699 0.225634
0.141592 0.141713 0.141788
0.175833 0.176196 0.176756
0.226483 0.238334 0.238558
0.131108 0.131073 0.131177
0.226019 0.226438 0.226765
0.205831 0.206401 0.206129
0.194738 0.192684 0.192439
0.134512 0.134485 0.134531
0.229686 0.229581 0.229256
0.135612 0.135756 0.135613
0.210401 0.210901 0.215403
0.214129 0.213467 0.213633
0.216145 0.215389 0.215846
0.213032 0.213203 0.213419
0.168643 0.168307 0.168232
0.224439 0.224423 0.224730
0.149889 0.149840 0.149747
0.217432 0.217922 0.218766
0.141595 0.141960 0.140522
0.135927 0.135919 0.135567
0.265659 0.266001 0.266580
0.193181 0.192962 0.193285
0.211271 0.209686 0.210419
0.225507 0.225233 0.220511
0.135691 0.135707 0.135601
0.278323 0.274890 0.270920
0.126192 0.126018 0.125622
0.135607 0.135495 0.135189
0.154753 0.152834 0.141940
0.132811 0.142595 0.144046
0.132384 0.132607 0.132658
0.143955 0.143067 0.143162
0.151944 0.146560 0.144944
0.215793 0.215771 0.216042
0.135229 0.135016 0.135595
0.213580 0.213608 0.205140
0.213059 0.212250 0.212105
0.151327 0.151283 0.140901
0.240682 0.240453 0.240545
0.133125 0.133791 0.134095
0.131500 0.131201 0.131147
0.127521 0.127844 0.128121
0.242745 0.241947 0.244524
0.213625 0.213681 0.210186
0.120077 0.119868 0.119902
0.128877 0.127585 0.127692
0.133642 0.133592 0.123699
0.200754 0.196142 0.195096
0.198746 0.196963 0.196769
0.131177 0.131621 0.131715
0.147487 0.147004 0.147068
0.237993 0.237461 0.237228
0.130768 0.131051 0.131301
0.235700 0.237509 0.245679
0.254031 0.254108 0.253916
0.265637 0.267484 0.267724
0.232901 0.233651 0.234910
0.132286 0.132613 0.133074
0.138292 0.137752 0.137420
0.169817 0.169641 0.170165
0.127779 0.127976 0.128236
0.188953 0.193868 0.194259
0.127293 0.127181 0.126933
0.147027 0.142857 0.143049
0.261348 0.260174 0.259770
0.129953 0.130063 0.129306
0.135643 0.134725 0.130692
0.261348 0.264572 0.265012
0.217384 0.217870 0.218713
0.178262 0.178663 0.179427
0.216137 0.218976 0.219548
0.219303 0.220711 0.220345
0.256632 0.249629 0.244513
0.145087 0.146119 0.145946
0.252631 0.246352 0.245414
0.222542 0.222911 0.222828
0.225955 0.225201 0.228794
0.253392 0.257075 0.257932
0.157456 0.158632 0.158945
0.225527 0.225033 0.222639
0.218947 0.218520 0.217911
0.129045 0.127166 0.127021
0.215046 0.214639 0.210458
0.208562 0.208922 0.209007
0.132068 0.132195 0.132061
0.191797 0.189280 0.184521
0.141951 0.142005 0.141605
0.130824 0.130045 0.130238
0.140201 0.131785 0.131106
0.136391 0.136283 0.135981
0.222709 0.222434 0.226745
0.217203 0.218428 0.220861
0.200584 0.199334 0.197591
0.144238 0.143646 0.141157
0.257371 0.257225 0.257280
0.136951 0.137312 0.137148
0.248300 0.244457 0.241541
0.135496 0.134649 0.133373
0.127809 0.125987 0.125784
0.135540 0.135240 0.141185
0.222225 0.220448 0.219407
0.150156 0.148808 0.138738
0.240783 0.246084 0.247632
0.133897 0.133985 0.134040
0.133648 0.133491 0.123343
0.234551 0.235739 0.236924
0.133511 0.132700 0.133234
0.190897 0.188944 0.187723
0.294347 0.291820 0.291461
0.135887 0.135265 0.135075
0.135252 0.135197 0.135336
0.189632 0.189520 0.189038
0.138327 0.138334 0.138446
0.207993 0.209593 0.205354
0.275158 0.274585 0.273684
0.211980 0.209861 0.210183
0.131166 0.131017 0.130799
0.275310 0.275682 0.275749
0.212007 0.212018 0.212218
0.220721 0.220843 0.218475
0.130355 0.130412 0.131918
0.209500 0.209651 0.210055
0.150838 0.150764 0.150587
0.140325 0.140399 0.140146
0.216774 0.221337 0.221300
0.132340 0.131519 0.131379
0.184170 0.184627 0.177027
0.161085 0.165760 0.171331
0.207340 0.208172 0.208823
0.147061 0.139235 0.135696
0.227119 0.227456 0.229114
0.220186 0.220892 0.220203
0.136478 0.136474 0.136875
0.179889 0.180015 0.179216
0.239988 0.237835 0.240883
0.178662 0.176472 0.176714
0.152118 0.152178 0.152099
0.206774 0.206473 0.207599
0.212593 0.213542 0.213102
0.195403 0.200879 0.204091
0.194059 0.192451 0.194288
0.239098 0.238930 0.235338
0.136041 0.136077 0.135929
0.202156 0.205881 0.208028
0.214171 0.214454 0.217986
0.223744 0.216816 0.215625
0.129691 0.129859 0.129635
0.130989 0.131999 0.133664
0.152040 0.152561 0.152513
0.133879 0.147410 0.148135
0.210080 0.209694 0.209490
0.148703 0.148819 0.148706
0.223080 0.222750 0.221911
0.144301 0.145282 0.145180
0.214505 0.215622 0.217659
0.222132 0.220924 0.218225
0.130158 0.130443 0.130487
0.140442 0.140731 0.140511
0.193779 0.192802 0.192994
0.133082 0.133275 0.133744
0.220367 0.221787 0.220461
0.150878 0.157417 0.158312
0.135079 0.135010 0.135057
0.219970 0.221820 0.221595
0.127161 0.126990 0.126995
0.214507 0.214907 0.214973
0.140146 0.140120 0.140320
0.263087 0.261113 0.250301
0.222465 0.222427 0.222555
0.128166 0.128211 0.128770
0.132125 0.143048 0.144442
0.248212 0.245455 0.246902
0.245057 0.244067 0.243507
0.149500 0.149114 0.148652
0.220582 0.220722 0.217634
0.148387 0.147746 0.147770
0.130611 0.130695 0.130768
0.136545 0.136551 0.137003
0.153825 0.153377 0.158142
0.138285 0.138206 0.137611
0.133092 0.131397 0.131347
0.210101 0.209792 0.209452
0.199730 0.201438 0.201749
0.197329 0.198018 0.197064
0.123084 0.122487 0.122999
0.195455 0.194351 0.194962
0.135287 0.135274 0.135001
0.141782 0.141783 0.141066
0.222541 0.221826 0.217367
0.140176 0.139148 0.131921
0.132332 0.132357 0.131845
0.264267 0.264765 0.265043
0.125196 0.125209 0.125265
0.241978 0.242346 0.242398
0.156723 0.156982 0.157380
0.138570 0.139372 0.146026
0.194896 0.187694 0.187433
0.127747 0.128047 0.128318
0.148082 0.148179 0.148498
0.136300 0.137027 0.137077
0.136999 0.136886 0.136641
0.147863 0.153619 0.154552
0.184064 0.179246 0.178473
0.195237 0.194810 0.194403
0.135754 0.143623 0.144211
0.209918 0.208535 0.208543
0.262325 0.256243 0.255009
0.130692 0.130509 0.130477
0.212700 0.211083 0.209459
0.213105 0.213263 0.213259
0.158983 0.159155 0.159108
0.133039 0.133232 0.133336
0.222564 0.221986 0.215557
0.141848 0.141828 0.141267
0.212798 0.212682 0.212743
0.210656 0.212097 0.221488
0.234966 0.235661 0.236357
0.157111 0.154983 0.147609
0.136025 0.135963 0.135877
0.234304 0.233974 0.234079
0.138552 0.138479 0.138816
0.148843 0.148733 0.148648
0.131936 0.132399 0.135698
0.216861 0.217196 0.217102
0.139379 0.139588 0.139610
0.141755 0.141818 0.141703
0.120082 0.120268 0.129230
0.141070 0.142489 0.142547
0.138308 0.138265 0.137985
0.243501 0.241728 0.241160
0.217312 0.218104 0.218512
0.137678 0.137188 0.137607
0.223102 0.222771 0.218940
0.183452 0.191045 0.194242
0.157621 0.157509 0.157518
0.134303 0.133789 0.133649
0.133370 0.133500 0.133565
0.189323 0.192747 0.191867
0.206895 0.205500 0.205104
0.216529 0.215334 0.214490
0.176609 0.179345 0.181865
0.275944 0.274779 0.274182
0.134490 0.134812 0.134690
0.203222 0.196675 0.196739
0.224231 0.224368 0.224347
0.193800 0.220789 0.223319
0.136972 0.143276 0.142966
0.184846 0.185138 0.186102
0.153748 0.153913 0.153260
0.223829 0.224866 0.225962
0.246671 0.246627 0.246475
0.232137 0.232068 0.230850
0.212342 0.213903 0.213048
0.222745 0.222582 0.221661
0.222700 0.222644 0.218790
0.186725 0.188604 0.188512
0.222102 0.226602 0.228328
0.134180 0.133744 0.133308
0.199449 0.200064 0.200690
0.142645 0.141707 0.140308
0.127477 0.127235 0.127062
0.270360 0.270817 0.272570
0.213220 0.213227 0.207841
0.144567 0.144776 0.144867
0.242035 0.241361 0.241572
0.249683 0.253112 0.253650
0.132900 0.134790 0.141191
0.203380 0.203774 0.204395
0.222426 0.221172 0.217308
0.129997 0.130520 0.137699
0.195792 0.195964 0.195925
0.130914 0.131008 0.130918
0.132460 0.132381 0.131609
0.156498 0.148287 0.148073
0.130962 0.131086 0.130550
0.209682 0.203325 0.203833
0.137125 0.133003 0.133162
0.193896 0.192773 0.193059
0.212045 0.211095 0.211645
0.269505 0.262859 0.262040
0.126318 0.126352 0.126319
0.251601 0.249561 0.245063
0.135563 0.135808 0.138357
0.133085 0.132726 0.132493
0.239232 0.239550 0.239915
0.201629 0.200735 0.197560
0.199819 0.199648 0.199554
0.230599 0.231184 0.229869
0.212632 0.212599 0.210749
0.130918 0.131744 0.132043
0.216534 0.210365 0.214203
0.211139 0.215185 0.217393
0.129972 0.130533 0.139333
0.141290 0.141412 0.141564
0.137604 0.137495 0.136632
0.194933 0.197399 0.201569
0.136767 0.136725 0.136554
0.195797 0.196541 0.201807
0.228476 0.225380 0.214840
0.175356 0.177412 0.169976
0.146679 0.146664 0.146721
0.189079 0.188512 0.188216
0.215615 0.215517 0.215537
0.141330 0.142875 0.142341
0.203180 0.202204 0.200140
0.240039 0.239529 0.239377
0.276536 0.277615 0.278199
0.133612 0.141073 0.140596
0.138557 0.138369 0.138828
0.156803 0.156864 0.156370
0.144226 0.144235 0.143957
0.171447 0.171925 0.172343
0.149735 0.147588 0.147381
0.155739 0.155681 0.155353
0.144629 0.144420 0.144213
0.136108 0.136174 0.135732
0.187208 0.183779 0.183366
0.138816 0.149667 0.149663
0.233505 0.234001 0.234882
0.230235 0.230986 0.233241
0.129397 0.129248 0.128670
0.291831 0.291805 0.291723
0.202310 0.204937 0.206605
0.210218 0.209582 0.206433
0.317422 0.282625 0.262304
0.225434 0.224931 0.224768
0.235680 0.236204 0.236546
0.174225 0.174502 0.174249
0.225129 0.225582 0.224869
0.132597 0.132615 0.132779
0.134668 0.123733 0.122243
0.210822 0.210967 0.211249
0.224013 0.222538 0.221991
0.197410 0.198929 0.204357
0.268037 0.267731 0.268023
0.129524 0.129439 0.129369
0.136653 0.136828 0.136960
0.214012 0.213845 0.213276
0.133450 0.133506 0.133376
0.134727 0.134232 0.134142
0.138733 0.148230 0.149741
0.228074 0.229384 0.225016
0.135758 0.135774 0.135819
0.208693 0.208323 0.206231
0.217655 0.218498 0.218514
0.218631 0.219871 0.216702
0.266255 0.265627 0.266253
0.202963 0.195730 0.192828
0.131200 0.131573 0.132078
0.138009 0.132237 0.132208
0.134179 0.134225 0.133984
0.143653 0.142924 0.132553
0.122688 0.122926 0.123016
0.128543 0.137110 0.137095
0.131104 0.131585 0.131576
0.218676 0.218572 0.218374
0.224921 0.220470 0.219897
0.220868 0.224706 0.224020
0.210753 0.213839 0.214124
0.123186 0.123107 0.122945
0.130099 0.132492 0.132798
0.132431 0.132895 0.132967
0.232142 0.231577 0.230236
0.162636 0.153269 0.150249
0.209615 0.211044 0.211479
0.190226 0.191451 0.193675
0.260768 0.261553 0.262551
0.208381 0.208853 0.208486
0.142792 0.142678 0.133550
0.145219 0.145030 0.145097
0.131740 0.131940 0.132075
0.207229 0.197570 0.196335
0.147459 0.138756 0.137993
0.246713 0.247118 0.249697
0.131513 0.131537 0.131520
0.230634 0.232588 0.234115
0.245512 0.245426 0.244171
0.135344 0.137153 0.137137
0.131638 0.131365 0.130780
0.208987 0.208267 0.207341
0.216848 0.217177 0.216301
0.131866 0.131936 0.131564
0.140753 0.140592 0.140733
0.132608 0.132675 0.133382
0.236151 0.236507 0.238583
0.138098 0.137940 0.137936
0.221668 0.218752 0.215947
0.134295 0.134769 0.134765
0.172857 0.176727 0.169760
0.238278 0.238210 0.238380
0.137899 0.138407 0.138608
0.124931 0.124310 0.123992
0.224379 0.221450 0.219721
0.136201 0.135605 0.135807
0.192357 0.192882 0.191838
0.135448 0.135936 0.136227
0.135119 0.135057 0.134220
0.132936 0.132966 0.132705
0.199100 0.199198 0.198756
0.248554 0.249435 0.252223
0.138054 0.137993 0.138040
0.134932 0.135230 0.135279
0.127021 0.126697 0.125592
0.134954 0.133710 0.128022
0.137862 0.136129 0.125115
0.135245 0.133445 0.133420
0.130491 0.130287 0.129870
0.134685 0.135020 0.135135
0.135695 0.135699 0.135527
0.132612 0.132553 0.132685
0.250720 0.251708 0.251835
0.126259 0.123994 0.123712
0.128504 0.129995 0.139903
0.134713 0.134472 0.134346
0.205445 0.210318 0.211141
0.186964 0.186423 0.185556
0.128019 0.128174 0.128312
0.216981 0.217548 0.220157
0.142512 0.142504 0.142670
0.229711 0.229990 0.231393
0.230095 0.229984 0.229652
0.152618 0.146409 0.146560
0.194790 0.191071 0.188788
0.195489 0.194116 0.194522
0.141476 0.141703 0.141755
0.225739 0.225442 0.225279
0.124382 0.124870 0.126093
0.244505 0.244457 0.244226
0.238332 0.244150 0.244936
0.190160 0.190647 0.190650
0.136408 0.136356 0.135970
0.258907 0.258516 0.255313
0.140124 0.135319 0.131155
0.202225 0.201849 0.202396
0.135852 0.143710 0.144338
0.233178 0.233854 0.234966
0.253955 0.255001 0.260627
0.264274 0.253437 0.252797
0.266445 0.266002 0.266159
0.137222 0.138963 0.145572
0.207748 0.207329 0.207615
0.217224 0.216291 0.210717
0.131755 0.133109 0.138446
0.316882 0.317108 0.317027
0.204007 0.201538 0.201549
0.239379 0.247341 0.248110
0.134009 0.134594 0.135105
0.145572 0.145767 0.144769
0.122728 0.123027 0.123435
0.142084 0.147905 0.146912
0.129601 0.130216 0.130273
0.221522 0.221379 0.221405
0.247712 0.248651 0.249347
0.145051 0.145294 0.145254
0.134458 0.134002 0.134030
0.149415 0.148698 0.148130
0.235325 0.236787 0.236615
0.207429 0.207366 0.207582
0.198736 0.204479 0.206219
0.263161 0.261199 0.264926
0.240513 0.241446 0.243964
0.127334 0.126712 0.133649
0.226438 0.226765 0.227186
0.265089 0.265375 0.270993
0.130031 0.137936 0.138135
0.133066 0.132375 0.132312
0.329500 0.329319 0.329324
0.238160 0.237614 0.240284
0.236717 0.238345 0.239120
0.132914 0.132811 0.142595
0.200477 0.199541 0.192891
0.143370 0.142753 0.142398
0.132053 0.131110 0.131605
0.192143 0.190706 0.195889
0.193249 0.221406 0.253406
0.230015 0.229647 0.229633
0.143956 0.139470 0.139481
0.133403 0.133542 0.133206
0.132247 0.132236 0.132556
0.240464 0.240479 0.240406
0.144908 0.135095 0.132669
0.144367 0.144817 0.144594
0.210830 0.209135 0.208907
0.221729 0.214736 0.226802
0.239016 0.239850 0.240217
0.130949 0.130596 0.130688
0.137537 0.137240 0.136940
0.143813 0.136710 0.135704
0.218036 0.217288 0.220247
0.240222 0.240331 0.240522
0.129757 0.129327 0.129037
0.137051 0.137244 0.136918
0.141283 0.141086 0.141112
0.221820 0.222087 0.222957
0.138471 0.135646 0.136311
0.135432 0.125962 0.126635
0.133824 0.134328 0.136902
0.131096 0.131172 0.131332
0.228018 0.228036 0.227871
0.168296 0.170059 0.172757
0.135878 0.136223 0.136219
0.198951 0.196788 0.193345
0.166488 0.169710 0.173024
0.219630 0.228097 0.229466
0.147191 0.150021 0.142619
0.139535 0.139597 0.139525
0.136280 0.136275 0.136054
0.218327 0.219127 0.218259
0.127063 0.127009 0.127231
0.240637 0.237299 0.236384
0.148610 0.148900 0.148936
0.139691 0.136201 0.135447
0.214902 0.215028 0.215533
0.137244 0.136918 0.137079
0.141654 0.141601 0.141828
0.210600 0.210647 0.211324
0.259487 0.260995 0.265536
0.218362 0.219702 0.215581
0.222901 0.222741 0.220444
0.142096 0.141747 0.141871
0.221209 0.222421 0.222714
0.151824 0.151365 0.146526
0.145545 0.137418 0.136915
0.237410 0.236735 0.235970
0.214258 0.214669 0.214101
0.151749 0.158218 0.157440
0.208925 0.209108 0.208694
0.196699 0.197165 0.197768
0.133339 0.133417 0.132205
0.255088 0.254126 0.255217
0.134872 0.135310 0.135442
0.145510 0.138440 0.137725
0.245069 0.236033 0.221298
0.268597 0.268353 0.268033
0.239091 0.238909 0.238123
0.139293 0.139278 0.139387
0.127601 0.127640 0.127645
0.193217 0.196628 0.196970
0.147560 0.147465 0.137338
0.211355 0.211101 0.210952
0.241788 0.256333 0.261197
0.210254 0.210778 0.210910
0.135481 0.135462 0.145185
0.227984 0.226876 0.220869
0.248304 0.246660 0.246949
0.291775 0.291837 0.292193
0.131257 0.131710 0.131647
0.198381 0.198440 0.198026
0.249075 0.252159 0.252988
0.138923 0.138790 0.139112
0.123231 0.122723 0.122489
0.264966 0.264909 0.268449
0.131839 0.134207 0.130564
0.147245 0.144266 0.139047
0.205691 0.205827 0.205209
0.265345 0.265100 0.265525
0.136759 0.136999 0.136886
0.263507 0.263514 0.263044
0.196340 0.196792 0.195407
0.129271 0.131552 0.141505
0.117226 0.117202 0.117044
0.129430 0.129373 0.138001
0.211043 0.210497 0.210776
0.196314 0.201807 0.200806
0.199549 0.197428 0.196996
0.133462 0.134176 0.132659
0.149208 0.149051 0.147942
0.133382 0.142849 0.143994
0.212339 0.212492 0.211270
0.253738 0.253649 0.254830
0.132361 0.132385 0.132237
0.131755 0.131858 0.131395
0.232125 0.231317 0.230026
0.130636 0.130524 0.138271
0.152668 0.153362 0.153272
0.208086 0.207814 0.204245
0.205467 0.206521 0.209337
0.186782 0.186058 0.186410
0.211444 0.212159 0.212485
0.235335 0.236071 0.236133
0.132910 0.133084 0.133180
0.247329 0.248719 0.250660
0.135590 0.134875 0.125573
0.220501 0.219924 0.219606
0.132848 0.132650 0.132580
0.217181 0.217007 0.216774
0.265026 0.265418 0.271067
0.139627 0.140006 0.140194
0.143048 0.143859 0.143251
0.124144 0.124525 0.135624
0.203190 0.202656 0.202316
0.236740 0.242331 0.242975
0.140070 0.139824 0.139557
0.234385 0.234202 0.229163
0.141866 0.136201 0.135605
0.146982 0.147025 0.142663
0.211324 0.212270 0.212049
0.128873 0.128646 0.128576
0.201682 0.207061 0.211906
0.144786 0.143653 0.142924
0.189037 0.186509 0.185055
0.192451 0.194288 0.201147
0.182842 0.183381 0.181447
0.159155 0.159108 0.159312
0.282622 0.284603 0.285082
0.134994 0.135569 0.144374
0.140020 0.139992 0.140110
0.134847 0.134710 0.134930
0.212053 0.213090 0.211959
0.232406 0.232350 0.233553
0.206181 0.206162 0.205933
0.211210 0.202078 0.201054
0.208588 0.208455 0.208971
0.326210 0.330144 0.330387
0.178464 0.178242 0.175169
0.133515 0.133435 0.133580
0.271123 0.275447 0.275662
0.218690 0.220237 0.220601
0.250708 0.251621 0.253636
0.133764 0.134200 0.133896
0.152757 0.152192 0.151036
0.152500 0.152568 0.153616
0.137042 0.136849 0.135656
0.128007 0.128179 0.128316
0.143075 0.155673 0.147683
0.150004 0.152538 0.152828
0.200375 0.200721 0.201362
0.254902 0.247590 0.242182
0.220231 0.219477 0.220836
0.117570 0.117504 0.117795
0.141975 0.141920 0.142022
0.204093 0.203356 0.203132
0.209139 0.208788 0.209038
0.133658 0.133648 0.133479
0.143286 0.142987 0.143275
0.212298 0.212694 0.212683
0.206035 0.226138 0.279135
0.141976 0.142419 0.142779
0.148044 0.147334 0.147544
0.218498 0.218836 0.219218
0.136465 0.135764 0.135797
0.199150 0.199002 0.198751
0.190437 0.190398 0.190681
0.211536 0.212108 0.214376
0.140499 0.140604 0.140673
0.207116 0.206535 0.206367
0.208937 0.209210 0.209586
0.145065 0.145359 0.150350
0.222477 0.222666 0.223242
0.144145 0.144238 0.144192
0.137608 0.137611 0.137904
0.183016 0.180667 0.180477
0.249244 0.244858 0.243149
0.219561 0.219232 0.219668
0.209071 0.204977 0.201662
0.257219 0.256279 0.255383
0.192066 0.190499 0.189072
0.196765 0.197004 0.200364
0.145154 0.145243 0.145979
0.228026 0.227847 0.228084
0.264184 0.264283 0.264965
0.211224 0.213536 0.213297
0.120077 0.119177 0.119583
0.208409 0.207621 0.208367
0.211051 0.210606 0.205592
0.202187 0.201104 0.198364
0.215884 0.217482 0.217384
0.132543 0.132609 0.132394
0.139870 0.140140 0.140176
0.208641 0.202271 0.201265
0.241790 0.241902 0.242352
0.138828 0.138655 0.138734
0.229342 0.236284 0.235659
0.135731 0.143835 0.144207
0.137682 0.137745 0.138082
0.207380 0.206424 0.205796
0.154886 0.155174 0.155216
0.144181 0.143776 0.142950
0.232649 0.231759 0.231403
0.198437 0.198321 0.201398
0.159028 0.158463 0.158417
0.134673 0.135046 0.135921
0.222912 0.223128 0.224164
0.119399 0.117643 0.118111
0.225415 0.224515 0.224242
0.294285 0.294188 0.291543
0.214255 0.208642 0.208136
0.138403 0.139177 0.139113
0.225825 0.226861 0.227644
0.147169 0.147063 0.147370
0.110207 0.110296 0.110106
0.129733 0.129820 0.130046
0.134559 0.134795 0.134830
0.215841 0.216272 0.216962
0.229572 0.230363 0.230007
0.132553 0.132516 0.133839
0.133034 0.133066 0.133223
0.225878 0.225569 0.223196
0.208588 0.208828 0.208520
0.207179 0.207509 0.208336
0.211606 0.208311 0.208163
0.240899 0.240639 0.240796
0.145025 0.145002 0.145075
0.247401 0.247698 0.248659
0.186722 0.186062 0.184684
0.208544 0.208237 0.203815
0.139595 0.140065 0.140582
0.227430 0.228172 0.228936
0.220227 0.224569 0.213799
0.132092 0.131456 0.131404
0.142031 0.142401 0.143140
0.135832 0.135894 0.135831
0.243104 0.243613 0.246274
0.212821 0.212570 0.212616
0.138213 0.138484 0.138809
0.218432 0.218378 0.217215
0.139100 0.139072 0.139356
0.160326 0.163504 0.163262
0.222146 0.221920 0.221328
0.309859 0.309934 0.310587
0.192084 0.191608 0.192872
0.206745 0.206835 0.206973
0.223834 0.226198 0.223494
0.148921 0.149004 0.149175
0.141069 0.139798 0.138684
0.225770 0.227075 0.226929
0.201007 0.196860 0.195808
0.240426 0.238546 0.237882
0.147194 0.138753 0.135569
0.133354 0.134205 0.134279
0.215776 0.215998 0.239698
0.235746 0.238013 0.238461
0.211260 0.210761 0.209181
0.198612 0.198293 0.199290
0.221580 0.222438 0.222841
0.131982 0.134015 0.132907
0.218619 0.212692 0.210434
0.132568 0.132487 0.132076
0.159028 0.159434 0.158550
0.129641 0.129081 0.128791
0.226110 0.225925 0.223541
0.149481 0.149517 0.148569
0.198048 0.198398 0.198658
0.243136 0.247948 0.252058
0.132071 0.130456 0.121580
0.228015 0.228018 0.228036
0.204932 0.204238 0.202693
0.220226 0.220126 0.220821
0.146808 0.147367 0.146367
0.128190 0.127450 0.127858
0.219225 0.220582 0.220722
0.130178 0.133935 0.140199
0.213660 0.213787 0.213752
0.211191 0.214220 0.215091
0.189474 0.189529 0.189887
0.219496 0.219644 0.219106
0.133205 0.133263 0.133322
0.140138 0.139764 0.132948
0.219242 0.218755 0.218169
0.177612 0.177837 0.178509
0.142473 0.142679 0.142792
0.217172 0.220341 0.221331
0.139128 0.132541 0.130993
0.229193 0.230336 0.230406
0.211496 0.212079 0.212018
0.144594 0.144070 0.143059
0.213658 0.213273 0.212562
0.198513 0.191826 0.189691
0.140466 0.140983 0.146018
