0.198513 0.198060 0.198310
0.117326 0.116975 0.116337
0.125024 0.125532 0.127509
0.188985 0.189267 0.183940
0.173026 0.172030 0.172191
0.125875 0.125681 0.125848
0.108542 0.108481 0.108442
0.158034 0.156621 0.156166
0.138595 0.145716 0.146096
0.134302 0.134277 0.133940
0.152739 0.152458 0.151380
0.137535 0.135703 0.134744
0.156357 0.157218 0.160241
0.196841 0.195081 0.194364
0.148235 0.148869 0.149277
0.158116 0.155198 0.153523
0.188488 0.188287 0.188489
0.157333 0.158141 0.159508
0.170991 0.170636 0.171665
0.119145 0.119475 0.119967
0.168159 0.168761 0.169262
0.116376 0.116565 0.116522
0.115247 0.116255 0.115978
0.102177 0.100791 0.100219
0.137063 0.135768 0.135844
0.104213 0.105128 0.105425
0.166634 0.166999 0.167565
0.091965 0.092766 0.092417
0.133297 0.133893 0.136321
0.148026 0.148937 0.148860
0.091864 0.092307 0.091613
0.183002 0.184692 0.185313
0.118628 0.118982 0.118967
0.132072 0.132262 0.131595
0.162483 0.162032 0.162623
0.117392 0.117143 0.117473
0.143674 0.142838 0.142481
0.160806 0.162002 0.162066
0.196190 0.201197 0.201818
0.162970 0.162898 0.163110
0.136419 0.136697 0.135935
0.090079 0.089740 0.088867
0.164490 0.166122 0.167227
0.111986 0.113190 0.114137
0.124102 0.124233 0.124805
0.128255 0.127991 0.127925
0.158387 0.158550 0.158189
0.109323 0.110423 0.110935
0.176168 0.175991 0.174910
0.163639 0.164025 0.164386
0.195661 0.194293 0.192718
0.159196 0.155620 0.154907
0.135652 0.138592 0.137826
0.186002 0.185987 0.188392
0.138137 0.138804 0.139610
0.158634 0.158453 0.158086
0.173048 0.172893 0.176214
0.102158 0.100754 0.102894
0.201584 0.201171 0.201205
0.140257 0.140083 0.140414
0.170198 0.170830 0.170058
0.147093 0.147259 0.148307
0.139139 0.139041 0.139017
0.139863 0.138863 0.138703
0.164542 0.164553 0.165245
0.146394 0.147803 0.147061
0.113346 0.115284 0.115269
0.145349 0.147762 0.150479
0.160234 0.159932 0.158771
0.174000 0.174179 0.172140
0.127885 0.128340 0.128381
0.115298 0.114540 0.114329
0.172362 0.171899 0.173371
0.167169 0.166549 0.163955
0.143200 0.144019 0.144502
0.157916 0.157420 0.155657
0.142793 0.144020 0.144573
0.158725 0.157830 0.156933
0.119315 0.119581 0.120169
0.187538 0.187263 0.188301
0.158892 0.158599 0.159489
0.151722 0.152026 0.152224
0.150464 0.149932 0.150531
0.115344 0.116175 0.117937
0.136778 0.137635 0.138082
0.125158 0.126836 0.126801
0.166747 0.167956 0.168701
0.154361 0.153555 0.153529
0.169708 0.172302 0.172330
0.131614 0.131603 0.131230
0.194005 0.193755 0.193606
0.149411 0.150304 0.149899
0.163757 0.162762 0.162043
0.165452 0.162985 0.161818
0.143005 0.143524 0.150176
0.211380 0.210758 0.209814
0.153738 0.166320 0.165295
0.153186 0.153337 0.153174
0.186797 0.187378 0.187014
0.114188 0.114417 0.114514
0.161077 0.161311 0.161097
0.152356 0.152292 0.152892
0.115898 0.118596 0.120646
0.140585 0.141116 0.141730
0.116794 0.114630 0.116060
0.187555 0.188014 0.188011
0.167314 0.166766 0.166660
0.146934 0.146256 0.146403
0.102013 0.102005 0.102619
0.173318 0.173429 0.173031
0.133142 0.132839 0.133862
0.137841 0.139039 0.138122
0.134132 0.134963 0.135543
0.126559 0.126010 0.126070
0.162413 0.158423 0.157942
0.160661 0.161137 0.161393
0.124542 0.124188 0.124998
0.135169 0.135316 0.136643
0.166714 0.167584 0.169479
0.137080 0.137065 0.136739
0.109711 0.110456 0.111017
0.166324 0.165255 0.165058
0.122507 0.121169 0.116923
0.182311 0.181129 0.180001
0.173218 0.172936 0.172764
0.152612 0.152444 0.152193
0.149004 0.149431 0.149617
0.162170 0.162314 0.162008
0.152529 0.151963 0.151284
0.187518 0.187027 0.186653
0.168012 0.169365 0.173437
0.157309 0.157423 0.157033
0.147177 0.147397 0.148207
0.141056 0.141315 0.141272
0.121753 0.120777 0.121465
0.156525 0.155733 0.154502
0.132211 0.132072 0.132262
0.126839 0.127156 0.127226
0.162729 0.163021 0.163291
0.152335 0.152328 0.153019
0.139704 0.139669 0.139809
0.133533 0.133358 0.133209
0.148624 0.148831 0.150242
0.153707 0.153767 0.153833
0.143334 0.144492 0.144515
0.120041 0.120568 0.120962
0.116037 0.115581 0.115519
0.169746 0.169043 0.168761
0.140461 0.140298 0.140252
0.160053 0.159803 0.160247
0.167498 0.167261 0.167978
0.164030 0.164221 0.165912
0.129152 0.129696 0.129807
0.148104 0.149168 0.153941
0.154277 0.154323 0.155001
0.152886 0.153393 0.156721
0.193068 0.192691 0.193238
0.107893 0.107854 0.113561
0.115781 0.115329 0.114945
0.179645 0.179249 0.179286
0.148338 0.147085 0.148000
0.152849 0.153548 0.159567
0.161751 0.161771 0.161843
0.149301 0.154027 0.154756
0.117510 0.117383 0.117431
0.163687 0.163594 0.163918
0.169492 0.169074 0.169783
0.171900 0.174920 0.175199
0.119767 0.119711 0.119965
0.157993 0.158313 0.158145
0.141834 0.141718 0.141600
0.122863 0.123576 0.124052
0.169427 0.169680 0.169189
0.156866 0.156753 0.155047
0.147529 0.147314 0.148445
0.172915 0.173396 0.173850
0.155490 0.155717 0.155601
0.168877 0.167859 0.166619
0.160227 0.159863 0.158005
0.110848 0.111038 0.111684
0.139733 0.138197 0.137543
0.155573 0.155233 0.151055
0.130418 0.132608 0.130121
0.139573 0.140249 0.139791
0.159744 0.158136 0.158616
0.171384 0.172037 0.172983
0.170850 0.172030 0.172500
0.120546 0.120578 0.120783
0.155178 0.150957 0.151092
0.180584 0.180760 0.181593
0.124842 0.125684 0.126290
0.114276 0.114822 0.114847
0.125557 0.125459 0.125220
0.091137 0.091143 0.091192
0.153414 0.154031 0.155009
0.137660 0.137089 0.137355
0.154031 0.154199 0.152834
0.125171 0.125499 0.127589
0.137141 0.137867 0.139124
0.116129 0.115921 0.116173
0.154337 0.155347 0.161475
0.135196 0.135645 0.135677
0.175692 0.175926 0.182709
0.151865 0.152783 0.152467
0.125652 0.125789 0.125649
0.148891 0.149377 0.148445
0.116899 0.116717 0.117297
0.183956 0.185571 0.193066
0.132916 0.134681 0.135633
0.141126 0.141113 0.139012
0.177548 0.177202 0.176111
0.139385 0.141445 0.140934
0.177845 0.178100 0.175157
0.160013 0.155737 0.155013
0.136431 0.135612 0.135053
0.127255 0.127410 0.128803
0.128874 0.131258 0.131849
0.175729 0.175676 0.178032
0.130331 0.131457 0.135699
0.099108 0.099501 0.099596
0.148809 0.148697 0.153386
0.147770 0.148040 0.148430
0.095433 0.094954 0.094531
0.139647 0.138705 0.138454
0.167495 0.168126 0.171012
0.201628 0.201889 0.201766
0.171734 0.171891 0.171690
0.142521 0.141167 0.140737
0.141526 0.142233 0.142165
0.155956 0.156384 0.157898
0.167170 0.167177 0.165155
0.111404 0.110233 0.107641
0.198712 0.198468 0.197817
0.120506 0.121175 0.121339
0.141260 0.141454 0.141952
0.097226 0.097943 0.097325
0.145776 0.146592 0.147470
0.173770 0.173913 0.172730
0.165479 0.167424 0.168388
0.107757 0.107875 0.107838
0.148731 0.148288 0.146731
0.101870 0.102111 0.102984
0.108160 0.108657 0.109163
0.133267 0.133473 0.133298
0.131570 0.130678 0.130504
0.111236 0.110797 0.111207
0.169063 0.168602 0.169306
0.126364 0.125799 0.125301
0.108474 0.109132 0.112286
0.135292 0.133289 0.133568
0.138163 0.138476 0.138776
0.154040 0.154053 0.154062
0.144735 0.144952 0.144850
0.179615 0.181042 0.181069
0.158892 0.158579 0.158570
0.169179 0.169756 0.170688
0.124960 0.126799 0.127349
0.150232 0.150422 0.150445
0.098471 0.098077 0.098344
0.160381 0.162631 0.163181
0.133999 0.133589 0.133598
0.178262 0.177614 0.177104
0.110876 0.110927 0.110646
0.170490 0.167877 0.163915
0.175947 0.176168 0.176175
0.152839 0.154351 0.156497
0.114812 0.114334 0.116183
0.113440 0.119261 0.121153
0.111649 0.111350 0.110580
0.103531 0.103487 0.102410
0.165225 0.164934 0.166175
0.129029 0.128712 0.127591
0.116360 0.116189 0.116010
0.167452 0.167574 0.167740
0.152297 0.151994 0.151301
0.121380 0.122817 0.122786
0.209088 0.209373 0.210050
0.109791 0.109936 0.110595
0.127479 0.127597 0.128621
0.120366 0.119031 0.119602
0.141323 0.142006 0.141694
0.129482 0.130315 0.130755
0.141101 0.141447 0.140888
0.130595 0.130943 0.131302
0.153868 0.153803 0.153434
0.136984 0.137184 0.137485
0.132555 0.131845 0.131900
0.128092 0.127628 0.127838
0.141204 0.141223 0.140901
0.122494 0.121992 0.120882
0.136732 0.137088 0.137415
0.148612 0.148631 0.149019
0.129389 0.130116 0.130880
0.137628 0.138547 0.136677
0.083331 0.083303 0.082068
0.163174 0.162483 0.161919
0.171963 0.170933 0.169545
0.170334 0.170639 0.169968
0.123163 0.123097 0.122134
0.122429 0.123607 0.123496
0.104649 0.104753 0.104861
0.150323 0.150343 0.150454
0.148523 0.148427 0.148574
0.117123 0.117053 0.116037
0.099939 0.100291 0.099202
0.135083 0.135680 0.135361
0.148437 0.148638 0.148348
0.145253 0.146023 0.147266
0.132594 0.132964 0.131548
0.201004 0.201630 0.202075
0.157725 0.157075 0.153978
0.181939 0.179768 0.179812
0.135861 0.135961 0.136760
0.154802 0.154800 0.154276
0.147696 0.145991 0.147166
0.092218 0.092818 0.092608
0.185932 0.185685 0.191791
0.159433 0.159239 0.157658
0.155275 0.154424 0.154689
0.116419 0.116823 0.117632
0.125633 0.124413 0.123617
0.135567 0.136450 0.136268
0.151687 0.152131 0.153962
0.135197 0.134897 0.135136
0.174006 0.174685 0.174874
0.146007 0.148794 0.149820
0.172542 0.171130 0.171331
0.143888 0.149381 0.150128
0.170530 0.170624 0.168430
0.133558 0.133250 0.132986
0.165496 0.167237 0.168012
0.177294 0.175817 0.176459
0.135284 0.137017 0.138090
0.124898 0.124127 0.124968
0.102683 0.101393 0.102402
0.155796 0.155874 0.152764
0.168003 0.167682 0.167647
0.138220 0.137890 0.138071
0.187510 0.185880 0.182946
0.164750 0.165191 0.165486
0.152844 0.153022 0.153301
0.146474 0.145225 0.146192
0.188803 0.187459 0.186940
0.138485 0.137951 0.137330
0.159250 0.159573 0.159666
0.146467 0.147890 0.148715
0.135037 0.137856 0.138176
0.134721 0.134407 0.134219
0.183315 0.182688 0.183247
0.139679 0.139164 0.140301
0.140387 0.140559 0.140701
0.141235 0.141217 0.141529
0.106602 0.105876 0.104926
0.134582 0.134962 0.135115
0.153079 0.166190 0.165330
0.091693 0.091586 0.091386
0.114848 0.115932 0.116766
0.118258 0.118649 0.117866
0.169533 0.169496 0.170445
0.157518 0.155587 0.153337
0.163780 0.162440 0.163934
0.161543 0.165631 0.166284
0.092989 0.093053 0.093587
0.110336 0.110634 0.107087
0.141398 0.142144 0.141804
0.204821 0.204997 0.204636
0.136831 0.137325 0.135499
0.141718 0.141600 0.141959
0.127752 0.127829 0.129437
0.107703 0.107366 0.106684
0.153029 0.152933 0.148162
0.157705 0.166485 0.167644
0.108204 0.108878 0.110546
0.136645 0.135637 0.132719
0.130613 0.133583 0.133748
0.193162 0.193168 0.192575
0.120858 0.121606 0.122417
0.169532 0.170163 0.170465
0.138898 0.144439 0.143871
0.150155 0.150068 0.149964
0.156683 0.153796 0.153535
0.159893 0.159758 0.160606
0.166560 0.169339 0.172916
0.174387 0.174182 0.174738
0.138068 0.135491 0.136341
0.131709 0.131621 0.129101
0.150123 0.150280 0.151074
0.147988 0.148226 0.148703
0.113662 0.114678 0.112317
0.082596 0.082653 0.082128
0.139014 0.140209 0.145387
0.122006 0.122497 0.122786
0.164239 0.163758 0.167223
0.143404 0.144451 0.145570
0.162259 0.162251 0.163326
0.178335 0.173996 0.176690
0.172652 0.172661 0.173218
0.124919 0.124740 0.126888
0.168218 0.169228 0.169115
0.157233 0.157358 0.157814
0.159140 0.159744 0.158136
0.149663 0.148884 0.149367
0.171476 0.171609 0.172321
0.167493 0.168402 0.168634
0.123767 0.122467 0.122859
0.152346 0.152339 0.152963
0.165182 0.164445 0.165616
0.131721 0.132163 0.131496
0.152461 0.152422 0.153071
0.119403 0.119709 0.119403
0.144005 0.141636 0.142018
0.163447 0.163354 0.162652
0.173488 0.173136 0.172870
0.136758 0.136907 0.136987
0.172052 0.170608 0.169578
0.186210 0.186019 0.185860
0.155031 0.155005 0.155192
0.165228 0.166023 0.166594
0.186629 0.186847 0.186350
0.127585 0.128094 0.129397
0.161726 0.161373 0.162108
0.175413 0.176695 0.177737
0.135909 0.135883 0.136286
0.089974 0.089835 0.089460
0.134591 0.134334 0.134202
0.156555 0.155597 0.155490
0.165219 0.165983 0.166025
0.095416 0.095901 0.096474
0.149447 0.148529 0.152068
0.145077 0.149966 0.149489
0.151759 0.151018 0.150548
0.130753 0.130251 0.130444
0.176326 0.176278 0.177521
0.132222 0.130364 0.126748
0.123089 0.124872 0.125648
0.167790 0.165585 0.155911
0.161873 0.161158 0.161338
0.193119 0.192713 0.192147
0.103144 0.102927 0.101731
0.155481 0.155562 0.155843
0.159715 0.159135 0.158728
0.113189 0.111338 0.110656
0.139542 0.138196 0.138086
0.160160 0.159899 0.158649
0.191422 0.186676 0.189239
0.127623 0.127786 0.128529
0.128939 0.129800 0.129462
0.127671 0.127242 0.126023
0.153756 0.151848 0.149290
0.171989 0.173891 0.177826
0.187605 0.187498 0.188123
0.123816 0.127517 0.128017
0.166627 0.166984 0.167495
0.134293 0.135196 0.135645
0.182758 0.184718 0.184702
0.153142 0.151824 0.152168
0.169715 0.168306 0.165918
0.173553 0.174224 0.174408
0.137131 0.136216 0.134799
0.148203 0.147195 0.146953
0.128790 0.129710 0.131128
0.175192 0.176288 0.175717
0.169585 0.166780 0.165128
0.156134 0.154958 0.154566
0.179041 0.180496 0.179969
0.126969 0.125791 0.122984
0.144919 0.143852 0.143757
0.185003 0.185770 0.183802
0.171240 0.170050 0.169761
0.142258 0.144026 0.137814
0.163290 0.164797 0.165292
0.212372 0.212548 0.212801
0.118852 0.117598 0.117786
0.165286 0.163684 0.160767
0.167361 0.167769 0.168039
0.187309 0.187059 0.186762
0.160232 0.164337 0.166708
0.116257 0.116975 0.117336
0.186785 0.187217 0.187161
0.160109 0.160761 0.160492
0.120071 0.120792 0.121394
0.121716 0.122035 0.120344
0.201543 0.204961 0.205436
0.132993 0.132863 0.132862
0.121385 0.117360 0.117796
0.170620 0.168934 0.169014
0.135405 0.134168 0.135340
0.160561 0.160406 0.160224
0.212847 0.209290 0.208803
0.184489 0.184867 0.186028
0.173480 0.172954 0.172985
0.168745 0.168937 0.169324
0.174873 0.159384 0.157178
0.134605 0.137938 0.138309
0.181179 0.180731 0.180596
0.169913 0.170621 0.169493
0.113465 0.112948 0.114258
0.110950 0.110782 0.111214
0.157080 0.154352 0.153958
0.148432 0.150017 0.149481
0.153309 0.153903 0.156009
0.138025 0.139524 0.140550
0.153893 0.158417 0.158309
0.174736 0.174347 0.171982
0.126595 0.125957 0.126105
0.151942 0.152211 0.152619
0.173167 0.171239 0.169223
0.154607 0.155207 0.157228
0.106731 0.107083 0.107302
0.154400 0.154489 0.154415
0.133644 0.134223 0.135652
0.091192 0.091248 0.091314
0.172700 0.172671 0.174574
0.113100 0.114489 0.120403
0.151229 0.149959 0.150150
0.161243 0.159668 0.158671
0.154546 0.154571 0.154552
0.168448 0.167434 0.168155
0.145519 0.145235 0.146392
0.145855 0.145714 0.145678
0.074094 0.073851 0.073781
0.143262 0.145289 0.145947
0.129472 0.122786 0.121198
0.159746 0.159461 0.159592
0.162680 0.165698 0.167818
0.119644 0.119847 0.120782
0.166346 0.166082 0.165361
0.187149 0.187513 0.186976
0.151670 0.151194 0.151160
0.111620 0.113753 0.113648
0.131144 0.131596 0.131651
0.120313 0.120496 0.121289
0.122422 0.122123 0.122359
0.164955 0.164833 0.164773
0.130418 0.130419 0.129893
0.167437 0.168129 0.168322
0.197672 0.198132 0.204298
0.171864 0.171093 0.170552
0.151923 0.152156 0.153227
0.151795 0.152518 0.151253
0.134933 0.133631 0.132536
0.092757 0.093966 0.094164
0.152279 0.155445 0.154621
0.149211 0.148148 0.148254
0.139959 0.140338 0.139203
0.179534 0.178842 0.177636
0.143386 0.142776 0.141882
0.171179 0.170231 0.164642
0.110852 0.110192 0.105892
0.137890 0.137148 0.139790
0.130253 0.130471 0.131117
0.170302 0.170439 0.169947
0.185032 0.185656 0.182660
0.161608 0.161676 0.161946
0.171839 0.174966 0.175235
0.102592 0.102278 0.101938
0.128691 0.129423 0.129283
0.168253 0.169179 0.169756
0.160133 0.164898 0.165893
0.136719 0.137060 0.137179
0.158990 0.158982 0.158617
0.181245 0.181347 0.180559
0.132229 0.131932 0.131585
0.159758 0.159561 0.159745
0.166327 0.166566 0.166229
0.089599 0.090216 0.090073
0.158785 0.161637 0.161711
0.165113 0.168841 0.172249
0.133046 0.132697 0.133865
0.129806 0.129193 0.130171
0.110409 0.108829 0.110094
0.132611 0.132411 0.132761
0.178617 0.179103 0.178970
0.126082 0.126023 0.125655
0.093106 0.093311 0.093191
0.144137 0.144837 0.145030
0.142672 0.142507 0.143062
0.144828 0.144123 0.144906
0.142875 0.142472 0.139175
0.169659 0.169954 0.169864
0.170046 0.169395 0.168993
0.145824 0.146097 0.146074
0.131095 0.130438 0.129776
0.153565 0.154559 0.153539
0.125159 0.125145 0.125470
0.137573 0.137231 0.136461
0.099238 0.099293 0.097774
0.148348 0.148347 0.148421
0.143099 0.142686 0.141382
0.177318 0.175030 0.174041
0.168844 0.170742 0.170814
0.148261 0.147618 0.147017
0.161950 0.162411 0.164689
0.124748 0.125280 0.125457
0.153958 0.154372 0.154375
0.154056 0.156054 0.153958
0.169680 0.169454 0.169325
0.116267 0.116138 0.115986
0.141177 0.140660 0.138686
0.155506 0.156128 0.157516
0.142100 0.142612 0.142717
0.153375 0.156262 0.158977
0.143895 0.144786 0.144320
0.188998 0.188875 0.186210
0.155960 0.155849 0.153109
0.150269 0.143467 0.142221
0.144312 0.145095 0.146161
0.167357 0.167191 0.167053
0.154290 0.155019 0.154956
0.168937 0.169324 0.169063
0.192064 0.189304 0.190140
0.112838 0.112640 0.112609
0.164454 0.163987 0.163832
0.154566 0.154133 0.152839
0.151338 0.151259 0.150671
0.140659 0.140507 0.140641
0.127921 0.121759 0.118331
0.169386 0.160818 0.160561
0.143864 0.143279 0.143692
0.135608 0.136021 0.136231
0.172684 0.173277 0.173901
0.165554 0.168280 0.168846
0.176781 0.177361 0.177117
0.165769 0.165199 0.165359
0.180056 0.179624 0.171955
0.133002 0.132962 0.132335
0.198815 0.197917 0.196666
0.114171 0.113009 0.111557
0.154198 0.157267 0.154718
0.168316 0.167938 0.167275
0.124052 0.122840 0.123606
0.153261 0.152012 0.152217
0.128490 0.128058 0.127540
0.180635 0.180271 0.179703
0.083672 0.085175 0.086791
0.154756 0.155260 0.155644
0.123617 0.123072 0.124038
0.151475 0.151327 0.151722
0.137213 0.137428 0.136881
0.204674 0.204470 0.203422
0.114783 0.114840 0.115043
0.148899 0.148656 0.150830
0.210827 0.211372 0.211378
0.187616 0.188848 0.188226
0.179790 0.178887 0.178020
0.186954 0.187374 0.186454
0.205436 0.205686 0.205281
0.203244 0.203359 0.201930
0.149583 0.149709 0.148692
0.126055 0.126386 0.126817
0.112949 0.113387 0.112493
0.090345 0.088911 0.085834
0.179828 0.176085 0.175070
0.098242 0.098449 0.098432
0.158420 0.158023 0.156820
0.147497 0.147878 0.147880
0.101759 0.101049 0.102011
0.134151 0.134580 0.135515
0.116186 0.115122 0.115029
0.183326 0.183467 0.187156
0.143882 0.143843 0.143486
0.159405 0.162688 0.162190
0.108159 0.108575 0.108530
0.099533 0.099710 0.099536
0.172875 0.172846 0.172039
0.118648 0.117857 0.117404
0.159307 0.159842 0.160969
0.112822 0.112505 0.113036
0.179832 0.179557 0.179408
0.136645 0.136801 0.136950
0.162089 0.162450 0.161389
0.172547 0.173189 0.177841
0.154888 0.154577 0.153070
0.159635 0.159774 0.162005
0.204784 0.204961 0.204823
0.142623 0.142815 0.142495
0.094564 0.095482 0.095319
0.092218 0.088190 0.086802
0.176535 0.176326 0.176427
0.170129 0.169823 0.166083
0.137651 0.136486 0.135812
0.133362 0.133076 0.133228
0.140757 0.140568 0.143374
0.112573 0.112827 0.111365
0.149707 0.150123 0.150280
0.139686 0.141015 0.140432
0.152695 0.152527 0.151620
0.222560 0.221654 0.221618
0.155913 0.162912 0.168332
0.171330 0.170161 0.169959
0.110325 0.110096 0.110170
0.167487 0.167448 0.166474
0.184187 0.184849 0.184075
0.173381 0.172886 0.172959
0.170058 0.169645 0.170046
0.117773 0.117522 0.117371
0.154031 0.154136 0.152730
0.133576 0.131853 0.125298
0.155254 0.155785 0.155613
0.131677 0.129508 0.128729
0.149820 0.149757 0.150012
0.156242 0.155543 0.155442
0.138813 0.140675 0.143935
0.134536 0.135640 0.135838
0.160796 0.166147 0.167266
0.095123 0.095219 0.095525
0.145019 0.144826 0.144823
0.165247 0.163861 0.162702
0.156157 0.154691 0.154949
0.119832 0.119608 0.118918
0.148168 0.146766 0.150174
0.202419 0.202854 0.202895
0.156767 0.157113 0.157243
0.108138 0.108307 0.108720
0.176725 0.174817 0.173666
0.119134 0.119125 0.118914
0.141508 0.142806 0.146342
0.166919 0.167628 0.168842
0.179726 0.179630 0.179553
0.081980 0.081036 0.080686
0.146356 0.146959 0.147173
0.169391 0.169490 0.169399
0.164829 0.163876 0.163680
0.132022 0.132465 0.133725
0.160880 0.161075 0.161916
0.172520 0.173318 0.173429
0.146940 0.147591 0.148251
0.172846 0.172039 0.172355
0.133699 0.133781 0.136211
0.103914 0.102866 0.101742
0.177325 0.177180 0.176206
0.126887 0.126385 0.121855
0.102619 0.103409 0.100223
0.162723 0.165394 0.167061
0.222772 0.221649 0.221680
0.140345 0.140415 0.140371
0.144092 0.143585 0.142599
0.167456 0.168369 0.168555
0.169703 0.170419 0.168969
0.112061 0.112535 0.111873
0.163913 0.164252 0.165253
0.149727 0.149341 0.149339
0.183467 0.187156 0.187441
0.186371 0.185875 0.185692
0.209825 0.207635 0.206876
0.170131 0.169839 0.169980
0.172047 0.171951 0.172113
0.176573 0.176112 0.179827
0.173590 0.172950 0.173056
0.146333 0.145317 0.144390
0.127647 0.128114 0.129550
0.170832 0.170485 0.169889
0.125944 0.126994 0.127314
0.125921 0.125994 0.125652
0.142303 0.142041 0.139006
0.193755 0.190474 0.193698
0.172499 0.172864 0.173310
0.170942 0.170803 0.170421
0.108857 0.107901 0.107443
0.127093 0.126519 0.126467
0.114339 0.114325 0.114819
0.176903 0.177727 0.179414
0.108358 0.107628 0.107130
0.122272 0.122171 0.118863
0.168748 0.168723 0.168319
0.193113 0.192767 0.190394
0.088079 0.088346 0.089376
0.119708 0.120413 0.120975
0.110874 0.110979 0.111114
0.163750 0.163885 0.164030
0.153614 0.155531 0.156294
0.165610 0.167929 0.166907
0.108723 0.107695 0.107154
0.107795 0.109323 0.110423
0.127828 0.122093 0.121209
0.128720 0.128549 0.129482
0.167191 0.167053 0.167389
0.150580 0.150379 0.149894
0.166216 0.166904 0.167231
0.191504 0.191777 0.191445
0.123134 0.123701 0.124178
0.142953 0.142419 0.142661
0.116181 0.118069 0.118407
0.144458 0.144283 0.143972
0.114961 0.115904 0.116361
0.135532 0.136033 0.137200
0.100374 0.101606 0.102425
0.116811 0.115720 0.116139
0.159160 0.159552 0.158758
0.157863 0.159956 0.166737
0.173646 0.173897 0.174330
0.122480 0.121926 0.120633
0.138817 0.139299 0.140270
0.161266 0.159348 0.158541
0.130052 0.130241 0.130258
0.127450 0.126900 0.127182
0.155803 0.164787 0.174634
0.146963 0.146939 0.146251
0.105104 0.104020 0.102226
0.159255 0.159344 0.160191
0.134288 0.131588 0.131899
0.179635 0.178499 0.178223
0.117982 0.118057 0.117954
0.120474 0.120609 0.120771
0.144548 0.142914 0.141978
0.173850 0.174086 0.173902
0.133341 0.132801 0.133002
0.171938 0.171108 0.171383
0.144142 0.144709 0.146218
0.097804 0.097666 0.097415
0.123145 0.123232 0.123592
0.091312 0.091111 0.091158
0.152685 0.152523 0.153507
0.153605 0.156375 0.160872
0.169387 0.169937 0.170186
0.194719 0.196002 0.195981
0.152797 0.152503 0.154457
0.157509 0.158586 0.158949
0.151210 0.151334 0.151022
0.144001 0.141746 0.141954
0.175991 0.174910 0.175902
0.136891 0.136342 0.135336
0.102803 0.101338 0.100112
0.153943 0.156129 0.156479
0.159488 0.158890 0.155329
0.175135 0.175939 0.172770
0.142355 0.142326 0.142592
0.151960 0.152359 0.152001
0.135139 0.139161 0.140720
0.160025 0.160018 0.160176
0.159400 0.159683 0.158720
0.112454 0.112317 0.111389
0.151724 0.156269 0.156564
0.116965 0.117123 0.116482
0.145786 0.146347 0.146579
0.100620 0.098832 0.095955
0.155448 0.154410 0.152628
0.165510 0.163823 0.163913
0.157097 0.156895 0.156548
0.136809 0.137218 0.137623
0.145508 0.148971 0.149791
0.138405 0.139152 0.139474
0.142837 0.141668 0.141738
0.120816 0.120367 0.123096
0.112825 0.112948 0.113246
0.156683 0.153732 0.154898
0.149674 0.147518 0.147933
0.095086 0.095426 0.093163
0.129354 0.130328 0.131214
0.131322 0.129109 0.127002
0.112566 0.112922 0.112791
0.166647 0.166546 0.166467
0.115310 0.114854 0.114899
0.166984 0.166762 0.166846
0.181388 0.181594 0.184755
0.164719 0.164252 0.164215
0.139014 0.139975 0.145336
0.123052 0.123228 0.125292
0.173105 0.170879 0.170645
0.143712 0.144196 0.144765
0.154062 0.154394 0.154487
0.151314 0.150844 0.151687
0.164726 0.163826 0.163520
0.131693 0.131881 0.133088
0.100890 0.101368 0.102386
0.114935 0.112463 0.111241
0.157493 0.156878 0.156042
0.129214 0.128862 0.128631
0.091875 0.091918 0.091379
0.170349 0.169932 0.170790
0.125590 0.125709 0.126303
0.170625 0.171104 0.173035
0.167679 0.167775 0.167831
0.129070 0.128999 0.129781
0.124637 0.123866 0.123172
0.132104 0.132147 0.133057
0.182642 0.185170 0.185152
0.179227 0.179075 0.178934
0.146627 0.147156 0.147187
0.208268 0.207784 0.205934
0.157922 0.157481 0.159859
0.148973 0.148490 0.150523
0.182087 0.181609 0.180363
0.127286 0.129284 0.129250
0.160936 0.160485 0.163374
0.164331 0.163958 0.163877
0.144611 0.145146 0.146145
0.145907 0.146153 0.146494
0.167696 0.167983 0.168598
0.136707 0.136658 0.136065
0.134291 0.137102 0.137516
0.132761 0.131986 0.130890
0.178773 0.178838 0.178745
0.168078 0.167714 0.166973
0.186289 0.186784 0.186257
0.129558 0.129370 0.128688
0.189039 0.189763 0.188868
0.168408 0.168647 0.168955
0.167224 0.167451 0.166751
0.171494 0.171955 0.171900
0.113804 0.113955 0.113786
0.142836 0.144090 0.144364
0.153612 0.153274 0.152990
0.147519 0.143735 0.143229
0.120144 0.120522 0.119965
0.084100 0.084257 0.084601
0.180247 0.179293 0.178849
0.161032 0.160858 0.159708
0.177648 0.178488 0.177948
0.170302 0.170261 0.169019
0.184698 0.186479 0.186918
0.121000 0.119945 0.120330
0.106023 0.105239 0.104206
0.122021 0.119383 0.119319
0.207756 0.207019 0.206114
0.126216 0.125224 0.126061
0.153897 0.154003 0.155069
0.128515 0.126001 0.125921
0.151369 0.154775 0.156054
0.152293 0.147489 0.145694
0.151335 0.149432 0.148332
0.150006 0.149663 0.148884
0.100203 0.099591 0.098630
0.170871 0.170012 0.169590
0.172710 0.174761 0.178854
0.181637 0.182136 0.185430
0.117404 0.117612 0.117520
0.143864 0.144057 0.145133
0.127866 0.128542 0.126416
0.170696 0.167136 0.167208
0.162347 0.162531 0.161973
0.194938 0.195355 0.195262
0.115903 0.116048 0.115607
0.174705 0.174739 0.175413
0.166695 0.168087 0.168929
0.184654 0.184489 0.184867
0.127156 0.127222 0.127218
0.169072 0.169779 0.168052
0.128519 0.128687 0.128493
0.154654 0.154277 0.154605
0.091313 0.091356 0.090939
0.148166 0.149282 0.159734
0.151086 0.151444 0.152242
0.136235 0.135854 0.135109
0.129437 0.131559 0.132150
0.131110 0.128416 0.127265
0.119928 0.121127 0.121062
0.170493 0.170941 0.169763
0.157888 0.157139 0.156957
0.139590 0.139414 0.139378
0.170632 0.170907 0.170567
0.105403 0.104975 0.105066
0.169483 0.167910 0.160456
0.158735 0.158470 0.157708
0.160404 0.160291 0.160796
0.122590 0.122786 0.123727
0.137046 0.138172 0.138837
0.160724 0.159627 0.158951
0.134195 0.134576 0.134925
0.161936 0.161266 0.160748
0.171738 0.170500 0.164608
0.160165 0.161538 0.161371
0.165151 0.164361 0.167694
0.084540 0.083896 0.083523
0.148722 0.149266 0.147689
0.145700 0.144621 0.143960
0.122626 0.122313 0.121974
0.147026 0.147012 0.148162
0.121488 0.122824 0.121742
0.129091 0.126410 0.126225
0.159882 0.160252 0.165178
0.114790 0.116770 0.116676
0.178307 0.179149 0.179792
0.170229 0.171329 0.174540
0.125713 0.121180 0.126402
0.160920 0.161635 0.162322
0.157296 0.157460 0.157121
0.135886 0.135735 0.135658
0.109238 0.108160 0.108059
0.143213 0.145484 0.146093
0.148980 0.147780 0.145931
0.111213 0.111104 0.113867
0.129535 0.131437 0.131922
0.127895 0.127695 0.128056
0.139996 0.140001 0.139288
0.149785 0.149707 0.150123
0.178925 0.178960 0.179712
0.167053 0.167389 0.166802
0.120269 0.119420 0.120766
0.150298 0.150006 0.149404
0.168267 0.167212 0.167761
0.167234 0.167371 0.169097
0.157631 0.158140 0.158545
0.153391 0.155893 0.155083
0.158557 0.157890 0.157526
0.122441 0.122577 0.123517
0.162946 0.163429 0.166687
0.151858 0.151597 0.151823
0.169833 0.170358 0.169975
0.138108 0.138754 0.135651
