0.204890 0.204520 0.204635
0.183666 0.184750 0.186778
0.209319 0.209141 0.208764
0.175542 0.174789 0.171404
0.214417 0.214289 0.213688
0.184716 0.185995 0.185860
0.255885 0.256395 0.256143
0.199772 0.200312 0.201783
0.186388 0.183218 0.183688
0.222711 0.222641 0.224168
0.183077 0.181992 0.183688
0.181620 0.181506 0.180717
0.147509 0.146553 0.145444
0.147609 0.149015 0.151820
0.177798 0.175370 0.173965
0.170657 0.170408 0.170654
0.288675 0.287710 0.287186
0.136139 0.136314 0.136598
0.218181 0.217891 0.216405
0.179099 0.182207 0.181979
0.196847 0.195944 0.193629
0.156965 0.157007 0.156506
0.178378 0.178924 0.179332
0.145668 0.142803 0.143019
0.191897 0.192387 0.194973
0.183245 0.184552 0.184717
0.183828 0.182583 0.182171
0.207118 0.208030 0.209707
0.136636 0.134434 0.135183
0.161484 0.159732 0.159819
0.184474 0.182670 0.186381
0.204081 0.202300 0.200903
0.184019 0.183347 0.183557
0.259677 0.260821 0.262013
0.189800 0.188815 0.187183
0.167638 0.166971 0.167645
0.201510 0.200833 0.200860
0.144582 0.145457 0.145670
0.146653 0.147063 0.142468
0.181890 0.181532 0.181620
0.184021 0.185206 0.189669
0.192990 0.194609 0.198226
0.134116 0.136833 0.137831
0.203924 0.202250 0.201987
0.134589 0.133854 0.133293
0.171000 0.172799 0.173489
0.183048 0.181669 0.180336
0.213250 0.215049 0.214388
0.172910 0.172672 0.173101
0.189010 0.194063 0.193226
0.178658 0.179509 0.181673
0.177629 0.177132 0.177666
0.197065 0.196257 0.196358
0.168763 0.166533 0.165920
0.189874 0.190667 0.191197
0.211420 0.210657 0.209478
0.182524 0.184999 0.185805
0.162866 0.162200 0.162264
0.216835 0.217561 0.218687
0.210039 0.209600 0.209233
0.187170 0.186556 0.185805
0.207435 0.204354 0.203219
0.179707 0.181143 0.192472
0.217293 0.217582 0.218748
0.212877 0.212672 0.213261
0.313224 0.314289 0.315891
0.192216 0.190118 0.191950
0.167651 0.167079 0.166322
0.201568 0.203379 0.203197
0.202347 0.205798 0.207201
0.185176 0.185630 0.186837
0.128737 0.128582 0.129002
0.169840 0.170205 0.169348
0.206600 0.206921 0.205117
0.152789 0.154741 0.155190
0.164761 0.164914 0.164121
0.227299 0.227678 0.228080
0.189173 0.189641 0.189466
0.217009 0.218096 0.218314
0.199596 0.196185 0.195244
0.298816 0.299425 0.300016
0.245150 0.244569 0.245263
0.211333 0.214617 0.216789
0.224051 0.226678 0.227712
0.182747 0.182393 0.182002
0.189231 0.190968 0.192446
0.146042 0.146338 0.146737
0.146306 0.146947 0.146161
0.183174 0.184474 0.182670
0.181705 0.181565 0.182134
0.204674 0.204415 0.203816
0.182792 0.184120 0.185596
0.179979 0.178123 0.178991
0.210545 0.213652 0.214068
0.146162 0.145800 0.145711
0.183741 0.184712 0.184194
0.164472 0.164919 0.165027
0.205118 0.206034 0.208212
0.138809 0.138843 0.138398
0.180496 0.180158 0.179823
0.181783 0.182317 0.181745
0.173984 0.174402 0.173574
0.189446 0.190183 0.190734
0.184346 0.184126 0.183279
0.192731 0.192663 0.193206
0.198639 0.198770 0.200414
0.158965 0.158663 0.161175
0.141239 0.140475 0.140907
0.182495 0.183121 0.184103
0.154627 0.156122 0.155684
0.169521 0.170150 0.169375
0.138766 0.138972 0.139215
0.184665 0.184598 0.184226
0.112447 0.112810 0.111037
0.182290 0.183085 0.184479
0.182590 0.183281 0.183462
0.188898 0.189019 0.186968
0.178503 0.178959 0.178874
0.131192 0.132985 0.134881
0.175783 0.175793 0.176908
0.194087 0.194225 0.195195
0.131596 0.131241 0.131255
0.134669 0.134841 0.134744
0.179299 0.179922 0.180165
0.112657 0.114160 0.113939
0.168040 0.166737 0.164380
0.179427 0.181761 0.181612
0.182664 0.181889 0.182758
0.177605 0.177493 0.178196
0.238405 0.239826 0.240259
0.163500 0.163228 0.160326
0.177916 0.178247 0.180993
0.183542 0.184362 0.182859
0.205685 0.198713 0.194553
0.179148 0.178887 0.179866
0.177972 0.180136 0.181442
0.172372 0.172332 0.170913
0.186776 0.185889 0.186988
0.176378 0.174762 0.174415
0.204959 0.204099 0.202638
0.177319 0.176626 0.176935
0.176572 0.179628 0.179480
0.237996 0.237148 0.235534
0.199220 0.199887 0.200351
0.194267 0.195289 0.195461
0.123116 0.122920 0.123050
0.190047 0.190528 0.190086
0.166261 0.166128 0.166357
0.195630 0.193871 0.193223
0.187698 0.185191 0.184567
0.173021 0.173295 0.173503
0.268791 0.269637 0.270974
0.161832 0.161842 0.162691
0.244755 0.244892 0.246794
0.131549 0.130178 0.128911
0.131165 0.131133 0.131884
0.221823 0.220794 0.223061
0.166098 0.166718 0.167746
0.302807 0.303321 0.302679
0.182985 0.183001 0.180262
0.160909 0.161083 0.160491
0.229043 0.231184 0.231250
0.207911 0.207509 0.207769
0.242042 0.242217 0.242139
0.181845 0.182885 0.182166
0.152487 0.152162 0.151870
0.181341 0.180542 0.180597
0.178055 0.177244 0.177321
0.210468 0.211295 0.211418
0.200993 0.201602 0.203083
0.202469 0.202446 0.202544
0.184754 0.186944 0.188011
0.273142 0.276524 0.287492
0.156322 0.156200 0.158534
0.195613 0.193114 0.192017
0.171394 0.172016 0.171763
0.182369 0.181898 0.182049
0.189447 0.189703 0.191827
0.183212 0.183963 0.183916
0.152914 0.154266 0.155887
0.184361 0.184903 0.184305
0.169225 0.170130 0.170419
0.170488 0.170166 0.170035
0.194611 0.195184 0.195233
0.151919 0.151868 0.151966
0.207274 0.208657 0.211055
0.182987 0.182938 0.180399
0.198770 0.200414 0.200695
0.236753 0.237919 0.238402
0.175668 0.172697 0.175384
0.193831 0.193697 0.193679
0.201383 0.204427 0.206243
0.222581 0.220777 0.220283
0.208512 0.209773 0.210707
0.188939 0.189233 0.188859
0.171604 0.173095 0.171543
0.134953 0.134883 0.135664
0.167809 0.166780 0.166567
0.161637 0.159366 0.155710
0.164753 0.162538 0.161947
0.167898 0.167080 0.167189
0.195692 0.194160 0.188591
0.191500 0.190983 0.192422
0.179136 0.179322 0.179844
0.218482 0.217932 0.217118
0.182031 0.181315 0.180882
0.261081 0.259844 0.259461
0.144072 0.144272 0.144062
0.179863 0.179642 0.179416
0.190132 0.185093 0.188099
0.196397 0.198301 0.197739
0.138179 0.139145 0.140950
0.246925 0.247323 0.248480
0.153141 0.154447 0.155760
0.191997 0.191153 0.189354
0.183179 0.182070 0.180880
0.176964 0.177984 0.176603
0.173583 0.173276 0.173860
0.133952 0.133263 0.133159
0.182029 0.182827 0.183153
0.194188 0.194126 0.193711
0.198476 0.202259 0.202684
0.186843 0.186480 0.185769
0.198408 0.198455 0.199637
0.170272 0.168445 0.166681
0.219624 0.219609 0.220037
0.150752 0.149549 0.150190
0.171524 0.171497 0.171290
0.184929 0.185098 0.187342
0.209581 0.210983 0.211388
0.235198 0.238053 0.240002
0.244618 0.244879 0.243161
0.241826 0.242625 0.243710
0.124701 0.125030 0.125061
0.177911 0.177950 0.176553
0.173525 0.173484 0.175345
0.175229 0.176298 0.177527
0.162895 0.162281 0.163235
0.182872 0.184165 0.185159
0.237135 0.238800 0.240901
0.192634 0.193226 0.193507
0.133223 0.133135 0.132660
0.202693 0.205718 0.207947
0.179320 0.177403 0.174733
0.184114 0.183306 0.182892
0.131864 0.131805 0.132087
0.125090 0.124740 0.125327
0.124889 0.123611 0.123259
0.165733 0.167850 0.171345
0.176578 0.176063 0.175904
0.172855 0.170725 0.169483
0.183078 0.184158 0.184375
0.124370 0.123321 0.124367
0.162774 0.162556 0.162237
0.156594 0.157178 0.159379
0.163908 0.163940 0.166461
0.219569 0.218620 0.217940
0.181513 0.181747 0.182135
0.126945 0.126541 0.128349
0.197149 0.195371 0.195093
0.179012 0.178853 0.180886
0.239080 0.242363 0.241162
0.229794 0.229625 0.229449
0.203487 0.203239 0.203602
0.184449 0.184664 0.184628
0.202810 0.203080 0.203894
0.220842 0.216884 0.216150
0.216572 0.216922 0.219183
0.180528 0.183218 0.183058
0.162126 0.162179 0.162192
0.149621 0.146625 0.146256
0.206710 0.206579 0.208237
0.190053 0.189600 0.189980
0.145465 0.145733 0.145381
0.247491 0.249053 0.248219
0.171909 0.172008 0.170471
0.220749 0.226289 0.228890
0.201308 0.201837 0.203462
0.136978 0.138194 0.138899
0.208788 0.208029 0.208969
0.184823 0.185036 0.184998
0.161733 0.159618 0.156093
0.180931 0.182094 0.179779
0.201145 0.205681 0.210382
0.184370 0.185554 0.185337
0.265246 0.264429 0.263869
0.245984 0.244281 0.244680
0.183359 0.186235 0.185590
0.231019 0.229823 0.233005
0.184559 0.183991 0.183699
0.136291 0.136589 0.134750
0.169847 0.170242 0.170965
0.153646 0.153764 0.154981
0.241886 0.241925 0.241540
0.171110 0.170532 0.171455
0.137937 0.138201 0.136320
0.164564 0.163836 0.167541
0.112413 0.111543 0.112211
0.183582 0.183142 0.182743
0.224446 0.223607 0.222801
0.157807 0.158619 0.158316
0.237071 0.236653 0.235551
0.172703 0.172801 0.172401
0.230372 0.228731 0.229431
0.221338 0.222293 0.222648
0.169902 0.169813 0.169964
0.265460 0.268050 0.267298
0.209888 0.209654 0.210470
0.198754 0.200377 0.200037
0.202932 0.202840 0.203971
0.303684 0.304508 0.305158
0.228217 0.228968 0.229292
0.203032 0.203539 0.204854
0.138015 0.138376 0.139614
0.169751 0.168013 0.166553
0.124590 0.125520 0.124031
0.191019 0.192771 0.194486
0.188078 0.189272 0.193622
0.114135 0.113889 0.113999
0.194931 0.195886 0.196278
0.247791 0.247748 0.247814
0.188912 0.186798 0.187062
0.201212 0.197953 0.189667
0.179976 0.181038 0.180792
0.231829 0.231233 0.229091
0.202597 0.200635 0.198350
0.170113 0.174628 0.174862
0.209547 0.210964 0.213276
0.131933 0.132651 0.134824
0.168722 0.170192 0.169551
0.130526 0.132168 0.129928
0.146218 0.145085 0.145354
0.208958 0.210157 0.211418
0.201692 0.201517 0.202113
0.120873 0.123335 0.125748
0.184499 0.184287 0.184353
0.205359 0.204783 0.204890
0.182075 0.179852 0.177446
0.216513 0.218790 0.217783
0.234899 0.231773 0.232202
0.145398 0.144786 0.144308
0.144117 0.140990 0.139426
0.177000 0.177941 0.177674
0.140476 0.141776 0.142748
0.218131 0.217527 0.216568
0.177149 0.177383 0.178456
0.180052 0.181518 0.180816
0.190611 0.188359 0.186961
0.120771 0.123358 0.124789
0.189159 0.188379 0.189073
0.200168 0.199884 0.197800
0.137994 0.137437 0.138079
0.182531 0.182274 0.182271
0.185265 0.186661 0.185374
0.246971 0.244516 0.245115
0.141021 0.141105 0.140659
0.188919 0.188114 0.188858
0.144561 0.142293 0.141493
0.210060 0.210205 0.209208
0.210126 0.211627 0.212751
0.184900 0.184971 0.184330
0.206226 0.207094 0.206896
0.124607 0.124889 0.123611
0.172368 0.172063 0.171858
0.208908 0.209427 0.207463
0.222401 0.223110 0.223043
0.127899 0.128094 0.128557
0.224018 0.226480 0.229347
0.191609 0.192137 0.193543
0.224300 0.227194 0.230654
0.176285 0.177347 0.178566
0.250039 0.251315 0.252686
0.175957 0.178163 0.177943
0.237201 0.237504 0.236881
0.229373 0.229916 0.228482
0.177425 0.177716 0.180029
0.217449 0.217479 0.214434
0.164281 0.164090 0.162212
0.164599 0.165468 0.164479
0.260990 0.262482 0.263343
0.173192 0.171696 0.171865
0.272651 0.280383 0.286400
0.165439 0.171050 0.171688
0.192990 0.194947 0.194548
0.170475 0.169412 0.169537
0.247814 0.247394 0.245775
0.159789 0.161812 0.159997
0.311748 0.311718 0.311796
0.226678 0.227712 0.227822
0.207617 0.207341 0.206451
0.177911 0.177231 0.176751
0.207346 0.207682 0.208635
0.225194 0.227024 0.227596
0.186977 0.187058 0.187134
0.198855 0.198995 0.198939
0.174625 0.173866 0.173202
0.157326 0.156031 0.156194
0.180262 0.178426 0.176821
0.182124 0.182913 0.181841
0.178767 0.177681 0.178929
0.170936 0.170757 0.170376
0.134698 0.136547 0.137589
0.251475 0.251817 0.251999
0.178744 0.180358 0.180006
0.134033 0.134461 0.134214
0.224273 0.224799 0.224035
0.188750 0.188787 0.188735
0.228335 0.228202 0.228654
0.313141 0.313266 0.313897
0.212657 0.213633 0.214595
0.135678 0.134045 0.134458
0.186425 0.186340 0.184425
0.210387 0.213077 0.212328
0.164316 0.164169 0.163262
0.204017 0.199960 0.200266
0.170444 0.169613 0.169974
0.172142 0.171663 0.171403
0.212267 0.212372 0.212725
0.198871 0.198715 0.199314
0.137495 0.136685 0.136904
0.244394 0.244344 0.244449
0.162377 0.163207 0.162950
0.165692 0.165881 0.166187
0.192983 0.191722 0.191862
0.161210 0.161117 0.160572
0.137530 0.137484 0.135302
0.157576 0.157410 0.158665
0.190031 0.189065 0.190115
0.224920 0.225290 0.223418
0.139891 0.140351 0.137619
0.193970 0.203201 0.206280
0.127249 0.126330 0.127837
0.152154 0.151919 0.151868
0.208908 0.209159 0.208853
0.169980 0.169283 0.169831
0.162417 0.162583 0.162170
0.183958 0.184093 0.184128
0.250580 0.249794 0.251249
0.201824 0.200675 0.200971
0.168368 0.169521 0.168896
0.177631 0.176660 0.175929
0.135441 0.133887 0.133746
0.190359 0.189624 0.189601
0.161742 0.162151 0.161378
0.149955 0.149646 0.150514
0.214182 0.213720 0.214779
0.245673 0.243513 0.242042
0.163241 0.163267 0.162420
0.166618 0.167418 0.167427
0.157928 0.156457 0.155644
0.187586 0.188165 0.188278
0.239264 0.237841 0.237498
0.187201 0.187471 0.188897
0.207144 0.205857 0.204179
0.196522 0.196461 0.196372
0.198719 0.197650 0.197573
0.135373 0.134441 0.134842
0.179191 0.179370 0.180089
0.138295 0.137931 0.137919
0.247299 0.249939 0.251930
0.195038 0.191537 0.189920
0.198085 0.197046 0.196353
0.156767 0.155197 0.153001
0.260917 0.261362 0.261906
0.162608 0.162195 0.163048
0.217689 0.218295 0.218437
0.124250 0.124096 0.125137
0.208575 0.209176 0.208570
0.168530 0.170142 0.169082
0.187100 0.186813 0.186998
0.156170 0.155776 0.153806
0.213077 0.212328 0.212864
0.207947 0.207996 0.206513
0.171727 0.172959 0.173076
0.186945 0.188565 0.181748
0.183147 0.184224 0.186295
0.179306 0.178943 0.180250
0.185677 0.184481 0.184287
0.168758 0.169571 0.169886
0.190892 0.192425 0.193439
0.137497 0.138707 0.139676
0.212436 0.212104 0.212759
0.182448 0.181725 0.180837
0.259526 0.259539 0.259930
0.197301 0.197246 0.201326
0.236006 0.235649 0.235765
0.166327 0.165663 0.165564
0.135957 0.135571 0.134358
0.227779 0.227846 0.228118
0.191511 0.194794 0.193981
0.224008 0.225407 0.224380
0.223253 0.219262 0.211463
0.127677 0.128936 0.128891
0.137072 0.137548 0.135932
0.173845 0.172930 0.172584
0.168625 0.167908 0.167985
0.203967 0.202448 0.202731
0.200416 0.201043 0.200993
0.275697 0.276294 0.277052
0.134367 0.134580 0.134990
0.122586 0.122972 0.123835
0.178671 0.178689 0.181083
0.170154 0.170535 0.170945
0.160796 0.160513 0.159916
0.159197 0.158188 0.158384
0.139491 0.138982 0.137700
0.135295 0.135706 0.135352
0.207211 0.206464 0.205336
0.141711 0.143641 0.142655
0.128888 0.130133 0.131849
0.186910 0.188333 0.189077
0.156566 0.156684 0.155866
0.164415 0.164003 0.162355
0.183649 0.183501 0.183633
0.162146 0.163000 0.162286
0.197023 0.196451 0.196892
0.188684 0.188844 0.188205
0.194302 0.192724 0.192394
0.134659 0.132964 0.133047
0.169940 0.170239 0.172089
0.137359 0.138787 0.141404
0.126541 0.128349 0.126882
0.154557 0.153916 0.152301
0.165620 0.165990 0.166072
0.226170 0.225668 0.224863
0.186630 0.184435 0.185632
0.149837 0.147471 0.145755
0.164461 0.164943 0.165679
0.239340 0.238705 0.237790
0.176505 0.177551 0.177474
0.182551 0.182737 0.182907
0.176374 0.176187 0.176385
0.202938 0.205508 0.205410
0.286551 0.285481 0.284229
0.196835 0.191478 0.190454
0.202985 0.202075 0.199652
0.210118 0.211624 0.214743
0.208086 0.207481 0.206797
0.211071 0.209764 0.209113
0.156481 0.154809 0.152255
0.188766 0.188319 0.189459
0.212662 0.212405 0.212830
0.198080 0.196906 0.196259
0.134536 0.133494 0.133183
0.219088 0.218354 0.218087
0.177434 0.177544 0.177400
0.227712 0.227822 0.228333
0.203466 0.202413 0.199592
0.133065 0.132823 0.132944
0.218706 0.219778 0.218619
0.201888 0.202893 0.203023
0.234632 0.234225 0.234239
0.196968 0.196099 0.197647
0.182167 0.182084 0.183730
0.143094 0.141605 0.141090
0.153742 0.153324 0.152839
0.195288 0.198979 0.198594
0.132730 0.132367 0.132148
0.181118 0.180303 0.177781
0.193343 0.192784 0.192386
0.167589 0.167431 0.166145
0.192621 0.191975 0.191006
0.224032 0.225351 0.226740
0.139741 0.139952 0.140239
0.159300 0.159173 0.161621
0.174631 0.174036 0.173845
0.180038 0.179526 0.177748
0.181383 0.182343 0.182661
0.182553 0.181553 0.181839
0.139129 0.137095 0.138610
0.221109 0.219386 0.217325
0.217775 0.222035 0.222765
0.182135 0.182822 0.182974
0.192460 0.192685 0.195418
0.190681 0.190656 0.189271
0.186043 0.185108 0.182472
0.216195 0.212598 0.210289
0.216486 0.216675 0.218255
0.185397 0.185758 0.185899
0.208030 0.209707 0.209656
0.134659 0.135559 0.137575
0.184237 0.186673 0.189743
0.220525 0.218722 0.218515
0.136401 0.135194 0.137758
0.168166 0.169338 0.169833
0.134038 0.134536 0.133494
0.214317 0.209894 0.207532
0.167562 0.167425 0.167352
0.205014 0.205119 0.206962
0.164537 0.164243 0.166606
0.217845 0.217601 0.218152
0.137403 0.136561 0.136780
0.205294 0.203261 0.203643
0.231427 0.232492 0.232123
0.180772 0.180681 0.179330
0.226181 0.227052 0.227982
0.204368 0.206185 0.208056
0.132778 0.132626 0.133968
0.167599 0.166875 0.166481
0.204193 0.204746 0.201558
0.195464 0.197612 0.197871
0.179774 0.179151 0.179700
0.151173 0.151792 0.151183
0.174779 0.174504 0.173794
0.136448 0.134391 0.131720
0.196286 0.199497 0.206822
0.151569 0.152577 0.152567
0.127229 0.128670 0.129658
0.142166 0.140464 0.139033
0.311439 0.311032 0.311225
0.197959 0.204295 0.209064
0.199839 0.197466 0.195302
0.186310 0.186157 0.184939
0.217862 0.220344 0.221499
0.171462 0.171249 0.171038
0.311454 0.311097 0.311329
0.146957 0.145957 0.145733
0.181616 0.181720 0.180477
0.138610 0.140315 0.140738
0.263304 0.261418 0.260398
0.217748 0.217610 0.216048
0.195900 0.189701 0.187650
0.168372 0.168044 0.166769
0.233754 0.233184 0.233727
0.187065 0.185189 0.183886
0.187385 0.186011 0.184170
0.259671 0.258533 0.257821
0.232739 0.232231 0.235454
0.251024 0.250369 0.251381
0.183722 0.182822 0.183227
0.194461 0.190888 0.190301
0.207928 0.206525 0.204595
0.190361 0.189869 0.189433
0.177446 0.177332 0.177427
0.188465 0.188906 0.187070
0.207812 0.208891 0.209318
0.156279 0.155705 0.154941
0.135146 0.135059 0.135177
0.185518 0.184388 0.183134
0.174811 0.174076 0.172018
0.195940 0.196259 0.196888
0.212173 0.212022 0.210584
0.158052 0.162887 0.165454
0.195454 0.197047 0.197114
0.153849 0.154663 0.155727
0.202527 0.202607 0.203583
0.218319 0.218728 0.219266
0.165594 0.165163 0.164796
0.214526 0.214438 0.214544
0.148768 0.148849 0.148562
0.161791 0.162264 0.162817
0.192406 0.190579 0.189768
0.185305 0.185451 0.185297
0.187050 0.186679 0.186519
0.185575 0.182675 0.182043
0.256071 0.259643 0.259734
0.190418 0.189366 0.189071
0.223103 0.222369 0.224300
0.249664 0.248163 0.248819
0.250274 0.249459 0.247998
0.136586 0.139365 0.138490
0.204074 0.203888 0.202928
0.183530 0.180395 0.176317
0.164101 0.164451 0.166412
0.165322 0.166749 0.166896
0.160674 0.160167 0.160247
0.196354 0.196360 0.195290
0.200348 0.199405 0.200817
0.131190 0.131246 0.131753
0.190205 0.190145 0.189985
0.203180 0.202010 0.202407
0.155314 0.155013 0.153227
0.237741 0.238275 0.239516
0.144953 0.144523 0.143952
0.134111 0.132169 0.131288
0.236702 0.231134 0.227111
0.193107 0.193496 0.194045
0.229328 0.227509 0.225578
0.228190 0.228441 0.228839
0.192354 0.196393 0.198405
0.137783 0.137456 0.135171
0.201798 0.200416 0.201043
0.205844 0.206292 0.205956
0.199834 0.199851 0.200708
0.249976 0.251511 0.252407
0.199037 0.196094 0.196586
0.138179 0.138598 0.139183
0.179922 0.179095 0.181299
0.262671 0.260384 0.248904
0.196262 0.196787 0.193162
0.152875 0.152006 0.151971
0.232521 0.232207 0.231396
0.131463 0.129304 0.129055
0.195641 0.195862 0.195861
0.179082 0.179512 0.181903
0.225671 0.224167 0.221291
0.209330 0.205466 0.206264
0.245975 0.247604 0.247739
0.250863 0.251295 0.247029
0.212798 0.212425 0.211100
0.178327 0.178486 0.176815
0.178692 0.180890 0.181434
0.199382 0.198150 0.198025
0.207366 0.206554 0.206585
0.187985 0.187767 0.187623
0.186390 0.182847 0.178230
0.206585 0.207215 0.207479
0.228518 0.229614 0.230563
0.251885 0.249332 0.249477
0.208555 0.209590 0.208908
0.174037 0.174898 0.173698
0.142171 0.142615 0.140960
0.158228 0.157076 0.155836
0.130134 0.130297 0.130175
0.166105 0.166012 0.165565
0.195027 0.196122 0.197014
0.203553 0.203459 0.204026
0.171178 0.173384 0.172847
0.205221 0.202908 0.202672
0.194346 0.192988 0.192345
0.195098 0.198045 0.197506
0.288539 0.287815 0.286944
0.151072 0.151028 0.150997
0.172909 0.173287 0.172069
0.168491 0.168419 0.169222
0.319620 0.317129 0.316849
0.201658 0.200736 0.201197
0.207302 0.208731 0.208346
0.218770 0.217637 0.217021
0.135191 0.133624 0.135240
0.230221 0.232499 0.233026
0.213968 0.213141 0.212287
0.161477 0.163834 0.161879
0.203028 0.204917 0.207128
0.317011 0.317220 0.317702
0.200374 0.200113 0.201592
0.206894 0.208199 0.208587
0.194703 0.194990 0.194874
0.318689 0.319685 0.320505
0.172412 0.172299 0.171974
0.205289 0.205324 0.202609
0.228830 0.230513 0.231336
0.167260 0.168226 0.168659
0.211116 0.210321 0.209820
0.178670 0.181345 0.179409
0.227785 0.221275 0.222121
0.189154 0.189577 0.189434
0.200023 0.198680 0.195100
0.179053 0.179101 0.177944
0.128204 0.128288 0.129161
0.189730 0.189342 0.188852
0.237618 0.238216 0.239113
0.126722 0.126471 0.128412
0.126983 0.126401 0.125600
0.195833 0.196353 0.195587
0.176083 0.175733 0.174301
0.157727 0.158852 0.158100
0.157887 0.158670 0.158587
0.254798 0.258293 0.259787
0.164974 0.160285 0.162258
0.200568 0.202789 0.211920
0.174545 0.172814 0.171617
0.145069 0.144970 0.144718
0.195705 0.195229 0.195124
0.185723 0.186463 0.187001
0.199865 0.199823 0.198041
0.162303 0.161175 0.161263
0.181303 0.182638 0.183627
0.172948 0.175120 0.178969
0.181727 0.182352 0.182760
0.198033 0.200677 0.200095
0.205445 0.206859 0.209077
0.201437 0.200922 0.200969
0.197256 0.197142 0.197479
0.195649 0.198577 0.198332
0.192705 0.192708 0.193255
0.214559 0.214708 0.215086
0.212860 0.214958 0.214966
0.138120 0.137824 0.137495
0.211677 0.212040 0.214515
0.156863 0.157027 0.159130
0.181027 0.181150 0.180992
0.190160 0.188972 0.188521
0.185910 0.184896 0.182510
0.188816 0.189874 0.190667
0.198362 0.201128 0.200915
0.166953 0.166706 0.166111
0.160433 0.160132 0.158324
0.163278 0.163627 0.163452
0.218390 0.216600 0.216665
0.159535 0.160003 0.162257
0.252407 0.256102 0.256528
0.186788 0.189675 0.190300
0.175427 0.174575 0.173149
0.158320 0.158271 0.159399
0.190035 0.189641 0.189740
0.181844 0.181703 0.180380
0.216534 0.216155 0.219752
0.191864 0.190993 0.190796
0.223915 0.223075 0.224186
0.234750 0.235297 0.236618
0.216591 0.216639 0.217554
0.189743 0.190565 0.188800
0.142258 0.145788 0.146550
0.143081 0.143374 0.143357
0.131579 0.131010 0.130143
0.158741 0.158142 0.157977
0.274206 0.274853 0.275017
0.195261 0.195821 0.198018
0.162241 0.162284 0.159473
0.217421 0.218084 0.217665
0.211596 0.214018 0.214507
0.135864 0.138751 0.139157
0.221754 0.221172 0.221390
0.200280 0.200046 0.199313
0.204542 0.206349 0.208538
0.181789 0.182199 0.182034
0.252072 0.255161 0.256003
0.168569 0.168850 0.168070
0.195145 0.194669 0.193717
0.197385 0.199082 0.199812
0.179276 0.179273 0.178845
0.239460 0.238751 0.241659
0.242750 0.242211 0.242146
0.132763 0.133300 0.133342
0.195551 0.195243 0.193520
0.205256 0.202881 0.201421
0.171147 0.169943 0.168428
0.176981 0.178169 0.176092
0.134146 0.134732 0.134599
0.179045 0.177916 0.178247
0.156896 0.156317 0.155304
0.195971 0.195398 0.198134
0.148754 0.148743 0.147963
0.185043 0.185140 0.184012
0.170230 0.169870 0.169721
0.200231 0.199620 0.199938
0.169555 0.168645 0.168085
0.148656 0.148681 0.148569
0.217679 0.211560 0.207891
0.202371 0.203285 0.204814
0.193520 0.192959 0.194703
0.259017 0.259417 0.259741
0.219354 0.223532 0.229028
0.209378 0.207797 0.206622
0.210600 0.211004 0.210326
0.169388 0.168370 0.169285
0.165949 0.166127 0.166122
0.167895 0.167180 0.167705
0.205090 0.203044 0.202993
0.236457 0.238447 0.240346
0.123273 0.123355 0.126420
0.158544 0.159039 0.157895
0.182626 0.180862 0.181847
0.145658 0.146013 0.148160
0.137248 0.137412 0.136333
0.186584 0.187133 0.186537
0.175197 0.174121 0.170538
0.241659 0.243192 0.243398
0.185305 0.185822 0.186887
0.183699 0.184714 0.185266
0.179256 0.179245 0.178887
0.170849 0.171288 0.172506
0.184250 0.182290 0.180212
0.162895 0.163908 0.163940
0.200213 0.198299 0.198181
0.200312 0.201783 0.201489
0.168052 0.166075 0.164143
0.154809 0.152255 0.152474
0.198272 0.198186 0.198362
0.190741 0.189348 0.186425
0.195667 0.196380 0.195252
0.185038 0.185046 0.183525
0.171117 0.172397 0.173146
0.166385 0.166292 0.165696
0.187800 0.189957 0.190696
0.242998 0.240246 0.235772
0.184748 0.185088 0.185620
0.191636 0.194773 0.195617
0.211150 0.210819 0.211196
0.182637 0.183769 0.186066
0.209752 0.205469 0.205504
0.198331 0.199928 0.200713
0.157599 0.159497 0.159772
0.130800 0.129526 0.129027
0.194193 0.193522 0.192493
0.182261 0.182787 0.183088
0.223058 0.223364 0.223881
0.155024 0.154184 0.153980
0.201588 0.200023 0.198680
0.182200 0.185331 0.184705
0.139368 0.138798 0.139942
0.162163 0.162252 0.160916
0.199852 0.199544 0.199538
0.174642 0.172760 0.179099
0.134614 0.134369 0.134525
0.177387 0.177405 0.176996
0.174861 0.173547 0.178054
0.132899 0.131890 0.131829
0.142127 0.144136 0.144764
0.169600 0.166904 0.165256
0.194088 0.193374 0.193253
0.183121 0.184103 0.185662
0.213844 0.213784 0.213946
0.111827 0.111256 0.112048
0.191486 0.190357 0.189997
0.205762 0.206085 0.207908
0.181807 0.183531 0.185071
0.215139 0.214232 0.212941
0.185310 0.186903 0.186474
0.126319 0.125560 0.128103
0.241006 0.242539 0.242035
0.181507 0.180771 0.180984
0.198715 0.198019 0.195045
0.213720 0.214779 0.215502
0.181768 0.182415 0.182528
0.172401 0.171396 0.172834
0.159790 0.159219 0.161096
0.144038 0.144097 0.143534
0.191812 0.191538 0.189018
0.144653 0.143734 0.144274
0.212805 0.210729 0.209394
0.166353 0.168314 0.168316
0.192522 0.191052 0.185899
0.134761 0.135847 0.135371
0.194608 0.192708 0.189993
0.174410 0.175826 0.177671
0.194777 0.191880 0.191074
0.186450 0.183903 0.181229
0.191536 0.191769 0.191799
0.173616 0.174971 0.174596
0.198945 0.196970 0.194199
0.180938 0.181904 0.181681
0.145659 0.145650 0.143879
0.195271 0.194277 0.193487
0.211640 0.213370 0.214662
0.195040 0.194196 0.192581
0.186612 0.187209 0.188413
0.146256 0.146100 0.145486
0.163644 0.164007 0.163293
0.136598 0.138809 0.138843
0.151897 0.152359 0.151217
0.205835 0.204939 0.205062
0.138395 0.137277 0.137994
0.178899 0.179447 0.180840
0.162243 0.162230 0.163191
0.135412 0.135623 0.136068
0.163053 0.163457 0.161403
0.191652 0.190838 0.189725
0.176990 0.174909 0.173388
0.200812 0.198163 0.195407
0.184539 0.183538 0.183505
0.260579 0.261045 0.263289
0.236588 0.235125 0.235023
0.170269 0.170768 0.170910
0.139659 0.139910 0.139412
0.126021 0.126511 0.127009
0.153309 0.152926 0.152905
0.195920 0.195204 0.195041
0.150628 0.149049 0.149064
0.169468 0.169393 0.169559
0.189664 0.191603 0.191757
0.179663 0.179464 0.180384
0.179596 0.179582 0.181705
0.250701 0.250915 0.248485
0.157232 0.156111 0.157260
0.133883 0.133888 0.133796
0.172479 0.172552 0.173417
0.227625 0.227122 0.227385
0.147577 0.148941 0.148796
0.167473 0.169231 0.169170
0.245416 0.247299 0.248747
0.182483 0.183426 0.189204
0.133479 0.132948 0.133073
0.186830 0.182790 0.179767
0.156790 0.156739 0.155373
0.166099 0.165012 0.164656
0.209426 0.208954 0.207770
0.185312 0.185090 0.187806
0.198226 0.198157 0.199547
0.223973 0.222554 0.217077
0.237174 0.236140 0.239873
0.191571 0.193151 0.194073
0.190505 0.191606 0.196890
0.130297 0.130175 0.130004
0.158223 0.158038 0.157900
0.185629 0.184713 0.185331
0.201558 0.202429 0.201527
0.222518 0.225252 0.225919
0.178320 0.175685 0.172404
0.190999 0.191348 0.188640
0.212294 0.212148 0.213245
0.200902 0.195551 0.194982
0.207539 0.208595 0.207975
0.133610 0.132271 0.130444
0.215018 0.215022 0.215228
0.201158 0.202468 0.203268
0.173796 0.172492 0.172729
0.203990 0.204391 0.203505
0.184598 0.183881 0.184045
