0.406456 0.405817 0.404472
0.375707 0.375915 0.378270
0.338638 0.339343 0.339909
0.078032 0.077042 0.076632
0.398888 0.404962 0.403555
0.389114 0.388598 0.388534
0.411824 0.410365 0.411810
0.373677 0.373664 0.373765
0.083183 0.083005 0.082607
0.087220 0.087496 0.087822
0.389755 0.389544 0.389286
0.323965 0.324411 0.332760
0.218340 0.217294 0.217297
0.089389 0.089393 0.089335
0.210243 0.210124 0.210096
0.070109 0.071331 0.071156
0.075883 0.075631 0.074913
0.159689 0.159615 0.159555
0.391127 0.391208 0.391309
0.381877 0.380879 0.380070
0.398285 0.403198 0.404014
0.452146 0.464737 0.464926
0.369331 0.369212 0.368332
0.389257 0.389450 0.388761
0.089825 0.089684 0.089317
0.376756 0.378734 0.385172
0.397110 0.397065 0.396576
0.157796 0.162232 0.163991
0.068933 0.069083 0.069172
0.565854 0.565951 0.566686
0.072484 0.072369 0.071797
0.079048 0.079111 0.080492
0.393594 0.394897 0.409316
0.075206 0.075877 0.075281
0.080874 0.080651 0.076412
0.309996 0.311335 0.353977
0.348483 0.341232 0.343595
0.090604 0.090166 0.090193
0.381601 0.381420 0.379214
0.084585 0.086168 0.085167
0.187015 0.186882 0.187557
0.378006 0.377750 0.376333
0.318633 0.317866 0.316728
0.377218 0.376784 0.376534
0.302734 0.298119 0.310098
0.083072 0.082772 0.082805
0.328496 0.328750 0.342527
0.306867 0.295672 0.293633
0.319495 0.319518 0.319146
0.368174 0.367413 0.366160
0.369193 0.369277 0.365414
0.371328 0.371044 0.370480
0.263921 0.263724 0.263777
0.389706 0.390048 0.389540
0.405857 0.405387 0.397573
0.063314 0.063742 0.063849
0.077057 0.077521 0.078418
0.071253 0.071379 0.071240
0.424482 0.424941 0.424776
0.085275 0.085966 0.084847
0.089817 0.089681 0.089179
0.388006 0.389141 0.399146
0.306531 0.298364 0.294385
0.343261 0.343202 0.329770
0.371987 0.371787 0.371866
0.075717 0.074996 0.075051
0.413523 0.424862 0.430685
0.077801 0.077818 0.077675
0.409715 0.409552 0.409410
0.427168 0.441750 0.441580
0.365357 0.364730 0.364769
0.339469 0.339500 0.339733
0.398038 0.388884 0.387698
0.381054 0.380918 0.379410
0.376720 0.370556 0.367297
0.367389 0.367779 0.369080
0.376377 0.381835 0.368633
0.078297 0.078270 0.077615
0.368767 0.362797 0.362177
0.176866 0.176783 0.176811
0.416461 0.417324 0.418300
0.387392 0.385250 0.383449
0.173329 0.172329 0.143088
0.386635 0.386604 0.390287
0.412221 0.411867 0.411664
0.073104 0.073025 0.072585
0.361411 0.357379 0.358623
0.369872 0.370097 0.390328
0.373752 0.372693 0.352708
0.088129 0.087509 0.087107
0.081660 0.081538 0.082159
0.077566 0.077646 0.077356
0.392368 0.382773 0.382309
0.353408 0.351717 0.347361
0.455022 0.455166 0.453862
0.368232 0.384809 0.387709
0.278699 0.278768 0.278767
0.384485 0.383764 0.383949
0.270500 0.270869 0.272127
0.372998 0.374116 0.374515
0.394235 0.392581 0.387856
0.360305 0.358644 0.358507
0.417529 0.419617 0.428389
0.445707 0.409477 0.408667
0.073442 0.073411 0.073695
0.277603 0.277629 0.277617
0.067315 0.067746 0.068384
0.372103 0.372049 0.371875
0.091624 0.091565 0.091462
0.311384 0.311371 0.311681
0.403517 0.402815 0.402374
0.279980 0.299720 0.300989
0.357023 0.357718 0.362935
0.358842 0.358881 0.358789
0.565768 0.565939 0.566307
0.339112 0.352708 0.346897
0.205223 0.204833 0.204264
0.299351 0.300489 0.301030
0.331763 0.336486 0.336991
0.377713 0.377018 0.376595
0.067694 0.065671 0.065011
0.380349 0.387788 0.388052
0.078423 0.077862 0.077834
0.082864 0.082888 0.083009
0.408992 0.411229 0.399488
0.355178 0.355663 0.355509
0.438810 0.447262 0.447604
0.369028 0.368986 0.369537
0.405094 0.405282 0.405107
0.250765 0.250628 0.250628
0.418114 0.418581 0.418762
0.397626 0.396653 0.396715
0.369537 0.369545 0.369527
0.068803 0.068508 0.068405
0.367090 0.367097 0.366651
0.334760 0.334919 0.334955
0.286952 0.286441 0.286475
0.423053 0.424081 0.433293
0.091475 0.091591 0.091530
0.083634 0.085099 0.085529
0.573864 0.573777 0.574993
0.075779 0.074935 0.074749
0.353405 0.353923 0.353778
0.086936 0.087525 0.087514
0.389066 0.389043 0.389044
0.358908 0.358385 0.357969
0.084924 0.085094 0.084936
0.314224 0.315008 0.316515
0.359588 0.359153 0.357868
0.297602 0.298039 0.308735
0.367245 0.365443 0.344481
0.272547 0.272668 0.272985
0.169202 0.168596 0.168581
0.122966 0.125661 0.127058
0.337557 0.336513 0.327204
0.395951 0.388760 0.388141
0.364771 0.365408 0.366843
0.419878 0.413412 0.413512
0.072846 0.071787 0.072179
0.492034 0.492157 0.493493
0.375291 0.369366 0.369524
0.434816 0.434722 0.432187
0.083642 0.083408 0.083282
0.068602 0.068459 0.068690
0.316872 0.326545 0.325859
0.085398 0.085639 0.085994
0.076408 0.076237 0.075698
0.413748 0.413321 0.413242
0.432316 0.433358 0.446845
0.402677 0.388369 0.386584
0.388693 0.389591 0.404127
0.082855 0.082831 0.083187
0.406718 0.407756 0.408604
0.085103 0.085115 0.084731
0.172332 0.171985 0.171970
0.068038 0.067626 0.067625
0.370838 0.370590 0.365923
0.380925 0.379356 0.379077
0.367998 0.368174 0.367970
0.078152 0.077983 0.078082
0.087944 0.087816 0.087889
0.062876 0.063246 0.063248
0.210051 0.197167 0.197480
0.383320 0.383400 0.382789
0.369373 0.370088 0.383862
0.441750 0.441580 0.441752
0.335005 0.335133 0.335130
0.083019 0.082991 0.083240
0.362793 0.363314 0.364155
0.087332 0.087318 0.088227
0.356285 0.355664 0.354558
0.067650 0.068412 0.068613
0.085099 0.085529 0.085853
0.275019 0.274940 0.275193
0.075833 0.075610 0.075051
0.176968 0.176897 0.176859
0.075306 0.074952 0.075281
0.449564 0.451211 0.452002
0.304028 0.301282 0.301133
0.286837 0.289797 0.290010
0.422171 0.423461 0.454479
0.399531 0.401105 0.399550
0.390998 0.390476 0.387189
0.337724 0.363140 0.363637
0.357458 0.355660 0.355001
0.064562 0.064380 0.064297
0.333813 0.333937 0.333967
0.084473 0.084568 0.084493
0.433907 0.426446 0.427521
0.068387 0.068273 0.067692
0.062765 0.062185 0.061580
0.456942 0.455226 0.453937
0.565646 0.562968 0.559863
0.075982 0.076162 0.075990
0.209469 0.215365 0.215947
0.346232 0.347028 0.344684
0.444629 0.448453 0.451666
0.419141 0.419007 0.428498
0.279920 0.279470 0.277843
0.306581 0.296255 0.295417
0.087303 0.087086 0.086736
0.406469 0.405985 0.399921
0.378048 0.378432 0.378074
0.080352 0.080883 0.080254
0.555246 0.554427 0.546560
0.535743 0.538754 0.539329
0.208611 0.208157 0.208190
0.322520 0.323434 0.322907
0.357040 0.356746 0.356742
0.324460 0.324666 0.338253
0.083883 0.083525 0.083457
0.388248 0.390413 0.390796
0.495896 0.497625 0.496822
0.195335 0.194770 0.194761
0.389751 0.389158 0.392282
0.369007 0.370513 0.377686
0.096691 0.096068 0.096619
0.083379 0.082914 0.082327
0.421750 0.429013 0.432823
0.308962 0.308431 0.293897
0.107305 0.105989 0.105955
0.318278 0.316923 0.316807
0.392658 0.392585 0.393122
0.302542 0.302176 0.302094
0.300416 0.300105 0.299468
0.078709 0.079070 0.079907
0.321563 0.319273 0.316254
0.370793 0.368731 0.368536
0.061291 0.061527 0.061456
0.299283 0.301160 0.313058
0.383809 0.384115 0.378825
0.213699 0.215351 0.215154
0.423358 0.423108 0.420250
0.082708 0.082722 0.082465
0.328989 0.327644 0.328312
0.323052 0.323962 0.333247
0.312081 0.311467 0.311409
0.311692 0.311588 0.312011
0.066265 0.066680 0.066699
0.366184 0.375036 0.375102
0.501383 0.504058 0.514379
0.309786 0.310597 0.310927
0.190334 0.190071 0.189621
0.355245 0.355416 0.355785
0.083091 0.083014 0.083460
0.080938 0.082438 0.082483
0.298666 0.314721 0.315524
0.211503 0.209751 0.209050
0.081668 0.082120 0.082033
0.334320 0.334925 0.334758
0.217486 0.217337 0.217322
0.087184 0.087008 0.086929
0.261343 0.265004 0.276340
0.083971 0.084601 0.084694
0.339842 0.327355 0.328551
0.082839 0.081551 0.081509
0.365944 0.373967 0.376235
0.454518 0.451114 0.450950
0.430122 0.432658 0.432193
0.279367 0.279325 0.281564
0.084086 0.083753 0.084620
0.073434 0.073559 0.073852
0.085492 0.084959 0.085168
0.454355 0.454017 0.444812
0.285548 0.284099 0.242065
0.413436 0.406292 0.402831
0.455951 0.456023 0.456519
0.313323 0.304208 0.303405
0.129638 0.129955 0.131463
0.390496 0.418483 0.414559
0.313883 0.314305 0.314212
0.089687 0.090252 0.090466
0.386854 0.386619 0.390283
0.394117 0.400667 0.403626
0.260419 0.261898 0.278113
0.619991 0.626733 0.626890
0.399963 0.421127 0.421348
0.350194 0.336373 0.345168
0.525984 0.530179 0.533459
0.074261 0.072163 0.072201
0.080618 0.081293 0.080857
0.313096 0.313958 0.337108
0.409709 0.410579 0.410060
0.091280 0.091578 0.091322
0.068711 0.068358 0.068085
0.275617 0.275683 0.275798
0.062804 0.062621 0.062327
0.157002 0.136101 0.124462
0.280981 0.292388 0.292944
0.172091 0.175796 0.177336
0.322553 0.324055 0.324208
0.104162 0.104893 0.104735
0.292201 0.291860 0.291863
0.341002 0.341686 0.341721
0.424103 0.432013 0.432779
0.429545 0.430714 0.430932
0.356836 0.356558 0.355979
0.443560 0.413351 0.402854
0.425504 0.434136 0.434905
0.466442 0.466572 0.466830
0.292250 0.294637 0.322634
0.572082 0.572008 0.571909
0.413045 0.413639 0.413947
0.357115 0.356633 0.361524
0.360011 0.368930 0.352034
0.079907 0.079862 0.079468
0.453307 0.454408 0.454801
0.425623 0.425774 0.425488
0.371594 0.363244 0.367967
0.405442 0.405170 0.405007
0.076497 0.076062 0.075525
0.364260 0.365437 0.365041
0.081191 0.080741 0.080372
0.459922 0.455845 0.445522
0.280465 0.266134 0.264223
0.500478 0.502505 0.511557
0.328709 0.336063 0.336264
0.280910 0.281452 0.281962
0.327646 0.320321 0.326221
0.379464 0.380117 0.379308
0.074855 0.075152 0.075127
0.412633 0.403689 0.401925
0.362543 0.362728 0.371628
0.210025 0.210098 0.210213
0.438226 0.438543 0.438431
0.279822 0.317899 0.307974
0.424776 0.425179 0.424711
0.077839 0.077835 0.077392
0.170326 0.172217 0.172606
0.314573 0.302634 0.300415
0.551411 0.548457 0.548678
0.076615 0.076434 0.076659
0.192867 0.191986 0.191971
0.308493 0.309201 0.316131
0.358336 0.357104 0.357401
0.392163 0.392726 0.394665
0.385136 0.387401 0.385609
0.235744 0.235594 0.235542
0.398552 0.390957 0.390504
0.565694 0.565756 0.565770
0.423153 0.424890 0.425384
0.076064 0.076497 0.076062
0.393186 0.394228 0.407307
0.357639 0.360337 0.363068
0.393501 0.392786 0.380654
0.083942 0.084655 0.084660
0.077810 0.077658 0.077839
0.433554 0.427024 0.426715
0.085686 0.085637 0.085716
0.215339 0.215081 0.215180
0.356984 0.357609 0.365295
0.366018 0.366357 0.366254
0.211921 0.212248 0.211789
0.341309 0.339829 0.339883
0.419784 0.411667 0.413748
0.178328 0.178594 0.178543
0.386775 0.401334 0.399766
0.412311 0.393093 0.393842
0.372162 0.373239 0.373104
0.338403 0.339349 0.338694
0.085978 0.086267 0.085003
0.357539 0.356674 0.358900
0.328438 0.328448 0.328488
0.077748 0.077075 0.078109
0.367967 0.390095 0.390650
0.383861 0.383727 0.381608
0.382099 0.379054 0.380438
0.081161 0.081087 0.081661
0.443705 0.444915 0.444900
0.366270 0.366282 0.368196
0.140903 0.143755 0.167603
0.381180 0.380059 0.380195
0.232806 0.236168 0.237233
0.311440 0.311371 0.311281
0.341413 0.341082 0.341075
0.539423 0.540354 0.542251
0.421177 0.419647 0.407801
0.085247 0.085261 0.085224
0.088420 0.089015 0.087070
0.355326 0.356072 0.355872
0.400154 0.399212 0.385401
0.276875 0.277127 0.277192
0.079036 0.081565 0.081520
0.067131 0.067478 0.067632
0.420793 0.411662 0.412417
0.417856 0.417702 0.418062
0.407320 0.415800 0.416314
0.083061 0.081688 0.081072
0.460990 0.459347 0.450784
0.378066 0.379214 0.382159
0.386173 0.385419 0.377937
0.626890 0.625397 0.617323
0.412070 0.403300 0.402961
0.083375 0.083698 0.083077
0.440598 0.438419 0.439841
0.342568 0.342830 0.343184
0.084368 0.083040 0.083306
0.279334 0.277661 0.277660
0.415987 0.416708 0.416291
0.082395 0.082946 0.083495
0.070883 0.071031 0.070255
0.356961 0.356842 0.357040
0.378270 0.379263 0.382635
0.240821 0.239780 0.239068
0.385055 0.385131 0.385406
0.292622 0.292821 0.293186
0.444033 0.445445 0.455196
0.417414 0.428977 0.432219
0.267375 0.266299 0.281963
0.319268 0.316614 0.307360
0.061954 0.061952 0.061406
0.488813 0.489119 0.489089
0.351980 0.354615 0.363289
0.372401 0.376008 0.376436
0.286940 0.285548 0.284099
0.261971 0.261162 0.260246
0.372721 0.374317 0.376413
0.068507 0.068148 0.068800
0.078172 0.078060 0.077818
0.084918 0.085284 0.085237
0.264667 0.276589 0.277389
0.080942 0.080641 0.081014
0.136297 0.137376 0.156116
0.087026 0.087136 0.088555
0.086841 0.086953 0.087154
0.278178 0.278941 0.279980
0.068613 0.068582 0.068221
0.351451 0.350785 0.351367
0.400015 0.396114 0.396727
0.082991 0.083106 0.083312
0.348397 0.349673 0.350383
0.365265 0.365246 0.359160
0.383477 0.383474 0.383587
0.455788 0.455707 0.460126
0.376539 0.376251 0.381569
0.572021 0.575131 0.578004
0.337595 0.337357 0.337456
0.090922 0.092699 0.092803
0.210176 0.210161 0.210123
0.085179 0.085371 0.085427
0.069403 0.071522 0.071470
0.378563 0.390548 0.391530
0.425553 0.415487 0.410351
0.395514 0.380965 0.379616
0.349760 0.348301 0.347947
0.089447 0.089329 0.089522
0.362455 0.362370 0.356942
0.351858 0.351866 0.351749
0.307588 0.309183 0.305995
0.412454 0.412269 0.412002
0.418941 0.419213 0.419279
0.088430 0.088233 0.088067
0.418443 0.422293 0.425136
0.370140 0.370287 0.370585
0.392417 0.368800 0.367518
0.336201 0.338197 0.336472
0.363931 0.367021 0.378836
0.307349 0.295260 0.295508
0.305166 0.306277 0.305831
0.347826 0.348867 0.349000
0.296513 0.296239 0.296119
0.329162 0.329143 0.329052
0.396071 0.407657 0.408792
0.276726 0.270359 0.270694
0.301475 0.314811 0.325170
0.412478 0.412433 0.412379
0.311267 0.311975 0.311556
0.402211 0.401802 0.401263
0.192637 0.193025 0.193001
0.399558 0.397942 0.396598
0.374981 0.375353 0.377111
0.368040 0.365348 0.366849
0.193833 0.196040 0.195736
0.278769 0.278871 0.278814
0.380054 0.380982 0.384229
0.279641 0.279845 0.279893
0.383674 0.375566 0.374504
0.451210 0.404690 0.403805
0.380772 0.381631 0.380438
0.399473 0.398632 0.398330
0.433143 0.451110 0.455095
0.323688 0.322798 0.308820
0.404717 0.405469 0.405029
0.466333 0.471092 0.470135
0.139639 0.114576 0.113599
0.439703 0.430743 0.430269
0.077772 0.076745 0.076552
0.380451 0.443533 0.443640
0.080470 0.080354 0.081153
0.354304 0.354958 0.357916
0.299781 0.318257 0.319333
0.365652 0.386556 0.386305
0.464642 0.465734 0.470571
0.279474 0.278857 0.278387
0.251463 0.252196 0.253821
0.619365 0.619461 0.619986
0.082995 0.082412 0.082252
0.389025 0.387370 0.387625
0.274782 0.274900 0.272365
0.274030 0.275587 0.275619
0.231196 0.230174 0.218121
0.359244 0.359810 0.360709
0.364853 0.364931 0.365587
0.315524 0.316247 0.316571
0.309181 0.309068 0.310249
0.063172 0.063167 0.063330
0.271769 0.269921 0.259166
0.323293 0.324220 0.325299
0.077555 0.076850 0.078165
0.248784 0.249145 0.250575
0.060619 0.060626 0.060713
0.303018 0.302916 0.302948
0.421516 0.421676 0.421743
0.376123 0.378066 0.379214
0.470951 0.471375 0.471880
0.437632 0.437078 0.436463
0.416921 0.416563 0.417795
0.429811 0.423221 0.419184
0.579159 0.572225 0.572010
0.345140 0.337051 0.335701
0.278090 0.277832 0.277781
0.433889 0.432188 0.407184
0.283550 0.283732 0.283717
0.358158 0.358102 0.358266
0.072887 0.072974 0.073195
0.073886 0.072087 0.071883
0.337782 0.340370 0.349555
0.463865 0.463904 0.451907
0.083497 0.083441 0.083815
0.387389 0.384563 0.380489
0.408599 0.408418 0.407572
0.076651 0.076803 0.076276
0.394469 0.394169 0.394088
0.397217 0.397936 0.398663
0.087396 0.088017 0.087854
0.383570 0.383744 0.389020
0.345801 0.346389 0.346817
0.351186 0.350142 0.349906
0.077707 0.077606 0.077555
0.088044 0.088163 0.088088
0.080888 0.080341 0.079038
0.190371 0.190392 0.189936
0.067777 0.067624 0.067351
0.209961 0.210400 0.210897
0.396795 0.398550 0.398393
0.428110 0.423961 0.426251
0.326663 0.324931 0.314325
0.364369 0.364979 0.369173
0.290055 0.290364 0.290290
0.068661 0.068592 0.068311
0.373528 0.374546 0.374427
0.323781 0.325394 0.346532
0.445077 0.443262 0.441201
0.152512 0.151081 0.151101
0.069134 0.069226 0.069198
0.082302 0.082878 0.082911
0.325655 0.332640 0.341182
0.457535 0.460139 0.471487
0.426839 0.427215 0.428250
0.425258 0.425290 0.438077
0.391329 0.393378 0.383346
0.085013 0.084417 0.084374
0.378477 0.378464 0.378547
0.297488 0.297251 0.296203
0.092816 0.093198 0.092341
0.080469 0.080405 0.081309
0.351996 0.352418 0.353647
0.427047 0.427256 0.427592
0.367940 0.360926 0.360898
0.278664 0.278858 0.279202
0.086741 0.087643 0.087538
0.252211 0.251750 0.252066
0.088149 0.087883 0.087785
0.067601 0.067500 0.067727
0.295672 0.293633 0.292644
0.277683 0.279306 0.285817
0.410712 0.410834 0.411822
0.388776 0.404793 0.425219
0.168961 0.168175 0.167954
0.371560 0.372058 0.360367
0.307839 0.295027 0.293684
0.348989 0.354583 0.361387
0.398822 0.396995 0.385108
0.459158 0.459696 0.461220
0.237873 0.238188 0.238223
0.572230 0.566005 0.565941
0.167991 0.167377 0.167341
0.446673 0.450752 0.455995
0.410035 0.409876 0.408961
0.083830 0.085447 0.085013
0.343161 0.329509 0.327688
0.437769 0.437857 0.433554
0.066622 0.066841 0.066477
0.418641 0.419611 0.424472
0.103141 0.104356 0.104401
0.278767 0.278677 0.278915
0.194645 0.195036 0.194782
0.439672 0.432895 0.437256
0.366358 0.385622 0.386249
0.383214 0.381681 0.381998
0.091482 0.090581 0.092055
0.281403 0.280110 0.279812
0.320718 0.320708 0.321868
0.357726 0.359336 0.360835
0.565770 0.565854 0.565951
0.307253 0.307578 0.307750
0.070930 0.070795 0.070754
0.082228 0.082368 0.082060
0.414417 0.416580 0.417863
0.075723 0.075523 0.075250
0.366889 0.359590 0.356600
0.081361 0.081859 0.081681
0.237815 0.237379 0.237433
0.308751 0.308902 0.309266
0.078570 0.078454 0.078802
0.071295 0.070932 0.071080
0.380410 0.378982 0.335521
0.083932 0.083402 0.083356
0.208368 0.209523 0.209947
0.462557 0.462639 0.459488
0.369998 0.371996 0.374524
0.070277 0.069869 0.070179
0.401041 0.403156 0.402752
0.350213 0.339420 0.350664
0.083990 0.083033 0.083056
0.407911 0.405861 0.401012
0.375916 0.375838 0.375297
0.429513 0.429500 0.429361
0.395446 0.397752 0.400122
0.386487 0.378527 0.378215
0.383829 0.383154 0.383016
0.390706 0.390777 0.391169
0.374867 0.373750 0.373241
0.358688 0.359077 0.370326
0.313937 0.319765 0.320334
0.390841 0.389928 0.389215
0.365417 0.364459 0.364334
0.412491 0.412618 0.412494
0.083293 0.083617 0.083515
0.094119 0.094384 0.094668
0.302001 0.302335 0.303111
0.306264 0.306468 0.308774
0.368197 0.368654 0.358079
0.409810 0.400228 0.398240
0.445597 0.447276 0.449562
0.083227 0.083206 0.083505
0.166118 0.166016 0.166103
0.358154 0.358229 0.359831
0.302989 0.302430 0.298641
0.419142 0.418710 0.413099
0.403253 0.401195 0.399464
0.393341 0.391561 0.380573
0.414421 0.415090 0.416043
0.084845 0.085170 0.084910
0.429052 0.454969 0.457253
0.085777 0.085705 0.085551
0.301479 0.299895 0.300475
0.084307 0.084512 0.084579
0.361743 0.358679 0.357145
0.076530 0.076295 0.076104
0.094713 0.094879 0.094912
0.380078 0.379788 0.364885
0.278115 0.278476 0.278331
0.428657 0.429967 0.414388
0.094893 0.095024 0.094947
0.412985 0.405071 0.404593
0.381274 0.382619 0.383537
0.192751 0.192049 0.191982
0.454075 0.452173 0.452385
0.380501 0.379807 0.379568
0.072201 0.072019 0.074843
0.070035 0.069993 0.069861
0.075041 0.075224 0.075710
0.389155 0.388662 0.387913
0.097833 0.098738 0.099066
0.400910 0.411356 0.411950
0.085261 0.084893 0.083528
0.078687 0.079574 0.079479
0.082356 0.084050 0.084054
0.457730 0.458253 0.459282
0.090410 0.090034 0.089877
0.346103 0.346207 0.328516
0.375413 0.381873 0.381993
0.497625 0.496822 0.495288
0.334760 0.334760 0.334919
0.366854 0.368698 0.379090
0.404380 0.415398 0.415455
0.082065 0.082453 0.082474
0.341180 0.348944 0.349358
0.368339 0.368174 0.367413
0.374530 0.373568 0.372213
0.446610 0.445908 0.445489
0.278857 0.278761 0.278544
0.360450 0.359588 0.359153
0.082364 0.082160 0.082134
0.407536 0.400751 0.412890
0.080939 0.081019 0.081022
0.336492 0.347182 0.344363
0.378670 0.380485 0.380771
0.452449 0.451306 0.404803
0.388023 0.387291 0.387458
0.386952 0.387770 0.397167
0.359313 0.360224 0.359849
0.445666 0.455438 0.455462
0.333526 0.332897 0.331873
0.078890 0.077304 0.076727
0.076553 0.076746 0.076475
0.198733 0.198871 0.200827
0.378678 0.379490 0.380998
0.277463 0.276519 0.262065
0.207878 0.208745 0.208903
0.324302 0.308916 0.307013
0.424426 0.424886 0.444123
0.387965 0.387263 0.387626
0.065814 0.066290 0.066479
0.424702 0.424551 0.424288
0.368794 0.368394 0.364616
0.085292 0.085896 0.086220
0.215416 0.214051 0.213600
0.285102 0.278934 0.277230
0.322263 0.327466 0.346848
0.359169 0.358632 0.357997
0.513634 0.510505 0.510582
0.174432 0.174672 0.175538
0.080878 0.080551 0.080080
0.400645 0.399864 0.391589
0.071622 0.071694 0.073573
0.438056 0.437845 0.436974
0.349380 0.349850 0.349667
0.372139 0.371319 0.361603
0.362521 0.365270 0.371056
0.419285 0.419255 0.419682
0.374548 0.373303 0.363929
0.077216 0.076445 0.076397
0.411861 0.412697 0.420188
0.369052 0.369547 0.369815
0.081968 0.082241 0.082305
0.310525 0.310735 0.314842
0.305470 0.306148 0.306683
0.082458 0.081575 0.081418
0.388009 0.387782 0.385615
0.387720 0.386745 0.389165
0.408455 0.402411 0.401996
0.384193 0.371279 0.366265
0.081721 0.081898 0.082094
0.332989 0.285300 0.282387
0.430985 0.430614 0.409514
0.404727 0.404170 0.404323
0.470044 0.472756 0.471159
0.356100 0.356105 0.356302
0.090427 0.090315 0.090948
0.085154 0.084799 0.084857
0.382116 0.386667 0.386588
0.074313 0.073978 0.073552
0.297476 0.297360 0.296882
0.074977 0.073964 0.073869
0.080226 0.080994 0.080996
0.290487 0.290561 0.290566
0.381054 0.381309 0.381563
0.374979 0.374473 0.363913
0.386216 0.389233 0.389172
0.455052 0.454947 0.460648
0.356666 0.356698 0.356466
0.370143 0.366261 0.381655
0.061709 0.062270 0.061863
0.313291 0.309469 0.309513
0.074687 0.074336 0.074187
0.423306 0.431799 0.432674
0.408122 0.407946 0.402077
0.304192 0.304540 0.305091
0.076541 0.075774 0.076565
0.318388 0.352109 0.352906
0.083711 0.084028 0.084464
0.384240 0.386475 0.383876
0.555273 0.555546 0.546642
0.381874 0.376347 0.400709
0.071280 0.071213 0.071174
0.371716 0.374820 0.376911
0.343037 0.353891 0.355142
0.466032 0.458154 0.457975
0.389640 0.389531 0.389755
0.398931 0.398123 0.387220
0.418232 0.418907 0.413945
0.082168 0.082269 0.081826
0.275770 0.275585 0.275627
0.425864 0.425214 0.425136
0.070052 0.069855 0.069878
0.334041 0.338147 0.339240
0.078889 0.078219 0.081397
0.321308 0.341612 0.342134
0.299511 0.298223 0.297996
0.170823 0.170678 0.170759
0.415197 0.415497 0.415604
0.241291 0.241024 0.240480
0.393664 0.394971 0.397221
0.384878 0.373888 0.372099
0.380848 0.379800 0.379834
0.365467 0.364932 0.364963
0.325858 0.333797 0.333993
0.390295 0.391805 0.395532
0.343109 0.342929 0.343030
0.079335 0.080003 0.079825
0.070255 0.070434 0.070146
0.265927 0.265448 0.249631
0.076904 0.077127 0.077748
0.411481 0.411871 0.404273
0.391792 0.387713 0.384361
0.071147 0.070828 0.070852
0.433245 0.419836 0.419794
0.390119 0.388286 0.375851
0.572322 0.572036 0.572019
0.363310 0.362694 0.363344
0.393301 0.388777 0.388858
0.356997 0.368056 0.369974
0.084964 0.085118 0.084721
0.085594 0.085381 0.084017
0.159615 0.159555 0.158884
0.067825 0.067768 0.068052
0.321566 0.320015 0.318150
0.078104 0.078080 0.078468
0.423558 0.430646 0.430940
0.381319 0.361931 0.360340
0.075230 0.074305 0.074538
0.339292 0.348963 0.349869
0.300423 0.303248 0.306989
0.380675 0.380442 0.379033
0.357710 0.361738 0.363413
0.283705 0.283702 0.283754
0.408902 0.413874 0.415354
0.424104 0.413349 0.412312
0.325845 0.325333 0.312510
0.411494 0.411913 0.413879
0.212652 0.185921 0.183882
0.358985 0.358561 0.358543
0.374578 0.380292 0.385591
0.305916 0.306019 0.307006
0.339024 0.349355 0.351138
0.368740 0.368451 0.355704
0.281935 0.281451 0.281240
0.306470 0.306460 0.316992
0.492135 0.492616 0.491662
0.317057 0.305382 0.304175
0.072477 0.072494 0.071974
0.340228 0.306326 0.300463
0.320656 0.322140 0.327326
0.062575 0.062432 0.062207
0.342943 0.342869 0.343320
0.281209 0.281520 0.281481
0.082589 0.082600 0.082825
0.319293 0.319967 0.311938
0.294647 0.293809 0.293039
0.406531 0.407040 0.411659
0.074725 0.074307 0.074427
0.365239 0.361129 0.358301
0.319741 0.320276 0.319654
0.442415 0.442084 0.441948
0.410372 0.416471 0.417849
0.395142 0.395387 0.395156
0.419998 0.419992 0.419711
0.383139 0.385295 0.421874
0.084931 0.083648 0.083469
0.409504 0.410232 0.410183
0.068332 0.068277 0.067585
0.398477 0.398492 0.397941
0.319363 0.317669 0.322530
0.353843 0.353492 0.349784
0.416314 0.415327 0.416150
0.469451 0.469936 0.470475
0.060675 0.060272 0.060106
0.322126 0.321937 0.322270
0.419368 0.406200 0.403968
0.166276 0.166779 0.169202
0.394756 0.394787 0.393951
0.369192 0.367268 0.366693
0.315310 0.315249 0.313754
0.360446 0.360835 0.368732
0.211849 0.211554 0.211216
0.363989 0.363914 0.363185
0.374547 0.361090 0.362829
0.086677 0.086431 0.087062
0.169314 0.168132 0.168599
0.403426 0.402613 0.411710
0.066298 0.066109 0.066643
0.309086 0.309887 0.309954
0.387376 0.395811 0.398010
0.240204 0.242918 0.243931
0.404614 0.402831 0.394010
0.407817 0.407501 0.396017
0.083063 0.082816 0.083510
0.321609 0.321636 0.321643
0.301009 0.309729 0.291736
0.088017 0.088030 0.086916
0.083706 0.083617 0.083594
0.452007 0.462307 0.464358
0.469706 0.470178 0.470912
0.132286 0.132156 0.131822
0.081817 0.081976 0.081824
0.087641 0.088004 0.088209
0.381300 0.378474 0.387520
0.084746 0.084995 0.085055
0.408761 0.398036 0.396837
0.083624 0.084028 0.085256
0.071456 0.071275 0.071280
0.080988 0.081117 0.081618
0.078203 0.079598 0.079848
0.090229 0.090263 0.090568
0.250945 0.248780 0.247033
0.081118 0.080818 0.081501
0.308689 0.309996 0.311335
0.375295 0.373590 0.372148
0.356541 0.356512 0.355883
0.303205 0.303984 0.303940
0.338245 0.337010 0.337105
0.434109 0.434338 0.432280
0.291261 0.291385 0.292194
0.324709 0.323617 0.323401
0.408879 0.408004 0.407250
0.403804 0.395592 0.395464
0.344399 0.344281 0.344379
0.448468 0.437567 0.450818
0.415966 0.423159 0.423877
0.070525 0.070124 0.071322
0.395543 0.386721 0.386791
0.415304 0.414594 0.414491
0.386475 0.383876 0.385746
0.261700 0.278560 0.279524
0.353601 0.354588 0.362371
0.380771 0.383344 0.393442
0.432486 0.433375 0.446998
0.341905 0.341528 0.341343
0.366076 0.377773 0.379227
0.219374 0.217240 0.216796
0.392070 0.404347 0.402453
0.257817 0.259082 0.258763
0.317807 0.321542 0.321738
0.399467 0.401514 0.403195
0.385788 0.387543 0.386075
0.187410 0.187763 0.188789
0.420087 0.420054 0.419007
0.414904 0.414085 0.413525
0.083192 0.083255 0.083712
0.331026 0.332196 0.337825
0.068902 0.069858 0.069999
0.084212 0.084529 0.084741
0.134654 0.134701 0.134887
0.345978 0.346829 0.340911
0.616099 0.617864 0.618865
0.429580 0.429740 0.429028
0.156647 0.165529 0.166478
0.304976 0.283272 0.281348
0.385218 0.385402 0.385085
0.401062 0.400525 0.400474
0.173293 0.174954 0.191822
0.079478 0.080468 0.080520
0.443442 0.452125 0.454462
0.072173 0.071779 0.072028
0.425310 0.425504 0.434136
0.457630 0.461589 0.461966
0.077760 0.077900 0.078165
0.335126 0.335456 0.335247
0.428099 0.417756 0.414924
0.369220 0.358093 0.351472
0.451602 0.451624 0.451552
0.408936 0.408599 0.408418
0.418879 0.412588 0.414773
0.079388 0.079029 0.079086
0.404771 0.404542 0.404924
0.066785 0.066592 0.066750
0.334737 0.333074 0.326714
0.399349 0.407740 0.404126
0.280251 0.253003 0.242396
0.080186 0.081842 0.084444
0.350969 0.351618 0.362610
0.061755 0.062409 0.061757
0.079287 0.079112 0.078988
0.326741 0.327139 0.342340
0.090909 0.090166 0.089769
0.077091 0.076812 0.076594
0.355313 0.355026 0.355139
0.337816 0.337445 0.337355
