0.352059 0.351802 0.352185
0.231404 0.232112 0.233113
0.228365 0.226105 0.204088
0.268902 0.271502 0.272916
0.285590 0.285359 0.284023
0.357291 0.360989 0.361738
0.269443 0.269379 0.268810
0.229808 0.228374 0.232710
0.255455 0.250859 0.254723
0.337251 0.339503 0.362315
0.379006 0.381384 0.380131
0.340326 0.338307 0.328030
0.250249 0.253606 0.254848
0.339856 0.340033 0.335657
0.298511 0.299372 0.299934
0.252427 0.242163 0.219619
0.330784 0.331915 0.336787
0.266395 0.270237 0.272241
0.259388 0.259982 0.259983
0.379680 0.378343 0.376283
0.280682 0.282371 0.287673
0.323544 0.332230 0.333021
0.298967 0.299230 0.300623
0.274399 0.268920 0.258090
0.292763 0.290051 0.289614
0.265657 0.267061 0.267195
0.283440 0.283203 0.283831
0.400382 0.403008 0.403389
0.277579 0.275405 0.274968
0.259385 0.259548 0.260264
0.231349 0.231848 0.231267
0.322878 0.324968 0.324309
0.372152 0.366899 0.365296
0.310591 0.310537 0.310030
0.297309 0.298277 0.301124
0.338731 0.339299 0.338266
0.307763 0.307587 0.307971
0.237943 0.238239 0.237926
0.369856 0.367205 0.366750
0.273777 0.274883 0.274451
0.307331 0.307669 0.307967
0.281967 0.281617 0.281793
0.300700 0.302940 0.295657
0.240399 0.241416 0.244038
0.241019 0.240584 0.233474
0.264896 0.264183 0.264693
0.351644 0.353308 0.354521
0.242108 0.242018 0.241684
0.248747 0.249095 0.247487
0.271303 0.270588 0.269915
0.288529 0.289300 0.289949
0.231643 0.234600 0.234562
0.556612 0.556243 0.556279
0.309724 0.309373 0.308706
0.361376 0.358234 0.352126
0.333342 0.332371 0.334262
0.323751 0.323268 0.322211
0.320446 0.318919 0.328842
0.250314 0.250332 0.250567
0.222543 0.222595 0.222041
0.302922 0.302232 0.295518
0.342518 0.341793 0.342957
0.256644 0.256595 0.258018
0.255023 0.255258 0.255335
0.319301 0.319831 0.318824
0.255666 0.255859 0.257285
0.329719 0.329437 0.332432
0.351365 0.347687 0.346642
0.210391 0.201736 0.201317
0.199275 0.201178 0.202522
0.282594 0.283811 0.292138
0.280443 0.280514 0.280077
0.325550 0.325047 0.324835
0.351936 0.350428 0.346334
0.339340 0.340186 0.332396
0.244707 0.244386 0.244714
0.382133 0.381047 0.373831
0.230583 0.230584 0.231063
0.254953 0.256406 0.257898
0.272324 0.272956 0.272975
0.299750 0.300344 0.303996
0.313450 0.312591 0.315110
0.313657 0.313599 0.314620
0.363226 0.363100 0.359404
0.236723 0.237942 0.233546
0.277064 0.276488 0.271523
0.259846 0.259256 0.257883
0.304826 0.304033 0.303317
0.186013 0.185708 0.185488
0.348612 0.351308 0.351957
0.294251 0.293766 0.294161
0.310402 0.310567 0.310840
0.211829 0.215282 0.214596
0.329375 0.327133 0.324792
0.271291 0.274629 0.274394
0.338517 0.339843 0.350473
0.284235 0.282830 0.282381
0.263519 0.261747 0.255389
0.310229 0.311672 0.312008
0.356731 0.358583 0.358695
0.320708 0.320134 0.320340
0.229309 0.226753 0.225930
0.339893 0.339112 0.337610
0.304473 0.303339 0.303199
0.402183 0.401143 0.400758
0.335382 0.336078 0.336039
0.292711 0.294083 0.300451
0.268937 0.268824 0.269604
0.339557 0.341415 0.340518
0.324436 0.322274 0.321632
0.251580 0.251705 0.253733
0.330653 0.330534 0.330607
0.298988 0.297442 0.298779
0.277908 0.280221 0.280471
0.369963 0.369981 0.369937
0.332603 0.329837 0.328562
0.420948 0.410708 0.407310
0.339505 0.338724 0.338105
0.265055 0.264519 0.265080
0.305892 0.307679 0.308036
0.348829 0.348615 0.348777
0.346473 0.347306 0.346610
0.356784 0.356932 0.357527
0.335692 0.336039 0.335744
0.242016 0.240775 0.239727
0.309323 0.308082 0.307332
0.250257 0.250998 0.254198
0.264721 0.264259 0.263892
0.303420 0.304157 0.303346
0.234809 0.239810 0.241312
0.362191 0.362569 0.363859
0.257114 0.255383 0.256051
0.337630 0.342181 0.342701
0.335169 0.338137 0.337878
0.231391 0.231543 0.232192
0.295872 0.295711 0.295769
0.246880 0.247637 0.248474
0.187090 0.186937 0.186759
0.299742 0.288994 0.292598
0.327487 0.314938 0.313556
0.290032 0.289430 0.289385
0.236870 0.235174 0.238274
0.274282 0.278244 0.279924
0.273798 0.274720 0.274127
0.180653 0.181609 0.183282
0.243548 0.243558 0.243696
0.305254 0.307311 0.308477
0.359419 0.353312 0.353156
0.267387 0.268242 0.266771
0.453497 0.454049 0.455890
0.248279 0.248360 0.248761
0.184776 0.183071 0.178880
0.344546 0.339352 0.339952
0.255011 0.255287 0.254713
0.229440 0.229012 0.229230
0.298059 0.298874 0.298962
0.322646 0.323981 0.323827
0.335496 0.336069 0.337604
0.261651 0.260354 0.259762
0.263040 0.260462 0.246000
0.288829 0.289444 0.288040
0.298113 0.297704 0.297334
0.319972 0.319078 0.318856
0.356301 0.355497 0.341495
0.335585 0.336035 0.335115
0.351248 0.349197 0.348341
0.308284 0.308501 0.310454
0.260134 0.259533 0.253435
0.241526 0.242352 0.242476
0.200980 0.200242 0.199903
0.287103 0.286529 0.285821
0.242309 0.242909 0.242735
0.318022 0.317246 0.316496
0.271033 0.271911 0.271271
0.259225 0.258707 0.257765
0.335124 0.336355 0.336156
0.253737 0.257886 0.255776
0.300922 0.301834 0.302243
0.377999 0.378968 0.380010
0.322599 0.323540 0.333945
0.349241 0.349653 0.350599
0.267608 0.269842 0.270134
0.262014 0.264403 0.264558
0.319377 0.319704 0.321084
0.361506 0.377491 0.380002
0.300743 0.301294 0.303033
0.245251 0.249623 0.251112
0.327331 0.332303 0.332962
0.220198 0.219935 0.220945
0.309055 0.307955 0.301497
0.304204 0.303962 0.301698
0.238836 0.239883 0.239866
0.235900 0.235867 0.236079
0.290027 0.290943 0.293307
0.364474 0.361376 0.358234
0.226823 0.226857 0.226366
0.313653 0.312853 0.310889
0.265452 0.265742 0.266350
0.343398 0.343406 0.343912
0.310630 0.299801 0.298137
0.253411 0.254072 0.254091
0.321916 0.324151 0.325306
0.308221 0.304752 0.304235
0.307715 0.305921 0.306623
0.376852 0.378369 0.378835
0.269099 0.265304 0.266114
0.329224 0.329534 0.329694
0.239302 0.238980 0.238669
0.251289 0.252019 0.252018
0.318702 0.315297 0.314208
0.222970 0.221495 0.220707
0.285034 0.285638 0.284584
0.224305 0.230394 0.229391
0.262131 0.263586 0.264406
0.261972 0.261980 0.263502
0.351945 0.354443 0.358130
0.267723 0.267650 0.269652
0.190233 0.192232 0.191789
0.369618 0.367564 0.363713
0.327827 0.326299 0.325445
0.235869 0.235757 0.236655
0.271368 0.270892 0.270529
0.288061 0.288493 0.286799
0.331890 0.334308 0.334886
0.289144 0.288648 0.293706
0.402189 0.401738 0.400356
0.251507 0.253004 0.254070
0.296095 0.296871 0.298886
0.236107 0.239198 0.239631
0.290836 0.290205 0.285677
0.233694 0.234315 0.242366
0.348375 0.348331 0.349827
0.330045 0.331664 0.332047
0.241671 0.242473 0.242181
0.340292 0.341211 0.344375
0.254320 0.255561 0.257308
0.336918 0.337438 0.338075
0.240266 0.240034 0.240292
0.320721 0.318936 0.318452
0.311382 0.311428 0.311912
0.230157 0.232359 0.232106
0.318421 0.317414 0.316144
0.318146 0.320107 0.320298
0.273923 0.273270 0.272376
0.304612 0.304478 0.305462
0.253971 0.261153 0.262100
0.253069 0.259620 0.256758
0.297501 0.296270 0.295742
0.253532 0.254750 0.255529
0.322656 0.334176 0.336208
0.396074 0.395443 0.385461
0.278528 0.278031 0.278293
0.273703 0.273116 0.273870
0.264435 0.264744 0.263701
0.350413 0.350741 0.349334
0.291849 0.293147 0.295609
0.256760 0.276129 0.279994
0.186179 0.185737 0.185965
0.175695 0.176638 0.179232
0.247496 0.248346 0.245987
0.315435 0.317131 0.318860
0.272612 0.268654 0.268630
0.257644 0.257229 0.259714
0.284286 0.284161 0.283350
0.310519 0.310215 0.310515
0.283969 0.284443 0.283545
0.309481 0.310050 0.309401
0.281706 0.280966 0.277162
0.268767 0.269435 0.271633
0.258801 0.261370 0.261660
0.298591 0.298375 0.301462
0.298653 0.300935 0.299627
0.338081 0.338639 0.338146
0.237811 0.239423 0.239606
0.318621 0.293693 0.307442
0.260140 0.262016 0.263058
0.369741 0.370045 0.374307
0.243072 0.242033 0.235734
0.364084 0.372933 0.372772
0.287855 0.289009 0.289050
0.287542 0.288308 0.285775
0.276552 0.275997 0.276347
0.285857 0.287245 0.285244
0.490947 0.490732 0.490450
0.228821 0.228527 0.227912
0.231044 0.229459 0.228821
0.273068 0.270325 0.269284
0.292140 0.297483 0.305571
0.237669 0.240160 0.241431
0.349703 0.347123 0.345359
0.304110 0.297976 0.294279
0.252224 0.254311 0.255517
0.292107 0.291659 0.289131
0.319470 0.320403 0.322913
0.298444 0.296706 0.296373
0.364048 0.363399 0.361023
0.290801 0.290262 0.287976
0.382286 0.380845 0.382700
0.338412 0.337986 0.337239
0.307819 0.308223 0.309136
0.506484 0.492364 0.488651
0.271497 0.270071 0.270099
0.255445 0.256064 0.256998
0.368640 0.369206 0.370154
0.304021 0.304522 0.304820
0.233794 0.233673 0.233189
0.571066 0.571483 0.571963
0.257496 0.253894 0.260788
0.278613 0.278504 0.278793
0.346773 0.345096 0.341290
0.309136 0.309901 0.316236
0.246474 0.246584 0.246900
0.326511 0.327037 0.326907
0.378739 0.378391 0.377640
0.260354 0.259762 0.259521
0.331833 0.330448 0.328935
0.247676 0.252623 0.251887
0.354383 0.355744 0.355656
0.323351 0.322419 0.323126
0.243484 0.243419 0.242848
0.284608 0.285461 0.284187
0.292605 0.292782 0.294383
0.392729 0.392666 0.393054
0.305802 0.309467 0.311180
0.258789 0.254458 0.256008
0.287976 0.284484 0.284087
0.241117 0.241406 0.240463
0.241882 0.240760 0.241063
0.282496 0.282245 0.277208
0.220464 0.222974 0.221513
0.403014 0.402358 0.402621
0.322257 0.320436 0.322447
0.333022 0.333454 0.349055
0.299607 0.298626 0.300683
0.294122 0.289586 0.289322
0.261642 0.259431 0.258634
0.293911 0.297020 0.298544
0.329073 0.340410 0.340154
0.354537 0.356022 0.356603
0.295124 0.295557 0.295593
0.224227 0.223511 0.223691
0.324664 0.329659 0.330156
0.377174 0.380716 0.385601
0.317416 0.316389 0.315516
0.324060 0.324090 0.323948
0.323964 0.322873 0.323215
0.337013 0.339641 0.340460
0.260968 0.261563 0.262376
0.263137 0.263648 0.266262
0.251139 0.247918 0.247067
0.326122 0.326952 0.326027
0.322352 0.330354 0.329302
0.381189 0.377660 0.368741
0.182872 0.183588 0.186612
0.271231 0.271152 0.273262
0.366975 0.366544 0.370032
0.327335 0.327047 0.327390
0.310386 0.352649 0.359182
0.249060 0.250048 0.249884
0.375576 0.379931 0.380409
0.273402 0.273071 0.280151
0.333370 0.345448 0.347425
0.279562 0.287482 0.287157
0.375006 0.376548 0.377944
0.289647 0.289407 0.290976
0.254981 0.253741 0.254319
0.254410 0.256440 0.254755
0.240950 0.241489 0.242110
0.234668 0.236678 0.235989
0.254857 0.254486 0.253825
0.332059 0.332158 0.332258
0.307350 0.307418 0.306080
0.332110 0.333011 0.333204
0.358636 0.359344 0.360166
0.242517 0.241942 0.241679
0.345579 0.346445 0.344867
0.322751 0.328161 0.326984
0.262034 0.262629 0.261566
0.230940 0.231306 0.234618
0.261112 0.261337 0.261904
0.273907 0.268642 0.267851
0.252333 0.253304 0.254073
0.255668 0.255332 0.255729
0.264525 0.265469 0.263783
0.340270 0.339860 0.339817
0.340679 0.340810 0.340797
0.351802 0.351992 0.353089
0.230356 0.229069 0.224925
0.319007 0.318082 0.316970
0.270386 0.256140 0.253305
0.228513 0.229585 0.230233
0.322739 0.319038 0.294327
0.380693 0.380116 0.382870
0.345475 0.345458 0.345532
0.345753 0.347600 0.353192
0.266492 0.267195 0.268421
0.318863 0.320018 0.321319
0.370869 0.370769 0.374366
0.225369 0.225951 0.230851
0.251959 0.251665 0.251187
0.268228 0.268291 0.267965
0.374866 0.387448 0.391120
0.300253 0.301803 0.303612
0.360325 0.362677 0.356314
0.344827 0.345542 0.346075
0.288557 0.288411 0.288241
0.225562 0.223719 0.222198
0.358318 0.358254 0.352742
0.335675 0.333433 0.334714
0.316333 0.316314 0.315971
0.372399 0.370625 0.370086
0.278259 0.278837 0.279920
0.272925 0.273369 0.273095
0.311937 0.313104 0.315280
0.564036 0.564150 0.565178
0.302650 0.302875 0.305368
0.257343 0.257443 0.257754
0.232197 0.231276 0.231802
0.301612 0.303315 0.302042
0.232564 0.231596 0.231997
0.285114 0.286259 0.306663
0.323601 0.321899 0.318713
0.244562 0.244363 0.243024
0.324835 0.324293 0.324475
0.226454 0.226613 0.226039
0.260641 0.262199 0.260569
0.384275 0.384657 0.385647
0.256147 0.256647 0.257933
0.365741 0.364405 0.362022
0.260450 0.258737 0.257760
0.318727 0.318522 0.318006
0.238184 0.237267 0.235273
0.293168 0.290939 0.290490
0.301085 0.299357 0.297998
0.284941 0.284689 0.284324
0.274063 0.275086 0.275129
0.336445 0.333883 0.330512
0.269655 0.269422 0.269023
0.315646 0.316680 0.318162
0.284150 0.285257 0.286272
0.341233 0.341908 0.349159
0.331392 0.331449 0.333011
0.234853 0.233645 0.233224
0.292137 0.314369 0.316441
0.360490 0.367558 0.369517
0.252994 0.250837 0.251139
0.307627 0.305982 0.305577
0.329824 0.334069 0.334534
0.398110 0.398241 0.398997
0.339869 0.338762 0.336076
0.293365 0.287355 0.285153
0.255483 0.252758 0.253194
0.267302 0.269642 0.274047
0.362089 0.365544 0.370812
0.252499 0.253553 0.253390
0.221309 0.221126 0.221122
0.240950 0.246114 0.261605
0.222862 0.223217 0.223579
0.256343 0.259024 0.269454
0.273925 0.274273 0.274063
0.309948 0.307194 0.306615
0.278879 0.278347 0.278430
0.327244 0.326547 0.325838
0.379312 0.378727 0.386754
0.274969 0.274024 0.271258
0.559161 0.562898 0.566555
0.325832 0.325010 0.324666
0.353623 0.354475 0.351652
0.260850 0.261056 0.260763
0.310963 0.313211 0.315701
0.288965 0.286899 0.285051
0.307928 0.307522 0.308374
0.280745 0.280405 0.279000
0.371331 0.370702 0.372938
0.255339 0.253769 0.255810
0.320272 0.315691 0.316095
0.212276 0.212407 0.210137
0.269495 0.269778 0.269793
0.363514 0.362731 0.363111
0.316179 0.316172 0.315470
0.285359 0.284023 0.284755
0.242329 0.243260 0.242435
0.249365 0.250515 0.258924
0.334163 0.335336 0.334211
0.233913 0.234506 0.235875
0.308954 0.309763 0.310128
0.233200 0.233974 0.234628
0.329775 0.328643 0.326224
0.356586 0.356035 0.355928
0.270843 0.271020 0.271249
0.226761 0.231492 0.231441
0.356529 0.355176 0.352263
0.282463 0.282437 0.278735
0.340289 0.349400 0.348599
0.321435 0.320988 0.324053
0.253920 0.254174 0.254377
0.316213 0.316972 0.315544
0.301613 0.300968 0.300723
0.371379 0.369866 0.370826
0.299069 0.298327 0.298027
0.268819 0.290662 0.291699
0.256893 0.256537 0.256262
0.318586 0.320356 0.320862
0.364414 0.364770 0.365235
0.361752 0.361532 0.360232
0.298712 0.303719 0.304589
0.257177 0.256628 0.253576
0.254492 0.255287 0.253871
0.258045 0.259150 0.259192
0.304456 0.302738 0.304481
0.336621 0.335233 0.333230
0.339247 0.339518 0.338631
0.244719 0.242156 0.243166
0.276906 0.275395 0.274467
0.325710 0.328536 0.326933
0.268608 0.280211 0.282365
0.325745 0.326494 0.324944
0.320436 0.322447 0.321430
0.302859 0.301608 0.300482
0.290274 0.290774 0.299339
0.385752 0.386215 0.387588
0.234032 0.231795 0.230549
0.289811 0.290039 0.290471
0.368833 0.369259 0.370351
0.284055 0.280568 0.270010
0.308078 0.307898 0.309688
0.378029 0.374081 0.373815
0.325300 0.325209 0.327845
0.281494 0.287976 0.288251
0.324975 0.323921 0.316213
0.293687 0.290134 0.290338
0.255923 0.255393 0.254971
0.259961 0.259499 0.262217
0.349509 0.338219 0.340384
0.308359 0.309828 0.310068
0.287855 0.287499 0.285440
0.269808 0.269617 0.269705
0.382231 0.382237 0.382209
0.297820 0.298966 0.303901
0.320717 0.321401 0.321300
0.395064 0.394724 0.394311
0.296917 0.297004 0.295243
0.347877 0.345867 0.340845
0.310595 0.310714 0.310895
0.295367 0.290872 0.292758
0.408963 0.407193 0.397236
0.352970 0.360653 0.360417
0.239146 0.239148 0.239408
0.322334 0.317173 0.317546
0.317136 0.318416 0.318507
0.347479 0.348590 0.348817
0.256865 0.254031 0.255341
0.340129 0.340268 0.339123
0.377407 0.378059 0.377572
0.325769 0.325384 0.325388
0.239809 0.238324 0.237312
0.332031 0.331370 0.332873
0.245248 0.242729 0.243680
0.274381 0.274587 0.276552
0.308373 0.307718 0.307234
0.374419 0.374538 0.373877
0.260645 0.257430 0.257488
0.366185 0.354887 0.350671
0.356078 0.351110 0.350783
0.231276 0.231733 0.232513
0.335175 0.328760 0.320255
0.345657 0.346641 0.347498
0.307138 0.308293 0.307466
0.335439 0.335391 0.335978
0.259293 0.256356 0.255944
0.258410 0.260937 0.283101
0.338286 0.330169 0.329899
0.320461 0.320783 0.318705
0.307734 0.306091 0.306102
0.262521 0.261255 0.261734
0.233714 0.234505 0.242583
0.370398 0.365432 0.362962
0.328610 0.334863 0.340843
0.343471 0.348919 0.347144
0.322726 0.329577 0.332553
0.312738 0.312300 0.310530
0.272266 0.273396 0.274384
0.354652 0.354127 0.332435
0.266788 0.267052 0.267085
0.264983 0.253976 0.256580
0.317478 0.317592 0.317646
0.238539 0.238251 0.238611
0.349036 0.349920 0.350755
0.337695 0.338970 0.341094
0.327690 0.326558 0.331793
0.264590 0.264253 0.265911
0.192014 0.191632 0.191936
0.275779 0.277261 0.277363
0.374561 0.372452 0.372694
0.238841 0.238624 0.239581
0.266546 0.266920 0.266705
0.213851 0.213619 0.213692
0.226017 0.225341 0.225372
0.351014 0.351890 0.352453
0.338003 0.340026 0.343071
0.314443 0.315036 0.314383
0.302503 0.311693 0.315625
0.313768 0.315027 0.315758
0.173500 0.174625 0.183439
0.350867 0.355238 0.356249
0.328250 0.317012 0.309914
0.348635 0.346541 0.346068
0.257876 0.257550 0.257588
0.239840 0.238657 0.240261
0.325350 0.326641 0.326940
0.351626 0.351024 0.350546
0.234719 0.235215 0.234679
0.222773 0.222410 0.222225
0.245339 0.239771 0.238313
0.337070 0.340070 0.344972
0.304553 0.297521 0.300769
0.304813 0.304536 0.306380
0.228266 0.227095 0.224048
0.292777 0.296615 0.295971
0.370682 0.366841 0.362983
0.308601 0.306845 0.306193
0.357517 0.354460 0.355466
0.382904 0.382043 0.382441
0.500741 0.502063 0.523862
0.284337 0.285061 0.286564
0.237654 0.238133 0.236779
0.371194 0.370191 0.372463
0.376117 0.375781 0.380465
0.291508 0.292109 0.294412
0.320767 0.320022 0.320428
0.284872 0.286765 0.286778
0.288141 0.288608 0.281205
0.283522 0.282769 0.282339
0.248525 0.249252 0.249279
0.313713 0.313784 0.296474
0.254155 0.255186 0.255678
0.287090 0.286565 0.287033
0.337458 0.334336 0.334042
0.449073 0.428087 0.422064
0.368622 0.368252 0.384508
0.241885 0.241576 0.241019
0.264919 0.268819 0.290662
0.297416 0.296683 0.290484
0.338667 0.338108 0.337500
0.372128 0.372381 0.374854
0.229562 0.230157 0.232359
0.342143 0.345061 0.342543
0.693886 0.692920 0.692965
0.297657 0.296833 0.296546
0.283451 0.282179 0.288570
0.251660 0.251301 0.250306
0.314438 0.314401 0.312823
0.303325 0.301984 0.300343
0.302243 0.301588 0.301537
0.302431 0.301720 0.303040
0.337555 0.338291 0.339340
0.310330 0.309486 0.307831
0.312581 0.312671 0.310781
0.341919 0.341124 0.343898
0.262794 0.262329 0.260899
0.260044 0.259781 0.259286
0.231932 0.231293 0.231816
0.242687 0.241757 0.239203
0.293643 0.295753 0.297437
0.299079 0.298078 0.296196
0.253925 0.254678 0.254906
0.347240 0.347216 0.346072
0.356650 0.355904 0.353634
0.242763 0.242604 0.243758
0.262406 0.263016 0.267019
0.295971 0.295026 0.294885
0.320367 0.318382 0.318055
0.332432 0.333600 0.336647
0.254386 0.248832 0.250652
0.329512 0.328828 0.327807
0.252171 0.252570 0.252881
0.261746 0.274034 0.275834
0.244091 0.241338 0.240382
0.307087 0.303736 0.304767
0.325228 0.324190 0.323248
0.239752 0.239678 0.236750
0.276003 0.277258 0.277531
0.219424 0.225001 0.225577
0.302029 0.302680 0.301902
0.287386 0.286112 0.288863
0.359460 0.362811 0.369165
0.213913 0.213665 0.213489
0.303315 0.302042 0.301698
0.255141 0.257744 0.267815
0.398182 0.397182 0.395838
0.668759 0.690924 0.695051
0.288195 0.288358 0.289122
0.235273 0.228344 0.226761
0.266819 0.268130 0.270807
0.310532 0.306514 0.305976
0.249153 0.249637 0.250728
0.177942 0.178991 0.177179
0.278922 0.278509 0.279429
0.253723 0.251631 0.248351
0.267910 0.267464 0.266535
0.214847 0.213416 0.214396
0.265218 0.263145 0.263515
0.315732 0.316185 0.316610
0.327174 0.328408 0.327320
0.359179 0.359681 0.357819
0.297220 0.282235 0.280579
0.318714 0.318960 0.319128
0.276640 0.259671 0.257221
0.271385 0.270476 0.271083
0.286786 0.283994 0.283212
0.307278 0.305103 0.304552
0.395153 0.399548 0.400404
0.398178 0.399633 0.394019
0.337697 0.337397 0.339953
0.223864 0.223735 0.220567
0.263183 0.262690 0.262486
0.240614 0.242720 0.243750
0.329277 0.326866 0.326938
0.605217 0.606271 0.606287
0.310572 0.311463 0.313765
0.338471 0.338124 0.337037
0.225270 0.226881 0.226861
0.307935 0.301316 0.302002
0.269966 0.266880 0.263982
0.256842 0.256446 0.256579
0.271085 0.270924 0.270815
0.271898 0.272328 0.265904
0.402836 0.403071 0.402702
0.378682 0.378651 0.370865
0.424574 0.424555 0.424528
0.250095 0.254227 0.254238
0.294822 0.295746 0.296708
0.336313 0.340879 0.341492
0.317178 0.318548 0.324181
0.299625 0.299176 0.299525
0.218357 0.218238 0.217933
0.239841 0.237747 0.236720
0.338885 0.342882 0.339877
0.382608 0.384478 0.384648
0.252037 0.252863 0.252721
0.347764 0.345334 0.344957
0.298119 0.294978 0.295350
0.493455 0.494466 0.497323
0.284232 0.282871 0.274275
0.269378 0.268990 0.268670
0.249061 0.241869 0.235838
0.317647 0.319828 0.330155
0.323497 0.322848 0.322116
0.260404 0.265340 0.266790
0.295515 0.295986 0.298019
0.338202 0.337377 0.340642
0.250416 0.250479 0.251085
0.234111 0.231992 0.223747
0.309828 0.310068 0.308407
0.276414 0.279416 0.276932
0.314220 0.316019 0.314392
0.358228 0.363703 0.365277
0.236691 0.235317 0.232618
0.321272 0.322011 0.321983
0.228576 0.226938 0.222193
0.345904 0.344933 0.354126
0.269083 0.269160 0.262121
0.323160 0.321889 0.318582
0.298980 0.300603 0.302233
0.343207 0.343837 0.343332
0.312298 0.314705 0.313911
0.367723 0.367843 0.366051
0.280452 0.279379 0.281511
0.281906 0.281994 0.280979
0.324711 0.313716 0.313608
0.327389 0.337189 0.338441
0.272775 0.272805 0.273566
0.273416 0.280847 0.277160
0.306514 0.305976 0.306115
0.319914 0.319862 0.318062
0.314775 0.315222 0.314958
0.328219 0.324826 0.323961
0.627415 0.629881 0.629660
0.262293 0.256311 0.253950
0.274979 0.272788 0.276675
0.334396 0.335489 0.336071
0.244445 0.244818 0.244989
0.210503 0.211458 0.221597
0.366493 0.368089 0.369746
0.281917 0.282040 0.285310
0.348950 0.348657 0.349575
0.338385 0.338828 0.345116
0.290510 0.291503 0.283851
0.336687 0.336936 0.336946
0.329787 0.328456 0.328755
0.345971 0.346047 0.342756
0.223527 0.224374 0.225564
0.307238 0.306235 0.306281
0.272784 0.271466 0.267097
0.285122 0.286015 0.285182
0.367776 0.368750 0.369398
0.324992 0.325855 0.328279
0.273107 0.268164 0.267904
0.279581 0.279699 0.279708
0.322774 0.324121 0.325350
0.508420 0.505122 0.504891
0.315532 0.315803 0.318053
0.239114 0.239626 0.238635
0.355466 0.356719 0.356380
0.270333 0.265810 0.264451
0.337737 0.338203 0.339014
0.376872 0.377163 0.377088
0.211010 0.214846 0.223250
0.260262 0.260424 0.260274
0.340555 0.347990 0.348049
0.328942 0.327562 0.320474
0.249174 0.248241 0.247985
0.369735 0.370701 0.370065
0.233739 0.232802 0.232486
0.285310 0.288344 0.283686
0.249331 0.249263 0.249977
0.275472 0.276269 0.275003
0.351248 0.350796 0.337010
0.293092 0.292524 0.292534
0.321612 0.321958 0.324398
0.265129 0.266635 0.266972
0.389953 0.388966 0.389251
0.254545 0.254645 0.255245
0.256773 0.264181 0.264697
0.302711 0.293204 0.291442
0.298698 0.296644 0.296614
0.274971 0.274349 0.273178
0.247078 0.243947 0.242838
0.307699 0.306608 0.306117
0.329035 0.329167 0.328531
0.353011 0.349838 0.349069
0.260784 0.264587 0.268292
0.371146 0.373234 0.374739
0.290882 0.282445 0.281353
0.262077 0.261605 0.262042
0.330909 0.330410 0.330159
0.304099 0.294897 0.295053
0.262398 0.262426 0.262630
0.256127 0.255879 0.252994
0.257432 0.258190 0.265377
0.353696 0.353830 0.354170
0.282871 0.274275 0.270439
0.330055 0.328515 0.328255
0.373090 0.329219 0.319437
0.282227 0.283219 0.289253
0.231441 0.230186 0.231534
0.293383 0.293510 0.293222
0.221475 0.221458 0.223575
0.349959 0.348555 0.347142
0.405108 0.406988 0.409769
0.248542 0.252684 0.250783
0.379302 0.378983 0.379092
0.304168 0.317424 0.318386
0.294538 0.292046 0.290542
0.324905 0.325989 0.325163
0.285595 0.285317 0.283953
0.272389 0.284065 0.285802
0.235788 0.239405 0.240134
0.297489 0.298068 0.297451
0.317188 0.317698 0.318488
0.255363 0.255231 0.255665
0.309671 0.307853 0.305152
0.353752 0.353372 0.352353
0.270169 0.269795 0.262927
0.445937 0.446086 0.446601
0.226111 0.218121 0.218969
0.261622 0.261355 0.256512
0.282448 0.283507 0.282945
0.225851 0.226360 0.227522
0.233351 0.233216 0.234106
0.274891 0.274993 0.275074
0.243260 0.242435 0.239779
0.567033 0.567145 0.566971
0.338541 0.334995 0.335146
0.315758 0.335669 0.336318
0.291154 0.291885 0.291878
0.323766 0.325350 0.326641
0.291343 0.289994 0.284504
0.250529 0.250724 0.250358
0.382111 0.381968 0.382309
0.241576 0.241019 0.240584
0.268109 0.267332 0.255828
0.185816 0.186486 0.186467
0.249772 0.248990 0.238662
0.535174 0.535919 0.535480
0.317899 0.317416 0.322966
0.222353 0.221765 0.220836
0.348852 0.348141 0.346997
0.334527 0.335271 0.336414
0.326837 0.326052 0.324214
0.297249 0.298649 0.304131
0.284539 0.280005 0.278184
0.366973 0.360904 0.360436
0.312534 0.312888 0.311295
0.301636 0.299742 0.288994
0.357264 0.354836 0.354129
0.234839 0.235209 0.234624
0.288088 0.287372 0.287382
0.251940 0.251092 0.250706
0.323892 0.324086 0.326563
0.276036 0.275450 0.273100
0.322281 0.322868 0.324737
0.311417 0.324902 0.327760
0.265348 0.280388 0.283470
0.266031 0.264071 0.264918
0.263503 0.262773 0.262187
0.332914 0.332647 0.334875
0.327566 0.328192 0.327395
0.330065 0.329145 0.335092
0.293824 0.301140 0.308438
0.334112 0.331793 0.327765
0.256395 0.256049 0.255951
0.303544 0.313611 0.314752
0.251653 0.251662 0.251876
0.320880 0.320842 0.320717
0.560305 0.559692 0.550994
0.352521 0.351250 0.351967
0.328607 0.329512 0.328828
0.316474 0.316826 0.315503
0.313788 0.317890 0.318586
0.281333 0.281783 0.280702
0.232574 0.229418 0.231098
0.274200 0.268660 0.268380
0.402358 0.402621 0.402138
0.233308 0.233059 0.232317
0.241757 0.239203 0.241462
0.257720 0.257490 0.257044
0.306432 0.302822 0.295392
0.324031 0.323943 0.324074
0.314941 0.314167 0.314521
0.251421 0.251184 0.252102
0.333433 0.334714 0.333573
0.258831 0.258049 0.263437
0.354461 0.354357 0.354229
0.313933 0.314209 0.314923
0.247876 0.252897 0.248810
0.243512 0.243562 0.247806
0.272929 0.271772 0.273566
0.288040 0.286166 0.287238
0.246601 0.242709 0.241117
0.237747 0.236720 0.236370
0.361751 0.360951 0.355753
0.271647 0.274376 0.274717
0.263270 0.264139 0.263892
0.381004 0.381344 0.381957
0.230289 0.229663 0.229829
0.265709 0.252554 0.251480
0.270241 0.270430 0.271898
0.255287 0.253871 0.250257
0.350094 0.375051 0.376934
0.268921 0.269802 0.270297
0.258622 0.256936 0.253742
0.370030 0.375305 0.375485
0.263539 0.264473 0.266886
0.243558 0.250972 0.252716
0.332221 0.332059 0.332158
0.270491 0.269856 0.267336
0.424298 0.424072 0.424394
0.311798 0.308833 0.309124
0.262574 0.265218 0.265647
0.276622 0.295122 0.300214
0.271387 0.271377 0.276606
0.262704 0.262945 0.262851
0.298490 0.297923 0.295901
0.243499 0.243624 0.243630
0.358702 0.358282 0.352409
0.309467 0.311180 0.311878
0.335380 0.340737 0.339991
0.327114 0.327206 0.327265
0.261181 0.265235 0.265613
0.283030 0.283479 0.284041
0.260913 0.261575 0.257812
0.328004 0.329444 0.330695
0.263130 0.258589 0.261054
0.265989 0.267347 0.266862
0.267518 0.267677 0.268478
0.256831 0.255339 0.253769
0.333746 0.333430 0.333394
0.339795 0.343709 0.343978
0.351777 0.353491 0.354657
0.258703 0.256588 0.250119
0.267244 0.272768 0.275174
0.229548 0.229467 0.229512
0.322033 0.322040 0.323171
0.253730 0.253453 0.250484
0.261910 0.261349 0.262216
0.289477 0.293516 0.296749
0.238638 0.235235 0.235242
0.304165 0.303325 0.301984
0.280168 0.283315 0.283666
0.345994 0.347430 0.345222
0.244905 0.244895 0.248318
0.258738 0.255878 0.249995
0.240250 0.240064 0.242181
0.274761 0.274035 0.273580
0.385517 0.387401 0.394947
0.250783 0.249331 0.249263
0.288083 0.286197 0.277126
0.355693 0.355927 0.356047
0.322760 0.326358 0.327446
