0.162129 0.161270 0.159240
0.180782 0.177905 0.178221
0.172540 0.173086 0.179710
0.153807 0.156516 0.153861
0.137944 0.137945 0.137478
0.165567 0.165524 0.166848
0.176471 0.162616 0.162731
0.095084 0.095020 0.095235
0.145353 0.146188 0.145864
0.103994 0.103860 0.104224
0.106729 0.106431 0.106540
0.142280 0.145865 0.145836
0.106929 0.107002 0.107067
0.136018 0.135134 0.134607
0.252282 0.252438 0.252350
0.120626 0.118585 0.119583
0.227168 0.226732 0.221475
0.154450 0.154724 0.155005
0.130207 0.130749 0.130717
0.102442 0.102340 0.101981
0.160641 0.160746 0.161200
0.143193 0.143030 0.141150
0.165303 0.165809 0.166275
0.117875 0.117835 0.119869
0.099744 0.100629 0.101011
0.227124 0.224970 0.224316
0.096803 0.099514 0.100112
0.157657 0.158127 0.158262
0.276882 0.278180 0.278372
0.164185 0.164440 0.164265
0.092059 0.091796 0.091693
0.117298 0.117176 0.117438
0.129944 0.130769 0.130318
0.107123 0.107008 0.106846
0.256859 0.257221 0.257980
0.149538 0.138795 0.140507
0.180004 0.180712 0.181271
0.190159 0.190593 0.191038
0.122790 0.123599 0.123766
0.101614 0.101924 0.101624
0.219494 0.220523 0.220524
0.164731 0.162568 0.162574
0.162887 0.163336 0.163654
0.095513 0.094989 0.095527
0.185878 0.186082 0.186272
0.243326 0.242553 0.242874
0.189244 0.189672 0.186343
0.184849 0.186129 0.199774
0.180151 0.179625 0.178742
0.185655 0.185919 0.184944
0.146288 0.154759 0.156943
0.111312 0.111340 0.110361
0.211181 0.207764 0.210635
0.175695 0.173339 0.173628
0.148127 0.148164 0.142933
0.176313 0.176449 0.176348
0.136851 0.137420 0.137982
0.244805 0.245669 0.245735
0.283202 0.273509 0.252557
0.118741 0.119613 0.119707
0.159528 0.160774 0.161655
0.107847 0.107387 0.107475
0.109956 0.110648 0.110954
0.261196 0.260843 0.260624
0.239664 0.228960 0.228591
0.268034 0.270858 0.270033
0.156707 0.157156 0.157294
0.115011 0.115261 0.115786
0.166419 0.166393 0.165945
0.146497 0.147515 0.151705
0.124641 0.124469 0.124658
0.098120 0.098249 0.098503
0.168429 0.168284 0.167935
0.130814 0.129806 0.129173
0.135596 0.135880 0.136669
0.182820 0.181517 0.180063
0.263439 0.256805 0.255977
0.102571 0.102512 0.102884
0.189504 0.189775 0.190799
0.208520 0.207583 0.214650
0.157036 0.156681 0.158388
0.106461 0.106430 0.106891
0.136719 0.135259 0.133117
0.130968 0.131642 0.132838
0.187462 0.185872 0.185251
0.276986 0.277335 0.277079
0.262789 0.262291 0.261959
0.162103 0.161451 0.164161
0.136656 0.135808 0.136822
0.109823 0.109385 0.109237
0.275425 0.277832 0.277658
0.178404 0.178650 0.179101
0.255343 0.256593 0.257032
0.237185 0.236953 0.236663
0.165488 0.162135 0.152679
0.233038 0.232546 0.230212
0.155606 0.155776 0.155977
0.173214 0.170880 0.172455
0.136007 0.137324 0.137746
0.142915 0.143915 0.143877
0.114342 0.114739 0.113997
0.214186 0.216690 0.217890
0.107826 0.107755 0.108621
0.155943 0.155815 0.154931
0.110668 0.110249 0.110522
0.135520 0.135881 0.136088
0.186012 0.183632 0.183720
0.111093 0.111153 0.110589
0.204032 0.210219 0.212213
0.184764 0.185214 0.185585
0.147689 0.158105 0.166934
0.130417 0.130747 0.132066
0.117943 0.117596 0.117863
0.180224 0.171558 0.171282
0.229867 0.230022 0.229483
0.112780 0.112104 0.112546
0.187578 0.188151 0.189530
0.109810 0.110158 0.111701
0.235360 0.235601 0.235973
0.106037 0.106737 0.106679
0.151765 0.151861 0.155120
0.157511 0.157040 0.157137
0.146996 0.146468 0.144145
0.216565 0.222048 0.222474
0.131725 0.131276 0.132235
0.110687 0.110646 0.111373
0.206680 0.206016 0.208101
0.279778 0.279497 0.278639
0.188472 0.188749 0.190586
0.120832 0.122631 0.123903
0.166988 0.172406 0.172167
0.160317 0.159543 0.157364
0.189002 0.189068 0.188817
0.110664 0.111153 0.112008
0.229774 0.229254 0.229146
0.166448 0.165939 0.164820
0.142778 0.142780 0.142685
0.155127 0.155134 0.155751
0.106732 0.106136 0.106739
0.197802 0.197802 0.197883
0.110253 0.109208 0.109159
0.248983 0.246471 0.246622
0.133064 0.132746 0.133720
0.172216 0.172359 0.172611
0.148912 0.148500 0.148294
0.252287 0.250719 0.249754
0.180520 0.179672 0.181317
0.110036 0.110067 0.110010
0.190214 0.190096 0.190083
0.098557 0.096974 0.097754
0.102955 0.102625 0.103071
0.211227 0.212235 0.213912
0.135126 0.132387 0.132114
0.170201 0.170581 0.170260
0.164005 0.164082 0.164336
0.132450 0.132702 0.132631
0.151556 0.151687 0.149286
0.246145 0.229795 0.229187
0.133468 0.133098 0.132756
0.153552 0.153588 0.153244
0.156103 0.156195 0.155979
0.227598 0.228123 0.227773
0.138535 0.138037 0.138079
0.254187 0.249384 0.247098
0.165051 0.164859 0.165478
0.117479 0.117282 0.117314
0.255816 0.255517 0.254707
0.111866 0.111547 0.111172
0.264117 0.261117 0.257898
0.210627 0.209917 0.209130
0.103899 0.103898 0.103720
0.114518 0.114545 0.115104
0.149904 0.150228 0.149444
0.117194 0.117482 0.117634
0.182895 0.183089 0.182429
0.168553 0.168881 0.167237
0.114718 0.114483 0.114983
0.233215 0.232533 0.231394
0.195210 0.195179 0.193249
0.148394 0.148763 0.149086
0.243873 0.244994 0.246290
0.265415 0.265923 0.264772
0.111054 0.110808 0.110238
0.117356 0.116838 0.116833
0.190884 0.190867 0.190932
0.148520 0.148619 0.148783
0.227173 0.226907 0.227336
0.143839 0.144687 0.144728
0.274506 0.273988 0.273816
0.132049 0.132262 0.133299
0.135024 0.133655 0.132089
0.108378 0.108787 0.109170
0.220807 0.223155 0.224392
0.259590 0.260056 0.260573
0.105585 0.105533 0.105361
0.109159 0.108676 0.108675
0.100555 0.099772 0.098435
0.270604 0.273761 0.275416
0.138387 0.136628 0.136627
0.130383 0.130082 0.131088
0.228224 0.232761 0.246167
0.194573 0.195012 0.194931
0.110747 0.110264 0.110802
0.191301 0.190451 0.191777
0.115657 0.116420 0.117153
0.186396 0.185958 0.185463
0.135536 0.135304 0.133962
0.152715 0.153315 0.152973
0.175520 0.174399 0.174326
0.168954 0.169346 0.170922
0.167488 0.167709 0.167643
0.194962 0.194899 0.192988
0.096086 0.096376 0.097350
0.272952 0.269401 0.270700
0.130788 0.130061 0.129662
0.204936 0.204851 0.204837
0.123633 0.123206 0.122538
0.165028 0.165538 0.168671
0.160363 0.160944 0.160739
0.266389 0.267592 0.267817
0.159358 0.160374 0.161884
0.156458 0.157458 0.165000
0.146769 0.147617 0.147668
0.188660 0.189948 0.189818
0.169191 0.169247 0.169116
0.201255 0.201444 0.200688
0.252199 0.252373 0.253212
0.138810 0.139005 0.138645
0.134653 0.132893 0.131528
0.105980 0.105341 0.105121
0.150253 0.148092 0.147553
0.137081 0.137226 0.136833
0.139200 0.139003 0.139124
0.232224 0.233504 0.223287
0.146113 0.142307 0.142620
0.185099 0.184289 0.182314
0.178444 0.177006 0.182025
0.142929 0.143958 0.144222
0.118153 0.119765 0.119606
0.104989 0.103805 0.106252
0.229557 0.231051 0.235157
0.097424 0.097390 0.097545
0.171291 0.170964 0.170412
0.209672 0.209308 0.209586
0.275193 0.273829 0.273754
0.187526 0.186212 0.182120
0.113365 0.113082 0.112945
0.186549 0.184411 0.184001
0.114246 0.113782 0.113450
0.131827 0.131755 0.133723
0.159847 0.164119 0.164531
0.112947 0.113632 0.113520
0.155629 0.152067 0.153451
0.095423 0.094084 0.094163
0.272121 0.273538 0.273978
0.102449 0.102394 0.102797
0.166687 0.166656 0.164538
0.096186 0.096560 0.096165
0.245608 0.248451 0.247903
0.154211 0.154105 0.154218
0.243000 0.244903 0.244726
0.106785 0.106508 0.106382
0.135263 0.133104 0.132685
0.191249 0.190792 0.182095
0.100924 0.099947 0.099881
0.207290 0.205503 0.206087
0.111005 0.111562 0.113039
0.262370 0.261734 0.257646
0.241327 0.241479 0.238295
0.242270 0.233879 0.233505
0.172414 0.172575 0.172996
0.107514 0.108283 0.108200
0.262252 0.263570 0.263049
0.204331 0.207376 0.206891
0.154723 0.154590 0.154745
0.176000 0.176469 0.175859
0.151103 0.144779 0.144592
0.097631 0.097689 0.097716
0.171809 0.176936 0.176885
0.129422 0.130115 0.130507
0.259151 0.259076 0.257069
0.178960 0.179757 0.183988
0.168170 0.168011 0.163351
0.098261 0.098120 0.098249
0.113302 0.113473 0.113401
0.172437 0.173275 0.173683
0.113635 0.114093 0.113903
0.188229 0.188711 0.189244
0.155381 0.155126 0.153108
0.182259 0.181937 0.180999
0.111744 0.111407 0.110805
0.181200 0.182176 0.182003
0.111947 0.112299 0.111536
0.158548 0.158178 0.156937
0.097934 0.098719 0.100362
0.178328 0.176714 0.180125
0.205884 0.204344 0.204663
0.138427 0.138117 0.138033
0.195205 0.196766 0.203672
0.250821 0.250932 0.249962
0.248415 0.248618 0.248856
0.148735 0.148381 0.147368
0.137187 0.137244 0.137201
0.119618 0.119685 0.120799
0.116826 0.117193 0.117430
0.224044 0.223462 0.223880
0.141940 0.143612 0.143092
0.102373 0.102034 0.101727
0.174663 0.174670 0.174290
0.114037 0.114069 0.113381
0.110461 0.110501 0.110307
0.166842 0.166525 0.169021
0.183405 0.187305 0.187641
0.123098 0.124320 0.124847
0.149162 0.149334 0.149306
0.268811 0.266470 0.262919
0.188755 0.188108 0.188179
0.121576 0.121669 0.121429
0.109425 0.110269 0.110142
0.095183 0.095155 0.095533
0.116169 0.115661 0.114716
0.107731 0.108870 0.109188
0.096821 0.096089 0.096110
0.210853 0.213117 0.212910
0.142065 0.141853 0.141832
0.144918 0.145663 0.145712
0.225906 0.225712 0.225577
0.158279 0.158207 0.158347
0.161229 0.162218 0.162829
0.199287 0.204662 0.207386
0.106136 0.106739 0.106688
0.108728 0.108383 0.108780
0.268267 0.266604 0.266914
0.259743 0.269088 0.267245
0.138307 0.139385 0.139500
0.096951 0.097189 0.096618
0.239557 0.238846 0.233377
0.113518 0.112455 0.111919
0.112542 0.112592 0.113473
0.143402 0.142067 0.140820
0.110786 0.110271 0.110426
0.182063 0.182337 0.182261
0.112386 0.111665 0.111745
0.111531 0.111759 0.111861
0.131225 0.131327 0.131500
0.138555 0.138555 0.138336
0.110461 0.111011 0.110624
0.099064 0.099184 0.098742
0.145369 0.145252 0.145362
0.153021 0.153189 0.154130
0.187562 0.186221 0.185650
0.109487 0.109741 0.109267
0.183201 0.183429 0.181509
0.148642 0.152498 0.151787
0.275142 0.278143 0.277467
0.097182 0.097074 0.096477
0.147629 0.150714 0.150227
0.101117 0.101968 0.101974
0.203757 0.204083 0.203014
0.106030 0.106399 0.106438
0.204690 0.205359 0.211248
0.259256 0.267431 0.267712
0.116160 0.116197 0.115913
0.155871 0.155502 0.157044
0.131385 0.131220 0.131142
0.164615 0.164651 0.164767
0.251176 0.243305 0.242236
0.102160 0.102112 0.100954
0.107995 0.107656 0.108202
0.132187 0.132846 0.132545
0.256687 0.257014 0.261488
0.188908 0.188590 0.188437
0.111286 0.110675 0.110077
0.145627 0.144937 0.143132
0.154852 0.154856 0.154469
0.120158 0.119077 0.119335
0.159600 0.159740 0.159678
0.106236 0.106008 0.105603
0.111783 0.111261 0.110495
0.130171 0.130528 0.130694
0.168109 0.168863 0.171414
0.245022 0.245328 0.245336
0.105845 0.106270 0.106167
0.098472 0.098631 0.098492
0.162928 0.162329 0.161919
0.131663 0.132127 0.134420
0.229925 0.229867 0.230022
0.259943 0.255933 0.260022
0.114812 0.114936 0.115297
0.172401 0.172750 0.172683
0.241607 0.241899 0.254443
0.211679 0.209742 0.184289
0.112856 0.113001 0.113246
0.118659 0.119607 0.120843
0.231793 0.231845 0.231951
0.116743 0.117417 0.117472
0.152067 0.153451 0.153051
0.147356 0.148923 0.149117
0.139267 0.136624 0.137212
0.121744 0.120838 0.120744
0.096184 0.096414 0.096466
0.106748 0.105718 0.105574
0.116203 0.116808 0.116960
0.209991 0.208931 0.208648
0.189510 0.190805 0.191085
0.115648 0.115214 0.114779
0.252121 0.252084 0.252262
0.153875 0.149512 0.148423
0.216050 0.214682 0.211467
0.154003 0.155646 0.155837
0.140945 0.139900 0.136573
0.117790 0.117170 0.119669
0.248598 0.248814 0.248258
0.122923 0.123096 0.123014
0.206543 0.208777 0.207603
0.173355 0.167443 0.165994
0.189194 0.187836 0.186944
0.119005 0.118940 0.119237
0.175277 0.174805 0.174340
0.140966 0.140505 0.141381
0.125233 0.124940 0.126026
0.180841 0.181100 0.179800
0.096634 0.096821 0.096530
0.141938 0.141393 0.140412
0.124715 0.123911 0.123874
0.106315 0.105561 0.105321
0.214448 0.213837 0.214524
0.156857 0.156641 0.156700
0.115459 0.114959 0.114284
0.099406 0.099698 0.100741
0.103383 0.103092 0.103840
0.201082 0.200354 0.200126
0.107149 0.106842 0.107109
0.176506 0.177104 0.177068
0.238332 0.238886 0.241566
0.105498 0.105309 0.104758
0.154394 0.153897 0.153811
0.188749 0.190586 0.190341
0.100560 0.100163 0.100964
0.123988 0.111680 0.110761
0.190744 0.193433 0.194144
0.246747 0.244169 0.243046
0.219401 0.218735 0.217184
0.160488 0.160594 0.162213
0.300075 0.298393 0.299099
0.102289 0.101954 0.101652
0.169748 0.169920 0.170101
0.100211 0.100034 0.100942
0.121466 0.120803 0.120859
0.112660 0.112774 0.112617
0.156357 0.156267 0.155528
0.138555 0.138336 0.139121
0.164692 0.164923 0.165497
0.248862 0.248790 0.244775
0.111674 0.112281 0.112178
0.151010 0.150325 0.150314
0.256223 0.256052 0.255912
0.168424 0.167492 0.166447
0.101808 0.102064 0.102555
0.137634 0.135910 0.135713
0.097708 0.097708 0.097446
0.162257 0.157160 0.155445
0.159138 0.159129 0.159319
0.127374 0.128667 0.138711
0.183699 0.183797 0.184231
0.174512 0.174949 0.176568
0.166749 0.166374 0.166368
0.253611 0.251846 0.251519
0.108435 0.107280 0.107643
0.095761 0.096034 0.095838
0.172488 0.163465 0.162512
0.113071 0.112557 0.113175
0.175867 0.176720 0.176944
0.105346 0.106428 0.108488
0.169207 0.168740 0.165680
0.190048 0.190106 0.190080
0.112012 0.111898 0.111806
0.278012 0.278248 0.277547
0.184283 0.184616 0.180032
0.259191 0.259437 0.259637
0.194365 0.193761 0.191475
0.169108 0.166269 0.165967
0.167024 0.166427 0.166320
0.118370 0.118704 0.120158
0.129203 0.130505 0.136498
0.152975 0.153306 0.154310
0.126672 0.126598 0.127487
0.152925 0.156134 0.157357
0.130231 0.131248 0.129636
0.103178 0.102955 0.102625
0.174913 0.175637 0.175117
0.183267 0.182954 0.181742
0.118505 0.118682 0.118977
0.117727 0.117675 0.116563
0.216283 0.215866 0.216203
0.186185 0.186601 0.185665
0.206376 0.205898 0.206027
0.144039 0.145392 0.148144
0.110043 0.109839 0.109134
0.154500 0.155104 0.154487
0.273165 0.273197 0.268358
0.172256 0.168437 0.167754
0.143923 0.143900 0.142710
0.253477 0.253522 0.254489
0.155528 0.155245 0.155902
0.197868 0.198526 0.198866
0.137318 0.137744 0.137841
0.165462 0.165768 0.165645
0.114750 0.113822 0.114001
0.256304 0.263041 0.265964
0.144784 0.144580 0.144478
0.119451 0.117728 0.117759
0.123898 0.123093 0.123259
0.256187 0.256261 0.249552
0.175722 0.175946 0.176475
0.111675 0.110964 0.111707
0.097372 0.096752 0.096018
0.115902 0.116786 0.116159
0.105663 0.105820 0.105466
0.117151 0.115729 0.116103
0.155906 0.155798 0.155407
0.119122 0.119309 0.118983
0.132164 0.132001 0.132018
0.102127 0.101602 0.101655
0.121412 0.121539 0.121404
0.193365 0.195473 0.194829
0.167761 0.168380 0.168931
0.299723 0.303878 0.279034
0.101128 0.101733 0.102317
0.213588 0.211984 0.171711
0.149619 0.148302 0.148520
0.187242 0.188032 0.187560
0.122797 0.122357 0.121523
0.171473 0.173303 0.173643
0.121404 0.121574 0.121623
0.216688 0.213988 0.213365
0.099410 0.100561 0.099779
0.179215 0.178667 0.178229
0.109548 0.109349 0.109394
0.098701 0.098620 0.098085
0.170618 0.166107 0.166105
0.227860 0.227779 0.227370
0.196848 0.195134 0.193775
0.101229 0.101408 0.101927
0.191671 0.191102 0.190657
0.204795 0.203917 0.190317
0.150864 0.151061 0.150313
0.231646 0.231815 0.229413
0.269432 0.259278 0.257198
0.159870 0.157716 0.156720
0.232914 0.233446 0.233719
0.108207 0.108579 0.108884
0.155122 0.155796 0.155551
0.159679 0.158923 0.158611
0.237525 0.237466 0.236948
0.118818 0.120489 0.120733
0.188629 0.178295 0.178156
0.173768 0.173693 0.172637
0.250121 0.244643 0.244041
0.159200 0.155723 0.157019
0.110706 0.110717 0.111399
0.184511 0.184347 0.183708
0.148157 0.148185 0.148440
0.164536 0.165338 0.165866
0.152098 0.149682 0.149866
0.119765 0.119606 0.119767
0.118726 0.118421 0.117649
0.133401 0.135382 0.133787
0.101530 0.101830 0.102043
0.124194 0.123789 0.122427
0.110155 0.110399 0.108578
0.164618 0.164096 0.164304
0.094313 0.095203 0.095228
0.138846 0.141572 0.141940
0.176264 0.176124 0.179215
0.192275 0.192493 0.194066
0.139998 0.137865 0.136131
0.146739 0.145440 0.144499
0.157311 0.160928 0.160716
0.172095 0.172372 0.172427
0.251358 0.250819 0.250268
0.113957 0.113789 0.113700
0.102988 0.103263 0.103338
0.167232 0.167839 0.167759
0.150088 0.149707 0.149715
0.205102 0.212645 0.213654
0.101011 0.101520 0.103369
0.138309 0.139335 0.140460
0.206098 0.206578 0.206728
0.231938 0.233430 0.235184
0.271138 0.269370 0.255858
0.139257 0.138480 0.139114
0.150396 0.150247 0.149957
0.153398 0.153731 0.153571
0.234249 0.253238 0.256389
0.183113 0.183030 0.181204
0.132169 0.134934 0.134609
0.191609 0.191768 0.191682
0.162924 0.163320 0.163588
0.239876 0.228508 0.228458
0.155945 0.155920 0.155478
0.098635 0.098143 0.098177
0.124320 0.124847 0.124885
0.157614 0.156718 0.157038
0.224942 0.228135 0.228406
0.142590 0.143216 0.142859
0.109133 0.108586 0.108669
0.152867 0.153918 0.154776
0.155726 0.155266 0.154544
0.155644 0.152560 0.152136
0.192500 0.192925 0.192634
0.170048 0.173001 0.173046
0.112570 0.113345 0.112772
0.152371 0.152498 0.152269
0.110642 0.106542 0.106320
0.234976 0.236859 0.238170
0.231249 0.230827 0.229991
0.138284 0.138215 0.138495
0.146841 0.146569 0.146886
0.185377 0.187417 0.187829
0.252370 0.252975 0.254530
0.111224 0.109491 0.109543
0.179034 0.178586 0.178623
0.147475 0.146834 0.146977
0.227899 0.225721 0.225943
0.163169 0.162011 0.156437
0.146903 0.149274 0.166378
0.179635 0.179891 0.180124
0.233770 0.237638 0.239945
0.260725 0.260485 0.259943
0.226302 0.226036 0.225850
0.155265 0.154975 0.154995
0.161031 0.164365 0.164311
0.233640 0.232824 0.232667
0.191801 0.191587 0.192582
0.268454 0.268457 0.268918
0.134789 0.135114 0.134088
0.239602 0.236009 0.236469
0.179838 0.179423 0.179320
0.240429 0.240787 0.241774
0.179533 0.221737 0.223968
0.182240 0.184521 0.189365
0.167487 0.167918 0.167486
0.106328 0.105726 0.105152
0.167654 0.160243 0.158982
0.119046 0.118503 0.118099
0.112981 0.112660 0.112774
0.125947 0.126013 0.122793
0.122468 0.122287 0.121712
0.111982 0.110427 0.110254
0.206276 0.206002 0.206186
0.212063 0.211685 0.208023
0.101994 0.102521 0.102159
0.113282 0.113036 0.112768
0.198897 0.198845 0.200293
0.137659 0.137152 0.137117
0.098831 0.098864 0.098836
0.183111 0.182153 0.181035
0.124896 0.124899 0.124474
0.116307 0.116695 0.116504
0.256490 0.256260 0.253665
0.235556 0.234958 0.226467
0.243573 0.244401 0.243962
0.111895 0.111888 0.111031
0.140688 0.141381 0.140334
0.249191 0.250217 0.255282
0.269207 0.272539 0.273600
0.254167 0.253386 0.254887
0.255978 0.255437 0.254639
0.134818 0.134211 0.133942
0.260800 0.256186 0.262227
0.249384 0.247098 0.247686
0.122604 0.132922 0.134073
0.113502 0.113292 0.112883
0.167225 0.172393 0.171970
0.139060 0.139251 0.139140
0.143291 0.143443 0.143467
0.164675 0.165243 0.165609
0.205270 0.205080 0.204824
0.141983 0.140313 0.140553
0.278669 0.278769 0.278850
0.208862 0.211271 0.210406
0.257634 0.258129 0.256956
0.188599 0.188546 0.188660
0.263386 0.264813 0.264525
0.179595 0.179006 0.175244
0.105458 0.105500 0.105371
0.250189 0.249291 0.249639
0.170508 0.170276 0.168758
0.129627 0.130661 0.130302
0.100125 0.100559 0.099766
0.187208 0.186162 0.186756
0.207012 0.207202 0.207591
0.208342 0.204054 0.200628
0.155413 0.155601 0.155151
0.109092 0.109236 0.109420
0.146495 0.147819 0.147405
0.117438 0.114541 0.114000
0.100931 0.100644 0.101893
0.143601 0.144065 0.143302
0.119589 0.119532 0.119719
0.119702 0.119598 0.119470
0.179725 0.177294 0.177093
0.157742 0.157066 0.158257
0.177995 0.178293 0.178463
0.139767 0.140300 0.140802
0.132312 0.132622 0.131827
0.153158 0.153558 0.154824
0.144090 0.145259 0.146262
0.096927 0.097157 0.097234
0.190630 0.190386 0.187388
0.241955 0.244767 0.244824
0.153806 0.152877 0.153864
0.129794 0.129820 0.129519
0.123261 0.122711 0.122588
0.115682 0.115011 0.113303
0.159219 0.158961 0.156212
0.164521 0.164366 0.164085
0.117741 0.117239 0.117118
0.208998 0.204322 0.204123
0.159619 0.158734 0.156512
0.162978 0.162362 0.166306
0.273038 0.273238 0.273161
0.107391 0.106646 0.106599
0.112445 0.113179 0.115572
0.215911 0.216180 0.214635
0.187107 0.188570 0.189045
0.102549 0.102432 0.102680
0.126619 0.126337 0.129598
0.118229 0.119059 0.118556
0.102348 0.100883 0.102445
0.094139 0.093308 0.091227
0.279034 0.276794 0.277360
0.162229 0.162437 0.162756
0.199569 0.203307 0.203069
0.108794 0.108785 0.109767
0.180117 0.180170 0.178684
0.170875 0.170432 0.170557
0.111466 0.111465 0.111018
0.183913 0.187430 0.190918
0.181681 0.179799 0.174466
0.233814 0.233878 0.233926
0.097254 0.097409 0.097266
0.126084 0.123129 0.122740
0.229459 0.230327 0.232787
0.276052 0.274758 0.272660
0.176959 0.176884 0.177243
0.257023 0.255578 0.257258
0.111855 0.111724 0.111236
0.103580 0.103136 0.103418
0.132940 0.133150 0.135646
0.260604 0.265682 0.269205
0.107917 0.107966 0.108056
0.136131 0.135601 0.135794
0.141298 0.140990 0.140711
0.204489 0.203421 0.203933
0.108924 0.109884 0.110349
0.167367 0.166850 0.172284
0.268860 0.236552 0.237419
0.111426 0.110121 0.109778
0.111340 0.110361 0.110205
0.142071 0.142638 0.141935
0.189672 0.186343 0.185510
0.096684 0.097153 0.097905
0.194862 0.195477 0.194886
0.134276 0.130923 0.131474
0.152291 0.152422 0.153149
0.165800 0.165537 0.164654
0.111158 0.111673 0.112821
0.101827 0.101915 0.103503
0.110715 0.110747 0.110264
0.276415 0.278012 0.278248
0.093147 0.093636 0.094131
0.124782 0.124235 0.126136
0.184671 0.185162 0.195851
0.113001 0.112654 0.112908
0.181074 0.180853 0.179262
0.260026 0.260029 0.259110
0.118115 0.117576 0.116088
0.185821 0.186208 0.168882
0.137626 0.135769 0.135499
0.156885 0.160436 0.160763
0.264127 0.265106 0.260026
0.098320 0.098183 0.098604
0.161607 0.162358 0.162452
0.193810 0.213529 0.215879
0.157072 0.157259 0.157446
0.113162 0.113038 0.113061
0.108951 0.107262 0.107315
0.119271 0.119098 0.119113
0.187287 0.189099 0.192558
0.133358 0.132472 0.132420
0.111082 0.111615 0.113205
0.246159 0.246747 0.244169
0.102396 0.102802 0.103132
0.109611 0.109150 0.109581
0.233364 0.232999 0.240214
0.115174 0.114849 0.113574
0.179661 0.179695 0.180199
0.095807 0.094878 0.095840
0.113674 0.113713 0.113905
0.112555 0.111944 0.114522
0.249581 0.238082 0.233123
0.108298 0.108798 0.109086
0.141779 0.141618 0.142224
0.196928 0.197542 0.197792
0.179294 0.181101 0.182048
0.110242 0.110211 0.110096
0.094245 0.094483 0.094832
0.128207 0.128080 0.128187
0.172138 0.172464 0.172272
0.172956 0.173689 0.172725
0.232858 0.220105 0.220035
0.106423 0.106421 0.106591
0.106168 0.106135 0.106299
0.119362 0.119721 0.121123
0.110602 0.111836 0.119687
0.122357 0.121523 0.119525
0.170059 0.169348 0.163550
0.162181 0.161840 0.161529
0.206489 0.206556 0.206408
0.101687 0.100574 0.100450
0.154399 0.153847 0.149049
0.177120 0.177899 0.176759
0.112210 0.112172 0.111993
0.165886 0.165470 0.165273
0.152462 0.152081 0.150878
0.194931 0.193043 0.192142
0.104192 0.104395 0.106804
0.164952 0.165356 0.164675
0.190695 0.190444 0.189054
0.173673 0.173248 0.174862
0.224035 0.223818 0.222221
0.142635 0.143972 0.143337
0.188423 0.188828 0.188922
0.235322 0.235346 0.235530
0.121591 0.120707 0.120643
0.108998 0.109974 0.110069
0.157461 0.156728 0.154082
0.179450 0.181040 0.179392
0.134529 0.133645 0.132950
0.171337 0.171826 0.173911
0.144053 0.142282 0.143196
0.101278 0.102507 0.102625
0.130369 0.130963 0.130710
0.169076 0.165778 0.158591
0.237636 0.237185 0.236953
0.145860 0.146395 0.145228
0.165583 0.162924 0.162565
0.118050 0.117632 0.116315
0.252561 0.253539 0.253014
0.188668 0.188704 0.188505
0.160848 0.162208 0.162852
0.230208 0.244666 0.245863
0.130429 0.130666 0.152118
0.236888 0.238359 0.238747
0.179287 0.180741 0.181977
0.172367 0.172041 0.174214
0.168575 0.168214 0.167680
0.163625 0.163988 0.164292
0.103005 0.103539 0.103630
0.119673 0.119699 0.119906
0.135739 0.133088 0.132066
0.139093 0.137035 0.136834
0.106291 0.106038 0.105650
0.172222 0.172820 0.175015
0.143545 0.143266 0.143585
0.270551 0.270863 0.270677
0.178626 0.173430 0.172225
0.099303 0.099721 0.099860
0.137371 0.135958 0.133207
0.116441 0.117086 0.117981
0.202251 0.184878 0.184433
0.102153 0.100724 0.100282
0.110966 0.111118 0.109183
0.099575 0.099352 0.099203
0.143854 0.143991 0.144510
0.157191 0.157042 0.159619
0.267943 0.269167 0.268932
0.165631 0.164810 0.165069
0.146296 0.145643 0.144489
0.231484 0.231451 0.233580
0.098441 0.098340 0.099266
0.155956 0.155627 0.155955
0.152086 0.152409 0.153349
0.248717 0.248995 0.246655
0.112933 0.112493 0.112612
0.231579 0.231142 0.230801
0.273125 0.272921 0.270999
0.264941 0.264524 0.264864
0.163811 0.164106 0.164289
0.166475 0.166375 0.165666
0.137362 0.138474 0.134419
0.158774 0.158694 0.158652
0.186945 0.187242 0.187242
0.134436 0.133924 0.132981
0.253222 0.253655 0.256983
0.107484 0.106461 0.106238
0.097562 0.098800 0.099546
0.094192 0.094067 0.093212
0.182788 0.183301 0.182177
0.157802 0.158585 0.159522
0.111927 0.113000 0.113088
0.095723 0.095729 0.095783
0.169729 0.165626 0.162536
0.161140 0.161364 0.161576
0.123164 0.122553 0.122665
0.203495 0.203535 0.203587
0.162293 0.162631 0.160643
0.103680 0.103773 0.104103
0.130844 0.131725 0.131276
0.138194 0.138066 0.138445
0.236152 0.234289 0.234053
0.224527 0.217169 0.214697
0.144661 0.146374 0.147580
0.208596 0.209442 0.210857
0.247686 0.247612 0.247038
0.186605 0.188720 0.189064
0.151398 0.151672 0.151872
0.137494 0.137600 0.137652
0.141858 0.141125 0.142111
0.217954 0.218053 0.220012
0.109099 0.109237 0.109117
0.168705 0.169127 0.169613
0.136032 0.135284 0.135623
0.096364 0.096338 0.096236
0.240628 0.242341 0.244526
0.194207 0.194453 0.194496
0.096311 0.096645 0.097649
0.190475 0.190512 0.191096
0.098000 0.097864 0.097735
0.110483 0.110374 0.110306
0.133618 0.134967 0.135730
0.132595 0.132404 0.132410
0.212379 0.212176 0.212273
0.153201 0.152120 0.152715
0.249271 0.252351 0.252529
0.132962 0.133173 0.135551
0.095837 0.095030 0.095048
0.176438 0.176945 0.176783
0.099824 0.100125 0.100559
0.118706 0.118211 0.117642
0.111665 0.111745 0.110916
0.146718 0.147169 0.151456
0.141542 0.141266 0.140009
0.197443 0.203510 0.194461
0.113797 0.113363 0.112450
0.144962 0.146423 0.146843
0.102810 0.102807 0.102984
0.212891 0.213807 0.213603
0.249181 0.249093 0.248809
0.229782 0.229977 0.230008
0.169627 0.167428 0.166879
0.253333 0.251495 0.250893
0.134231 0.133970 0.132971
0.184291 0.186103 0.185900
0.113034 0.112994 0.110144
0.175539 0.175201 0.175063
0.173906 0.175400 0.178658
0.109428 0.109294 0.109381
0.205810 0.205667 0.206118
0.165980 0.166075 0.168018
0.132993 0.133417 0.133521
0.200396 0.200488 0.200547
0.179284 0.178708 0.177661
0.168030 0.163039 0.162034
0.163240 0.165027 0.169939
0.221156 0.218848 0.218459
0.204751 0.207848 0.210317
0.188643 0.188805 0.190102
0.171650 0.174921 0.175602
0.253842 0.254654 0.255011
0.092992 0.093639 0.093750
0.144657 0.145433 0.158847
0.253577 0.253608 0.253668
0.112557 0.110669 0.110032
0.187221 0.186928 0.186369
0.109709 0.110326 0.110721
0.260893 0.261003 0.261101
0.272976 0.273301 0.273115
0.111803 0.111976 0.111931
0.134493 0.133876 0.136330
0.241011 0.240767 0.241243
0.139131 0.137969 0.138060
0.243432 0.243398 0.243390
0.261496 0.261434 0.262087
0.261762 0.261589 0.261459
0.169875 0.177015 0.176862
0.121786 0.121558 0.121805
0.108332 0.107800 0.107677
0.206179 0.206102 0.206025
0.171891 0.172013 0.171930
0.116690 0.116307 0.115718
0.185991 0.185444 0.182146
0.235692 0.234010 0.234327
0.099264 0.099460 0.100330
0.113729 0.113519 0.112710
0.123008 0.123116 0.123658
0.159816 0.157048 0.155976
0.134068 0.134187 0.132217
