0.316734 0.316838 0.319926
0.278171 0.279483 0.280544
0.339489 0.340703 0.338654
0.292279 0.292179 0.291161
0.273726 0.274690 0.272405
0.251081 0.246750 0.244529
0.370041 0.370412 0.370196
0.315200 0.315476 0.314570
0.229263 0.229231 0.227172
0.273465 0.272924 0.266391
0.250643 0.249379 0.248673
0.296150 0.297807 0.298046
0.298181 0.298217 0.299039
0.231134 0.228973 0.220838
0.254899 0.249874 0.249955
0.332176 0.334141 0.331171
0.271648 0.267314 0.265511
0.316818 0.311728 0.313289
0.373651 0.369985 0.369448
0.259390 0.259080 0.258826
0.243952 0.245343 0.251183
0.271076 0.270141 0.260188
0.226390 0.228834 0.229140
0.260894 0.260030 0.260858
0.297339 0.296745 0.299319
0.250185 0.249894 0.249748
0.292220 0.295171 0.294582
0.281354 0.280703 0.279530
0.270414 0.268999 0.271368
0.287662 0.287647 0.287991
0.276311 0.278391 0.279232
0.253036 0.252523 0.252630
0.293815 0.292585 0.291302
0.249989 0.247508 0.247093
0.246584 0.247452 0.247441
0.290365 0.290620 0.290673
0.322513 0.322732 0.321096
0.311755 0.312512 0.313701
0.241049 0.241343 0.237629
0.295252 0.292718 0.296035
0.264084 0.265330 0.265954
0.246038 0.248436 0.248617
0.314371 0.313086 0.312257
0.229658 0.228357 0.227772
0.326290 0.326573 0.324925
0.234394 0.229605 0.228145
0.308848 0.316294 0.315927
0.270889 0.273419 0.273546
0.305140 0.304225 0.301536
0.332037 0.329879 0.330241
0.262714 0.261748 0.256786
0.230944 0.229254 0.224660
0.235513 0.233691 0.230438
0.268418 0.267496 0.262504
0.224296 0.225588 0.226913
0.231911 0.234512 0.234005
0.214975 0.214962 0.218003
0.263341 0.265146 0.289960
0.229694 0.228959 0.229355
0.229389 0.229264 0.229363
0.258042 0.259310 0.259224
0.284761 0.286395 0.289104
0.286051 0.288538 0.291576
0.313222 0.314761 0.347642
0.200847 0.200606 0.201128
0.297931 0.297481 0.296990
0.267132 0.265818 0.269596
0.325104 0.325756 0.327894
0.276547 0.267669 0.265972
0.269812 0.277366 0.296700
0.337927 0.338328 0.341131
0.320065 0.320354 0.320403
0.288701 0.288928 0.293895
0.307388 0.312801 0.313301
0.281248 0.278757 0.276730
0.256569 0.257186 0.258428
0.259804 0.261721 0.263676
0.300153 0.299587 0.299077
0.265498 0.267486 0.267339
0.301575 0.299770 0.299987
0.341196 0.335090 0.328418
0.235545 0.235501 0.235747
0.299146 0.299187 0.299238
0.250521 0.248864 0.248453
0.324554 0.326323 0.327755
0.277029 0.282066 0.283584
0.279535 0.283967 0.285880
0.244784 0.246033 0.256370
0.248888 0.250070 0.249833
0.309274 0.310200 0.315031
0.238303 0.237911 0.237276
0.241201 0.241144 0.240852
0.224022 0.231778 0.235452
0.287534 0.286241 0.284492
0.335865 0.335765 0.334889
0.283978 0.282478 0.280991
0.299676 0.301511 0.302756
0.297412 0.297220 0.296305
0.314445 0.309774 0.306950
0.356466 0.359330 0.359601
0.313050 0.320737 0.321822
0.257306 0.260524 0.289328
0.314484 0.315393 0.316374
0.223270 0.226495 0.226726
0.280292 0.275791 0.274687
0.286156 0.285416 0.294527
0.333053 0.336496 0.346749
0.266243 0.266192 0.266125
0.331311 0.331387 0.332153
0.225889 0.226805 0.228474
0.238442 0.239134 0.239203
0.272549 0.273340 0.271444
0.222509 0.222484 0.223173
0.275054 0.278125 0.280232
0.227357 0.227460 0.228485
0.308403 0.300877 0.300150
0.284985 0.285437 0.286403
0.269067 0.269847 0.268886
0.209403 0.209941 0.210512
0.268937 0.269525 0.269380
0.235538 0.235887 0.235539
0.249827 0.249554 0.248353
0.286093 0.283777 0.282413
0.226324 0.225885 0.224531
0.250845 0.250539 0.249853
0.316139 0.313678 0.312290
0.335887 0.336401 0.337015
0.232863 0.232835 0.232907
0.243250 0.243971 0.245091
0.378225 0.379041 0.379046
0.248460 0.248622 0.248132
0.243924 0.244342 0.244323
0.265395 0.268703 0.268886
0.253481 0.257017 0.259862
0.234973 0.234843 0.235221
0.298592 0.299248 0.299044
0.368946 0.368284 0.368241
0.289267 0.291012 0.295090
0.269921 0.271546 0.271437
0.346825 0.341275 0.336440
0.258357 0.257361 0.255631
0.232345 0.232844 0.232741
0.236136 0.234758 0.229684
0.265353 0.266661 0.268282
0.249081 0.248021 0.247981
0.319569 0.318694 0.318114
0.216773 0.216633 0.217224
0.270935 0.271685 0.272237
0.234955 0.234914 0.235436
0.316067 0.311926 0.313259
0.212332 0.214803 0.214918
0.253744 0.256440 0.261975
0.276841 0.277997 0.280016
0.270648 0.266545 0.271442
0.249160 0.249604 0.249253
0.218408 0.217879 0.217292
0.265679 0.261234 0.261168
0.278900 0.276333 0.277402
0.252816 0.254425 0.254011
0.315303 0.313144 0.316991
0.233917 0.238087 0.259945
0.325958 0.327066 0.324796
0.337409 0.336263 0.338001
0.330208 0.330757 0.330662
0.246332 0.247489 0.247345
0.219246 0.218033 0.218596
0.267474 0.260102 0.261929
0.296318 0.297817 0.297432
0.277149 0.277340 0.276633
0.266350 0.267249 0.267476
0.311009 0.310522 0.310105
0.254288 0.254397 0.257039
0.223849 0.224726 0.225469
0.220490 0.224549 0.227322
0.274538 0.279775 0.281172
0.239352 0.239845 0.237599
0.278272 0.257336 0.248340
0.305005 0.303765 0.304303
0.320514 0.320083 0.320200
0.234230 0.233155 0.230050
0.374675 0.370529 0.364900
0.234312 0.234235 0.234624
0.280639 0.282956 0.283336
0.285351 0.287980 0.285844
0.421445 0.411514 0.412447
0.311937 0.316647 0.318273
0.244178 0.245297 0.245871
0.243670 0.248850 0.249644
0.287716 0.287434 0.286959
0.271523 0.271266 0.272554
0.299093 0.299082 0.299069
0.272321 0.272971 0.272781
0.221625 0.223071 0.225750
0.242008 0.241626 0.241157
0.273317 0.273438 0.274637
0.370858 0.374314 0.374971
0.282480 0.286235 0.286462
0.278665 0.276340 0.275126
0.322387 0.321333 0.316487
0.248874 0.247870 0.247756
0.219226 0.218521 0.224780
0.309103 0.310334 0.313578
0.302675 0.302517 0.302222
0.239808 0.241264 0.242112
0.272318 0.272613 0.272337
0.265959 0.265060 0.265091
0.318167 0.315637 0.316251
0.279271 0.282839 0.285145
0.227143 0.229346 0.240731
0.357973 0.357318 0.357285
0.312844 0.312423 0.312057
0.348300 0.348524 0.348999
0.313615 0.315005 0.315315
0.263039 0.260562 0.255919
0.222663 0.224036 0.224497
0.284257 0.288353 0.287461
0.330274 0.328485 0.321027
0.281433 0.281475 0.280911
0.238856 0.238879 0.238897
0.305317 0.300259 0.300470
0.247549 0.247826 0.248622
0.279246 0.280814 0.284257
0.287672 0.287616 0.287126
0.243440 0.243124 0.243017
0.286231 0.293942 0.294854
0.276944 0.280437 0.284103
0.337036 0.335538 0.339550
0.241377 0.242517 0.244689
0.378649 0.376712 0.377532
0.246871 0.245904 0.244852
0.369099 0.369299 0.368610
0.249419 0.249619 0.249711
0.250808 0.248565 0.247309
0.232229 0.233483 0.233539
0.332931 0.331634 0.329030
0.404871 0.422186 0.413119
0.258838 0.259563 0.260178
0.372082 0.371198 0.369300
0.243020 0.242647 0.243365
0.276003 0.275856 0.276108
0.271273 0.270600 0.271141
0.302487 0.303521 0.304170
0.315723 0.313411 0.311700
0.298790 0.300018 0.305912
0.263173 0.263386 0.263417
0.203294 0.202849 0.202676
0.295679 0.298081 0.302316
0.259487 0.258962 0.249278
0.237529 0.241802 0.241064
0.289599 0.287229 0.287223
0.306693 0.302397 0.300261
0.277510 0.275328 0.273604
0.261272 0.262355 0.262930
0.270882 0.271664 0.271343
0.306851 0.304640 0.305084
0.276694 0.277959 0.281417
0.330697 0.330985 0.332353
0.375918 0.376913 0.377341
0.210376 0.211091 0.211067
0.233859 0.232073 0.228210
0.267404 0.266620 0.267038
0.259083 0.259324 0.260531
0.292000 0.291528 0.289803
0.253012 0.254694 0.253916
0.244203 0.246742 0.249116
0.307762 0.307722 0.307732
0.375391 0.363132 0.335347
0.228836 0.228252 0.225969
0.245310 0.245049 0.245839
0.376951 0.376681 0.375537
0.274040 0.274387 0.280375
0.280427 0.276920 0.277342
0.232193 0.231722 0.227565
0.279345 0.278993 0.277337
0.263545 0.263180 0.262393
0.273315 0.266078 0.262640
0.278642 0.280599 0.282340
0.254146 0.255780 0.256487
0.277786 0.278390 0.281233
0.245192 0.244846 0.244014
0.255089 0.256036 0.257060
0.293895 0.289737 0.287622
0.258510 0.259379 0.261038
0.245049 0.245839 0.245898
0.366953 0.356898 0.354041
0.335003 0.330214 0.329929
0.286098 0.276724 0.283905
0.302679 0.304138 0.306829
0.226089 0.224333 0.224418
0.240454 0.242133 0.244285
0.258066 0.255591 0.250426
0.245863 0.245877 0.245917
0.290194 0.290153 0.293386
0.286851 0.285667 0.280774
0.250219 0.253849 0.245017
0.282282 0.281173 0.277139
0.282766 0.281083 0.267075
0.223955 0.223626 0.222466
0.285136 0.285031 0.283841
0.264859 0.264425 0.260845
0.220595 0.208079 0.207679
0.239013 0.240837 0.242911
0.257939 0.255315 0.252112
0.240436 0.244275 0.244032
0.291167 0.290057 0.288331
0.303767 0.303284 0.302870
0.236284 0.237902 0.238472
0.291570 0.290364 0.292582
0.267051 0.261411 0.261226
0.241215 0.247084 0.257705
0.300616 0.298866 0.300113
0.326004 0.330433 0.337740
0.303246 0.302287 0.300837
0.261805 0.261639 0.260067
0.311520 0.311468 0.312788
0.257448 0.255864 0.247666
0.259039 0.258981 0.259919
0.311898 0.311826 0.311963
0.352153 0.350922 0.351784
0.278948 0.278102 0.278497
0.273306 0.272225 0.271384
0.314297 0.316042 0.317076
0.341105 0.341679 0.341973
0.313521 0.312065 0.312367
0.287143 0.283959 0.279535
0.275889 0.276209 0.277213
0.338105 0.335316 0.333514
0.238395 0.229726 0.233019
0.286247 0.285684 0.285714
0.351188 0.348158 0.341390
0.308076 0.311320 0.312942
0.213853 0.213988 0.213964
0.250712 0.250005 0.224740
0.312657 0.312258 0.311809
0.298032 0.297643 0.294682
0.308781 0.309251 0.309351
0.277765 0.277968 0.277686
0.281773 0.282738 0.283688
0.249003 0.248131 0.248384
0.228311 0.230484 0.231051
0.214537 0.215506 0.215731
0.310067 0.310048 0.310159
0.325458 0.329316 0.328981
0.312589 0.309232 0.306660
0.253839 0.253036 0.252523
0.285836 0.284173 0.283997
0.282231 0.279813 0.279988
0.269440 0.268947 0.269403
0.328822 0.328530 0.327974
0.293817 0.300107 0.301553
0.241531 0.241773 0.242071
0.256591 0.257427 0.256876
0.312574 0.312298 0.311738
0.245853 0.245743 0.246727
0.252248 0.252270 0.252740
0.253525 0.254009 0.254071
0.300094 0.300840 0.297160
0.289806 0.292286 0.293895
0.243405 0.245941 0.245656
0.271790 0.272052 0.271031
0.287521 0.286963 0.290516
0.234744 0.239562 0.244253
0.255462 0.262181 0.262466
0.317362 0.318284 0.318084
0.346869 0.345526 0.328840
0.285902 0.285680 0.286023
0.379005 0.379028 0.379256
0.263380 0.263912 0.263213
0.305526 0.305797 0.306205
0.271437 0.272898 0.273058
0.266541 0.257221 0.257226
0.297369 0.297285 0.297112
0.233402 0.234535 0.234113
0.307046 0.307512 0.305882
0.313276 0.315130 0.315498
0.376556 0.375637 0.373685
0.242290 0.243222 0.244102
0.323921 0.324105 0.321343
0.277709 0.281257 0.281112
0.301893 0.301185 0.303098
0.273412 0.277029 0.272210
0.332148 0.332400 0.332978
0.259726 0.258096 0.257489
0.234439 0.234384 0.233672
0.213850 0.213969 0.213967
0.262571 0.263096 0.261762
0.304533 0.299878 0.297176
0.257485 0.248499 0.246010
0.240298 0.240480 0.239798
0.259784 0.264705 0.264671
0.281925 0.278947 0.277510
0.377797 0.369993 0.370383
0.276872 0.277255 0.277516
0.238427 0.239587 0.240579
0.260371 0.263644 0.266808
0.297109 0.297755 0.298086
0.251029 0.266831 0.271606
0.354863 0.353588 0.352153
0.271966 0.274171 0.272474
0.277501 0.277280 0.277264
0.323844 0.324037 0.324233
0.266632 0.261225 0.256139
0.299699 0.298850 0.296509
0.290045 0.290333 0.289063
0.345748 0.343113 0.342142
0.230377 0.230452 0.231249
0.300149 0.299206 0.299734
0.294804 0.295701 0.295831
0.319127 0.338546 0.341105
0.223215 0.224377 0.225440
0.233425 0.234459 0.234293
0.260596 0.258427 0.257078
0.268121 0.262963 0.261289
0.223062 0.223496 0.221579
0.285868 0.288206 0.288313
0.279955 0.276606 0.277474
0.336012 0.333040 0.333986
0.360981 0.360259 0.358329
0.258538 0.260291 0.260557
0.264174 0.267138 0.269847
0.295555 0.291437 0.291236
0.247854 0.248064 0.247607
0.273763 0.275573 0.276650
0.310936 0.310054 0.310790
0.227691 0.227005 0.226873
0.257864 0.258666 0.257939
0.246911 0.247216 0.247326
0.241760 0.242298 0.241829
0.268917 0.268635 0.266999
0.219110 0.217244 0.216584
0.247019 0.248068 0.249246
0.309587 0.309621 0.309729
0.237039 0.239538 0.240211
0.232563 0.233460 0.234436
0.245921 0.246558 0.248836
0.289888 0.287716 0.297756
0.317053 0.317273 0.318032
0.264116 0.265824 0.266501
0.273883 0.278856 0.279877
0.271646 0.271093 0.272016
0.302159 0.301271 0.302038
0.302441 0.303469 0.303270
0.216312 0.215977 0.216270
0.225884 0.225341 0.225886
0.319428 0.301739 0.303108
0.298871 0.299020 0.299103
0.245634 0.248100 0.250183
0.291817 0.292751 0.297066
0.229627 0.234485 0.234664
0.221523 0.222030 0.221892
0.214487 0.214275 0.213000
0.264962 0.264403 0.257291
0.283488 0.284656 0.275282
0.302628 0.308647 0.307534
0.270290 0.274623 0.278369
0.235244 0.235268 0.235409
0.292572 0.292544 0.293116
0.302467 0.304850 0.309861
0.326685 0.326895 0.327284
0.354908 0.353928 0.352146
0.317968 0.319710 0.319649
0.246638 0.247045 0.247364
0.305489 0.309694 0.312555
0.245227 0.244299 0.242205
0.227995 0.228150 0.228671
0.336603 0.333991 0.330686
0.334926 0.337744 0.338142
0.369463 0.369203 0.353612
0.210724 0.211412 0.210240
0.283853 0.280003 0.294934
0.270456 0.266374 0.265863
0.308574 0.307201 0.310185
0.289156 0.288623 0.288699
0.316284 0.320384 0.322891
0.316199 0.315973 0.313316
0.244685 0.244865 0.244590
0.305768 0.306760 0.304052
0.233853 0.235716 0.235536
0.415466 0.420641 0.420901
0.309696 0.310296 0.310907
0.240605 0.230601 0.228350
0.253427 0.252398 0.252122
0.248439 0.248497 0.248080
0.421768 0.421825 0.421689
0.265473 0.269047 0.269508
0.309707 0.310802 0.316601
0.252631 0.252227 0.251540
0.272768 0.269554 0.268827
0.274687 0.273894 0.273465
0.245272 0.244203 0.243338
0.337345 0.342968 0.347365
0.241432 0.248320 0.249022
0.270068 0.268661 0.268135
0.287202 0.285908 0.285624
0.351885 0.351659 0.350352
0.336007 0.319773 0.312721
0.247644 0.247086 0.246804
0.329277 0.329375 0.329613
0.305214 0.307391 0.308300
0.390032 0.384996 0.384884
0.291720 0.288288 0.284778
0.281184 0.279870 0.280516
0.246776 0.246368 0.229023
0.367121 0.367213 0.372987
0.256457 0.262663 0.262923
0.291512 0.291482 0.292945
0.299057 0.291140 0.271571
0.241768 0.242022 0.242246
0.297342 0.300032 0.300416
0.270052 0.269853 0.270827
0.336401 0.337015 0.341148
0.268425 0.264900 0.264869
0.311872 0.311880 0.311922
0.254248 0.246245 0.246274
0.432256 0.432388 0.432615
0.260559 0.259632 0.261836
0.395091 0.397769 0.393255
0.284455 0.284338 0.282879
0.262996 0.264757 0.269112
0.218645 0.228055 0.228481
0.288532 0.290525 0.286586
0.277121 0.277116 0.269730
0.269071 0.264880 0.260765
0.334844 0.340076 0.339689
0.293846 0.291007 0.290187
0.350246 0.350477 0.350469
0.221504 0.221567 0.220969
0.266631 0.265583 0.263122
0.318777 0.319351 0.325104
0.273019 0.272515 0.272704
0.242298 0.242274 0.242986
0.286230 0.290297 0.290535
0.257681 0.260591 0.272382
0.274522 0.273070 0.272062
0.301689 0.301605 0.301134
0.235194 0.235396 0.235972
0.261474 0.263120 0.265390
0.299415 0.299769 0.300807
0.245009 0.241557 0.240488
0.322721 0.323988 0.324058
0.285905 0.283829 0.274083
0.251297 0.250610 0.250006
0.246316 0.246608 0.246883
0.299753 0.301829 0.300696
0.243190 0.243354 0.248724
0.255373 0.256817 0.257139
0.301779 0.302440 0.303455
0.243616 0.243267 0.242443
0.220190 0.220591 0.220360
0.311815 0.311469 0.311083
0.237712 0.233194 0.232079
0.322285 0.322260 0.320435
0.247590 0.248159 0.247112
0.293829 0.294324 0.294723
0.259350 0.258948 0.258306
0.306855 0.307464 0.308529
0.265929 0.263771 0.255587
0.272519 0.272825 0.277030
0.236497 0.233903 0.230778
0.274014 0.270990 0.269163
0.298240 0.292487 0.291383
0.255426 0.256193 0.256625
0.255930 0.255238 0.255555
0.260297 0.259916 0.261011
0.312668 0.312739 0.310843
0.260737 0.260995 0.260494
0.231583 0.231765 0.231796
0.228931 0.229220 0.228952
0.238087 0.259945 0.260292
0.376393 0.376011 0.373170
0.231374 0.230205 0.228726
0.318004 0.326406 0.328618
0.248644 0.249170 0.251768
0.292934 0.293923 0.295242
0.335710 0.335766 0.335069
0.228798 0.228769 0.228749
0.281296 0.283082 0.283363
0.278475 0.274261 0.273046
0.265867 0.271411 0.271561
0.282254 0.284261 0.284635
0.296481 0.291461 0.289267
0.376461 0.376471 0.376389
0.270505 0.263793 0.264083
0.229048 0.228444 0.227115
0.271703 0.273328 0.273746
0.331605 0.334066 0.334641
0.280487 0.281505 0.288715
0.313464 0.312809 0.313261
0.321212 0.321839 0.324926
0.295280 0.295046 0.300687
0.298807 0.299903 0.300608
0.240416 0.240761 0.245189
0.302745 0.302764 0.302550
0.260102 0.257587 0.257950
0.246361 0.243419 0.242930
0.247115 0.241935 0.237374
0.251629 0.252491 0.254380
0.275699 0.271490 0.271399
0.298025 0.299803 0.300749
0.244032 0.244229 0.245330
0.286341 0.284821 0.283908
0.226237 0.224782 0.225015
0.261103 0.260950 0.257142
0.259586 0.262254 0.263957
0.241448 0.241353 0.241379
0.306595 0.312582 0.313981
0.215224 0.214816 0.214341
0.248167 0.237900 0.235708
0.241205 0.241210 0.241686
0.239346 0.237521 0.237295
0.271393 0.276280 0.277376
0.228453 0.229082 0.229536
0.225942 0.228772 0.232648
0.234303 0.233198 0.233457
0.254607 0.255265 0.253381
0.228145 0.226965 0.226253
0.235434 0.236033 0.236374
0.222005 0.215536 0.215217
0.313856 0.313704 0.313481
0.330827 0.328209 0.326353
0.241544 0.241362 0.241731
0.298776 0.298908 0.299110
0.290900 0.287851 0.281629
0.236129 0.236519 0.237354
0.255332 0.248274 0.245796
0.338720 0.338555 0.338413
0.299878 0.299650 0.298743
0.220049 0.221511 0.223034
0.229232 0.228614 0.221092
0.241121 0.242135 0.248673
0.269522 0.272362 0.271828
0.268556 0.265356 0.265055
0.293932 0.294433 0.294678
0.213610 0.214018 0.213920
0.221383 0.221345 0.221287
0.251292 0.251266 0.247569
0.259625 0.259229 0.259479
0.351460 0.352044 0.352763
0.278608 0.278746 0.278336
0.221894 0.221921 0.221914
0.274755 0.275398 0.277430
0.269039 0.269271 0.268106
0.393936 0.399098 0.401010
0.298156 0.302372 0.303999
0.244865 0.244713 0.245772
0.238607 0.236647 0.235167
0.246286 0.245200 0.243734
0.249530 0.250213 0.250326
0.254055 0.255344 0.261235
0.249213 0.251397 0.255047
0.333484 0.331548 0.331028
0.228425 0.227513 0.227490
0.219939 0.223116 0.221721
0.276205 0.268070 0.267590
0.257487 0.257515 0.258227
0.321102 0.321099 0.321183
0.248833 0.247435 0.247903
0.268495 0.268316 0.267617
0.337317 0.336603 0.333991
0.307913 0.307265 0.306078
0.239360 0.238168 0.229861
0.251373 0.250597 0.252114
0.244349 0.243987 0.243883
0.235245 0.234646 0.229658
0.296699 0.295713 0.292518
0.229259 0.229095 0.229771
0.257369 0.256561 0.255134
0.237439 0.232338 0.232044
0.296200 0.294900 0.295135
0.274741 0.273711 0.272845
0.243658 0.242426 0.242080
0.301095 0.300142 0.299215
0.223116 0.228755 0.229057
0.309992 0.307307 0.306883
0.320377 0.319377 0.319045
0.377986 0.376604 0.378027
0.247056 0.246851 0.245313
0.330768 0.332575 0.332767
0.319420 0.322780 0.323023
0.291336 0.278579 0.278269
0.248513 0.241954 0.244729
0.229245 0.229835 0.229541
0.279415 0.281868 0.283082
0.260858 0.261439 0.260637
0.293605 0.291194 0.290913
0.267273 0.269859 0.269982
0.269930 0.270312 0.274443
0.221252 0.220823 0.220654
0.205994 0.205585 0.202022
0.246358 0.245226 0.245486
0.239469 0.238719 0.246381
0.357191 0.358206 0.361439
0.251662 0.245809 0.244786
0.295986 0.294501 0.295418
0.308452 0.306948 0.306873
0.322839 0.320564 0.318577
0.248386 0.248127 0.246175
0.244619 0.244363 0.244057
0.240138 0.242346 0.242453
0.282017 0.282006 0.280429
0.248195 0.248950 0.251243
0.236307 0.237956 0.245327
0.285634 0.286063 0.286231
0.352838 0.353070 0.353270
0.238282 0.238829 0.239947
0.228481 0.229114 0.225830
0.239728 0.239943 0.240123
0.228982 0.227348 0.225895
0.219397 0.218278 0.216715
0.240549 0.240836 0.242615
0.287689 0.283906 0.280649
0.304768 0.303884 0.305397
0.226366 0.226639 0.228101
0.244056 0.243464 0.242004
0.346711 0.342743 0.325533
0.229861 0.234396 0.244776
0.384086 0.385915 0.387218
0.239003 0.239050 0.238875
0.238522 0.240030 0.240870
0.281459 0.279996 0.280031
0.276391 0.276065 0.276106
0.301990 0.302295 0.302275
0.261812 0.261594 0.261029
0.321941 0.321864 0.322056
0.287871 0.287643 0.287683
0.233910 0.233558 0.234655
0.232829 0.231137 0.225457
0.257785 0.257786 0.258493
0.243348 0.244113 0.243339
0.256950 0.258537 0.263068
0.290797 0.292081 0.293239
0.220176 0.225386 0.227342
0.251093 0.250282 0.250432
0.245640 0.245495 0.245768
0.293653 0.294769 0.297927
0.293041 0.297436 0.299609
0.297482 0.297538 0.297312
0.242100 0.237839 0.236330
0.310943 0.314751 0.318974
0.249939 0.243982 0.243482
0.240151 0.240109 0.238762
0.232750 0.233073 0.233074
0.218385 0.217888 0.217712
0.220956 0.217501 0.214682
0.286100 0.289308 0.291136
0.299082 0.298762 0.302732
0.325561 0.325574 0.326265
0.313422 0.309814 0.310208
0.284775 0.285505 0.278747
0.288774 0.289759 0.289691
0.230058 0.241648 0.246060
0.246147 0.246254 0.246431
0.300876 0.299882 0.297170
0.240554 0.238510 0.236795
0.271630 0.270117 0.269026
0.240679 0.232675 0.229953
0.348560 0.348877 0.349598
0.275937 0.275736 0.271301
0.280740 0.280798 0.280350
0.345636 0.346446 0.347031
0.275772 0.276329 0.277327
0.330026 0.328914 0.329102
0.282733 0.302504 0.303418
0.257558 0.265097 0.264569
0.234448 0.234620 0.234265
0.365271 0.361075 0.347048
0.306014 0.305337 0.304998
0.237094 0.237283 0.238341
0.235047 0.234734 0.230907
0.259760 0.259817 0.259687
0.314917 0.314648 0.313339
0.225211 0.225356 0.225495
0.252957 0.253569 0.253045
0.261242 0.260781 0.259362
0.250250 0.265300 0.267715
0.202432 0.203918 0.208793
0.280991 0.279666 0.279128
0.210356 0.211108 0.211205
0.243181 0.242238 0.245842
0.300650 0.300201 0.299390
0.272090 0.273683 0.273290
0.265370 0.264789 0.268312
0.230280 0.237620 0.240262
0.294953 0.291103 0.277648
0.248692 0.248789 0.249835
0.244156 0.243276 0.243403
0.248211 0.250325 0.253480
0.262419 0.255531 0.252790
0.266541 0.266053 0.265526
0.282669 0.289222 0.289564
0.276859 0.276935 0.276572
0.250332 0.250577 0.250652
0.230226 0.236258 0.238120
0.239576 0.238373 0.231116
0.251489 0.250334 0.251930
0.360494 0.355851 0.345036
0.309989 0.308233 0.317672
0.246143 0.246102 0.246440
0.243821 0.239011 0.242829
0.303093 0.303063 0.303506
0.270468 0.270768 0.270952
0.338646 0.338056 0.338853
0.249877 0.249760 0.247226
0.274639 0.276570 0.276299
0.300434 0.300489 0.296529
0.207769 0.206626 0.205846
0.230361 0.231067 0.230775
0.250232 0.249890 0.250029
0.246857 0.246706 0.247397
0.252473 0.253472 0.257624
0.310439 0.310871 0.310176
0.312343 0.312682 0.311994
0.214976 0.216233 0.216261
0.230250 0.230947 0.229365
0.310574 0.310802 0.310094
0.311789 0.316842 0.316929
0.300607 0.300971 0.300932
0.278699 0.277580 0.279186
0.250415 0.250171 0.249491
0.263371 0.263151 0.264058
0.286517 0.286296 0.285535
0.268626 0.267611 0.266442
0.272862 0.270504 0.266052
0.343222 0.346896 0.346517
0.235255 0.235273 0.235422
0.327816 0.334844 0.340076
0.253057 0.253912 0.253758
0.229365 0.225343 0.220640
0.300905 0.298322 0.295914
0.228344 0.226529 0.226086
0.258184 0.257303 0.261826
0.251680 0.251520 0.250185
0.315866 0.315061 0.314758
0.239469 0.237806 0.235685
0.283754 0.286906 0.288701
0.265891 0.265606 0.264868
0.318397 0.318698 0.318167
0.245871 0.246214 0.246676
0.287201 0.285715 0.280787
0.225679 0.222141 0.222467
0.292145 0.291775 0.290689
0.245242 0.244128 0.243479
0.242085 0.241462 0.241076
0.285277 0.287729 0.287022
0.236478 0.250877 0.251197
0.323048 0.321970 0.320318
0.283027 0.283227 0.282674
0.364865 0.362394 0.362532
0.295886 0.296096 0.293211
0.285650 0.286061 0.291853
0.304297 0.305598 0.306182
0.331249 0.332355 0.333643
0.287706 0.290181 0.286475
0.251433 0.252565 0.256473
0.255083 0.254760 0.252141
0.297495 0.297259 0.296673
0.229497 0.230160 0.229263
0.248552 0.243362 0.244408
0.248335 0.247900 0.248804
0.227923 0.228880 0.228774
0.232430 0.232695 0.233152
0.250434 0.248286 0.250849
0.238278 0.238432 0.236372
0.211189 0.211325 0.211675
0.309402 0.290221 0.284687
0.393613 0.380789 0.380583
0.284575 0.285007 0.285028
0.233737 0.231361 0.225884
0.334342 0.335032 0.333805
0.295183 0.297405 0.302456
0.255047 0.255158 0.255163
0.296431 0.296035 0.296290
0.223131 0.223521 0.224880
0.306036 0.304898 0.306281
0.336494 0.336649 0.340438
0.277497 0.278516 0.282498
0.368414 0.367567 0.367025
0.272989 0.273403 0.272835
0.312222 0.312395 0.312143
0.287657 0.290984 0.291315
0.229231 0.227172 0.227324
0.240706 0.240308 0.239650
0.263473 0.266371 0.265861
0.281337 0.280688 0.282895
0.242785 0.243242 0.245411
0.250470 0.250635 0.250518
0.294710 0.292731 0.281948
0.332862 0.332894 0.332060
0.267412 0.268638 0.267788
0.242342 0.242705 0.243091
0.338308 0.328303 0.326287
0.248753 0.250029 0.250032
0.313153 0.311937 0.316647
0.341341 0.340565 0.340643
0.415003 0.414400 0.415466
0.257039 0.257436 0.261878
0.255313 0.255654 0.255452
0.291147 0.299676 0.301511
0.280805 0.282931 0.285026
0.291544 0.294343 0.294175
0.305824 0.304336 0.305884
0.310108 0.309864 0.311035
0.355820 0.356767 0.354863
0.270818 0.271159 0.271618
0.258447 0.259725 0.261031
0.247384 0.250840 0.251340
0.248851 0.249848 0.250620
0.240731 0.242565 0.242114
0.302596 0.304290 0.306535
0.263470 0.263187 0.263037
0.277443 0.276852 0.277215
0.278355 0.279385 0.280672
0.262097 0.261802 0.260734
0.287555 0.286988 0.290515
0.298700 0.298653 0.298158
0.318668 0.323212 0.329303
0.230968 0.229184 0.225637
0.367487 0.364117 0.363495
0.236155 0.236125 0.239787
0.312207 0.317478 0.315150
0.360259 0.358329 0.358031
0.268380 0.264482 0.265638
0.315307 0.313273 0.311865
0.234047 0.233990 0.233862
0.293529 0.294032 0.293317
0.232537 0.239749 0.239803
0.223214 0.223624 0.228305
0.288699 0.288627 0.288683
0.287126 0.285913 0.289342
0.253546 0.253892 0.253996
0.285801 0.285081 0.284853
0.258172 0.273752 0.275838
0.265666 0.268685 0.269017
0.284653 0.284822 0.284105
0.214668 0.213403 0.212462
0.300204 0.292948 0.291154
0.238016 0.237803 0.237604
0.339720 0.337823 0.338921
0.400690 0.398620 0.393613
0.274923 0.276600 0.277390
0.290124 0.290679 0.291091
0.271059 0.270647 0.268326
0.266053 0.266362 0.264449
0.307016 0.312937 0.313600
0.241259 0.235854 0.234856
0.345519 0.346198 0.346283
0.302178 0.312050 0.316081
0.358478 0.369904 0.384068
0.305909 0.305643 0.305997
0.256286 0.256932 0.256401
0.259357 0.262265 0.263112
0.315835 0.317836 0.318636
0.239739 0.240549 0.240836
0.240335 0.240188 0.241670
0.307792 0.321652 0.328973
0.243505 0.243625 0.243700
0.277945 0.279609 0.280650
0.262625 0.262646 0.262927
0.282674 0.287058 0.275155
0.234925 0.234881 0.234815
0.298144 0.299276 0.299478
0.241357 0.244395 0.246124
0.290349 0.291238 0.304615
0.258648 0.258416 0.259123
0.262903 0.262945 0.262241
0.316931 0.314439 0.280860
0.227377 0.227365 0.226962
0.323256 0.319270 0.319662
0.377753 0.378143 0.377476
0.291328 0.291938 0.292110
0.303593 0.302709 0.303769
0.296224 0.296302 0.294626
0.256125 0.256940 0.256208
0.216838 0.216632 0.221843
0.310313 0.308280 0.304414
0.328444 0.317034 0.317344
0.303254 0.304025 0.305992
0.273098 0.272640 0.270296
0.294686 0.294381 0.293974
0.246634 0.246591 0.246782
0.427154 0.427688 0.424832
0.247800 0.253858 0.258851
0.264368 0.265545 0.264924
0.335099 0.336800 0.335660
0.250908 0.250927 0.249695
0.212576 0.205673 0.207060
0.243253 0.242905 0.242723
0.277342 0.277631 0.277770
0.318441 0.318765 0.317451
0.225561 0.226089 0.224333
0.260670 0.261066 0.261150
0.337851 0.332724 0.327993
0.306955 0.309368 0.309615
0.252483 0.252355 0.249599
0.281661 0.281164 0.278272
0.324196 0.320300 0.319678
0.246574 0.265574 0.266795
0.278125 0.280232 0.279091
0.256909 0.257353 0.259996
0.317786 0.317544 0.314767
