0.621951 0.621334 0.638621
0.669998 0.670788 0.681067
0.629584 0.628168 0.617292
0.492049 0.490565 0.489476
0.515636 0.511856 0.506870
0.589970 0.590805 0.591625
0.253122 0.252138 0.249208
0.650012 0.639377 0.640389
0.665784 0.667378 0.670395
0.392674 0.392477 0.390483
0.508171 0.506615 0.503786
0.454603 0.447561 0.448050
0.228180 0.254096 0.256986
0.301059 0.281635 0.280520
0.736090 0.736712 0.736672
0.403121 0.410067 0.412346
0.642105 0.643094 0.643401
0.624198 0.641062 0.641788
0.567660 0.567768 0.573817
0.212060 0.217034 0.209160
0.801148 0.802229 0.798579
0.490660 0.490831 0.490405
0.631704 0.632630 0.636128
0.600183 0.599671 0.598871
0.559617 0.559702 0.560060
0.675461 0.653779 0.644162
0.592582 0.593900 0.594855
0.221162 0.220131 0.216615
0.555311 0.555334 0.548730
0.563367 0.563198 0.562642
0.441331 0.451074 0.454547
0.558698 0.559828 0.554896
0.305195 0.304965 0.303356
0.261349 0.260762 0.259387
0.488039 0.486431 0.468581
0.557678 0.565493 0.584496
0.731133 0.733057 0.741810
0.614810 0.616492 0.651282
0.439297 0.432367 0.424424
0.233086 0.232242 0.234264
0.272328 0.274217 0.281059
0.498421 0.497572 0.496469
0.549476 0.553072 0.555020
0.413941 0.414039 0.400566
0.582911 0.594171 0.595986
0.486312 0.487442 0.488109
0.194915 0.193134 0.193315
0.609827 0.605986 0.602152
0.766371 0.767481 0.768508
0.544938 0.543743 0.555436
0.282309 0.283044 0.283136
0.729913 0.729557 0.728804
0.453038 0.446569 0.444885
0.496921 0.496510 0.496346
0.537704 0.536789 0.534885
0.352547 0.354450 0.354910
0.660353 0.658199 0.656950
0.572404 0.570743 0.569066
0.502236 0.503119 0.506706
0.506462 0.515306 0.515927
0.324135 0.323025 0.321856
0.451357 0.449800 0.447973
0.186094 0.186135 0.186316
0.759740 0.760612 0.761553
0.501660 0.499305 0.499644
0.513540 0.521939 0.533351
0.243891 0.242988 0.242539
0.261099 0.275131 0.277548
0.352307 0.350442 0.354563
0.594156 0.600740 0.601462
0.254828 0.254877 0.252717
0.241528 0.237821 0.236177
0.595540 0.594665 0.598805
0.817795 0.819630 0.820868
0.354999 0.357604 0.358156
0.660160 0.669198 0.669778
0.441838 0.442945 0.440923
0.634289 0.630661 0.604728
0.523378 0.523644 0.523700
0.783558 0.784474 0.785636
0.258223 0.259389 0.259351
0.316518 0.316546 0.316637
0.894498 0.881564 0.831086
0.197103 0.200611 0.207074
0.218436 0.219409 0.220290
0.507995 0.507277 0.507669
0.352817 0.371135 0.377841
0.762262 0.743479 0.741632
0.537538 0.536558 0.538501
0.307199 0.326709 0.326939
0.472011 0.468663 0.462470
0.668665 0.670399 0.673216
0.661469 0.659817 0.658880
0.296575 0.297356 0.297747
0.568519 0.646686 0.661000
0.741449 0.738381 0.737996
0.492448 0.492342 0.491983
0.693066 0.689658 0.688877
0.654100 0.657613 0.658642
0.217024 0.216864 0.217339
0.267061 0.266466 0.268040
0.558033 0.555782 0.555237
0.698498 0.697797 0.697825
0.245402 0.245110 0.245092
0.201143 0.200236 0.193264
0.610770 0.611675 0.619081
0.561339 0.563810 0.559096
0.259095 0.259050 0.260372
0.282431 0.283458 0.283502
0.431059 0.438857 0.442212
0.679527 0.680669 0.680849
0.570504 0.566690 0.568986
0.646543 0.644829 0.646644
0.241153 0.238961 0.238140
0.326602 0.323367 0.307782
0.567692 0.565326 0.561690
0.546992 0.555822 0.566047
0.661666 0.664416 0.666693
0.246310 0.245764 0.243686
0.619694 0.621527 0.621297
0.789389 0.792339 0.793273
0.626180 0.627447 0.627179
0.627753 0.643458 0.644313
0.650165 0.654060 0.660040
0.688216 0.687837 0.687815
0.428286 0.417467 0.413416
0.689550 0.689382 0.687252
0.309555 0.307970 0.318087
0.643891 0.632999 0.598270
0.656938 0.653306 0.652155
0.578927 0.576615 0.576555
0.355561 0.354718 0.337284
0.543858 0.554799 0.559501
0.683853 0.683699 0.683503
0.617890 0.620624 0.623655
0.588455 0.588026 0.586828
0.639557 0.639287 0.625807
0.832550 0.829525 0.823818
0.284609 0.286994 0.287535
0.704166 0.704000 0.703180
0.499528 0.501006 0.501784
0.396268 0.385329 0.386805
0.202842 0.201804 0.191744
0.535471 0.537175 0.558358
0.226250 0.237932 0.244782
0.407810 0.455836 0.461526
0.508971 0.498886 0.479566
0.212947 0.212910 0.211730
0.242142 0.240996 0.238717
0.631318 0.630970 0.629807
0.613809 0.613292 0.621011
0.257058 0.252248 0.251591
0.425731 0.427987 0.433449
0.551984 0.496371 0.488703
0.561460 0.563005 0.570138
0.325706 0.325057 0.322833
0.322273 0.328589 0.322806
0.342770 0.348762 0.348108
0.244002 0.244040 0.243917
0.639627 0.638532 0.625625
0.299279 0.299605 0.298675
0.447046 0.450663 0.454453
0.229070 0.229609 0.231557
0.298700 0.298990 0.299120
0.747439 0.749045 0.747677
0.505777 0.504118 0.502861
0.586934 0.616544 0.620893
0.244951 0.244538 0.258223
0.788998 0.783322 0.783235
0.232491 0.234342 0.234714
0.607754 0.608494 0.624862
0.215724 0.216090 0.216536
0.244675 0.245350 0.245471
0.356020 0.354144 0.352407
0.214110 0.214127 0.214510
0.227003 0.225332 0.224875
0.501772 0.498318 0.473292
0.569556 0.570921 0.582919
0.355663 0.354122 0.346107
0.448816 0.444773 0.416636
0.216082 0.215669 0.215665
0.314271 0.324861 0.324156
0.309872 0.310725 0.311253
0.493938 0.496760 0.495946
0.672680 0.656164 0.660871
0.362133 0.361314 0.363038
0.597578 0.610406 0.611380
0.242527 0.241187 0.240643
0.774543 0.769115 0.767602
0.355671 0.352704 0.351029
0.344822 0.342093 0.344150
0.395191 0.392764 0.391309
0.571578 0.530150 0.523916
0.657190 0.654373 0.649844
0.305594 0.310377 0.317558
0.586961 0.587584 0.579465
0.280690 0.280192 0.285914
0.263425 0.264776 0.263931
0.751188 0.749470 0.749393
0.823108 0.822632 0.821465
0.650403 0.583591 0.582434
0.594999 0.585697 0.579321
0.504488 0.500648 0.499685
0.307997 0.308722 0.311712
0.286501 0.285967 0.286130
0.455944 0.455206 0.496829
0.709407 0.709660 0.695813
0.254053 0.253049 0.252012
0.309822 0.309272 0.309194
0.290766 0.315769 0.322877
0.624188 0.619268 0.620452
0.238893 0.239621 0.239915
0.467055 0.463042 0.419689
0.511740 0.511509 0.511875
0.642706 0.638276 0.634345
0.661716 0.665850 0.670544
0.513487 0.517309 0.515916
0.498750 0.504647 0.529668
0.579836 0.578449 0.574439
0.446232 0.438395 0.439582
0.409629 0.405369 0.386772
0.718830 0.719544 0.719205
0.491309 0.491534 0.490951
0.255596 0.256594 0.255839
0.671948 0.671785 0.670609
0.573179 0.622800 0.636964
0.545929 0.547142 0.572468
0.415289 0.396033 0.399070
0.643834 0.644297 0.644668
0.606364 0.610218 0.609192
0.600247 0.601330 0.602797
0.368171 0.369509 0.368434
0.685903 0.682662 0.636101
0.669537 0.670359 0.668820
0.606872 0.608824 0.617578
0.344870 0.344971 0.344813
0.467323 0.465161 0.464810
0.438243 0.438485 0.440048
0.867933 0.874591 0.890599
0.454431 0.450264 0.443985
0.573920 0.575053 0.578765
0.452606 0.450965 0.450594
0.647030 0.651470 0.650559
0.516953 0.517559 0.517858
0.359895 0.360232 0.361383
0.566192 0.564637 0.560058
0.391346 0.392622 0.399415
0.330556 0.330938 0.331664
0.406015 0.406544 0.410164
0.306671 0.306664 0.305279
0.252001 0.247919 0.247904
0.549427 0.548176 0.548392
0.706532 0.697025 0.699245
0.553050 0.547959 0.537874
0.288527 0.298068 0.286788
0.590498 0.594649 0.594308
0.749470 0.749393 0.747211
0.836178 0.838690 0.829611
0.767519 0.769962 0.769718
0.726379 0.727447 0.729981
0.753446 0.754299 0.757615
0.582103 0.579507 0.574001
0.242963 0.242991 0.243000
0.607537 0.617884 0.610407
0.604880 0.607006 0.606556
0.576162 0.575026 0.570273
0.444161 0.451720 0.477269
0.309627 0.311424 0.320675
0.222537 0.222675 0.221684
0.645252 0.645842 0.645169
0.327721 0.328390 0.326420
0.241309 0.241055 0.240901
0.564855 0.551198 0.503350
0.885191 0.948113 0.952758
0.326675 0.328974 0.329500
0.191483 0.183385 0.182380
0.418785 0.418821 0.419910
0.380886 0.379462 0.379849
0.398162 0.398756 0.403694
0.752024 0.749886 0.750567
0.322272 0.323253 0.326437
0.577556 0.577069 0.577890
0.815663 0.815171 0.821112
0.276387 0.276467 0.275661
0.673347 0.672159 0.671772
0.761450 0.758001 0.749953
0.476118 0.475454 0.475228
0.229558 0.229129 0.228682
0.205885 0.208178 0.205706
0.654067 0.653376 0.658134
0.244771 0.245138 0.245558
0.746257 0.754434 0.750318
0.310609 0.308362 0.308961
0.589149 0.587786 0.588975
0.588658 0.582637 0.592721
0.434422 0.438115 0.443034
0.670545 0.672910 0.678227
0.355457 0.355467 0.347140
0.632613 0.632782 0.642470
0.801988 0.814365 0.808301
0.238285 0.226579 0.225322
0.645347 0.632766 0.630619
0.479148 0.481903 0.480532
0.619684 0.617492 0.613558
0.671168 0.694238 0.697638
0.624728 0.616898 0.615651
0.696106 0.693155 0.691253
0.652869 0.658325 0.699142
0.269855 0.270292 0.270954
0.313556 0.305325 0.307742
0.319484 0.319340 0.318928
0.783251 0.794557 0.798600
0.195177 0.185784 0.183546
0.555600 0.560058 0.558626
0.316241 0.314897 0.314779
0.191280 0.189192 0.189254
0.643057 0.675882 0.679527
0.644882 0.642867 0.652524
0.392464 0.392124 0.391100
0.241406 0.241778 0.243341
0.227211 0.229716 0.230198
0.339909 0.339671 0.342196
0.307136 0.309455 0.309917
0.550776 0.549411 0.548463
0.343292 0.345275 0.354337
0.534377 0.532343 0.534299
0.332894 0.333850 0.333923
0.617477 0.618241 0.613131
0.550537 0.551692 0.550801
0.212770 0.217867 0.218277
0.632421 0.629384 0.620418
0.451216 0.449820 0.449264
0.481536 0.482678 0.483940
0.446567 0.447424 0.445746
0.188886 0.187898 0.187694
0.637061 0.637832 0.633764
0.617520 0.619322 0.634682
0.528597 0.529940 0.530016
0.620736 0.622638 0.607838
0.217116 0.217171 0.217309
0.291451 0.291740 0.296455
0.622584 0.623342 0.623806
0.605888 0.599892 0.596080
0.626971 0.608512 0.606768
0.400681 0.408836 0.410406
0.488097 0.490922 0.492738
0.581797 0.582292 0.581479
0.659887 0.660882 0.660321
0.407505 0.406347 0.408600
0.263561 0.263356 0.264140
0.195149 0.201214 0.203909
0.704734 0.709851 0.723113
0.702229 0.701063 0.704739
0.372071 0.369748 0.358179
0.659310 0.659031 0.657498
0.473118 0.442235 0.425903
0.601728 0.600685 0.599575
0.240778 0.239188 0.239169
0.548442 0.547200 0.546668
0.504297 0.505267 0.504707
0.273861 0.274614 0.274910
0.650836 0.663809 0.664829
0.522706 0.524304 0.522535
0.280332 0.283200 0.282073
0.607073 0.606445 0.604823
0.586142 0.587111 0.588568
0.669644 0.669300 0.670410
0.204687 0.204441 0.202369
0.500903 0.501147 0.495564
0.669049 0.673068 0.670743
0.339891 0.342334 0.342711
0.240497 0.241232 0.241500
0.426234 0.427631 0.425693
0.365608 0.356264 0.352570
0.377463 0.376710 0.373094
0.316547 0.314795 0.313728
0.730920 0.732033 0.742379
0.647163 0.632471 0.630834
0.631562 0.631610 0.631923
0.520146 0.519483 0.518476
0.357393 0.356674 0.356334
0.297084 0.296010 0.302924
0.634116 0.617831 0.619558
0.244176 0.243509 0.241925
0.438885 0.440087 0.440832
0.529414 0.527412 0.526888
0.241136 0.241483 0.242009
0.498077 0.498716 0.494589
0.386565 0.386618 0.386543
0.568048 0.565780 0.568752
0.653904 0.655563 0.651966
0.645516 0.647342 0.646442
0.229169 0.256984 0.256847
0.384754 0.337453 0.333489
0.638230 0.642234 0.671776
0.231144 0.235642 0.236252
0.697082 0.697541 0.699768
0.622572 0.618404 0.624902
0.501457 0.502518 0.502368
0.479261 0.479451 0.471404
0.729529 0.732605 0.703271
0.682000 0.686932 0.686578
0.358756 0.361660 0.362128
0.314795 0.313728 0.313730
0.337716 0.336479 0.338425
0.599082 0.599092 0.598626
0.555942 0.554808 0.561267
0.623494 0.625766 0.627264
0.772217 0.772484 0.773241
0.399765 0.408468 0.410047
0.451872 0.453933 0.491573
0.313535 0.317088 0.317237
0.557616 0.555789 0.542004
0.732033 0.742379 0.742586
0.590530 0.617817 0.620629
0.635077 0.654012 0.661011
0.185440 0.185306 0.185209
0.237100 0.236794 0.236636
0.566959 0.566780 0.565838
0.433841 0.431764 0.425661
0.599491 0.601191 0.601222
0.335741 0.334584 0.335040
0.576421 0.579411 0.577951
0.551504 0.545598 0.536199
0.275092 0.278491 0.280149
0.713895 0.718142 0.731435
0.538645 0.542316 0.543498
0.291937 0.289882 0.289312
0.340761 0.344166 0.342016
0.999287 1.000000 0.994229
0.616043 0.615016 0.612625
0.628432 0.602837 0.598210
0.324990 0.324568 0.322672
0.550551 0.547429 0.545894
0.402895 0.403310 0.402974
0.680662 0.680081 0.671948
0.489753 0.491324 0.492158
0.656715 0.655646 0.657001
0.302587 0.299560 0.298917
0.583758 0.583807 0.583978
0.422397 0.422948 0.425731
0.468524 0.468179 0.468181
0.494905 0.506462 0.515306
0.485729 0.483184 0.484478
0.875841 0.887057 0.882868
0.236703 0.238410 0.238639
0.583178 0.582856 0.581825
0.598632 0.598295 0.607371
0.469128 0.468700 0.468910
0.704452 0.704752 0.706070
0.587463 0.588043 0.587190
0.473951 0.473664 0.472673
0.478974 0.479315 0.486256
0.606227 0.606196 0.604767
0.207489 0.208789 0.209955
0.498794 0.499302 0.501886
0.819630 0.820868 0.820981
0.359718 0.362404 0.362072
0.772507 0.771059 0.768773
0.404816 0.401972 0.364127
0.501034 0.498729 0.505696
0.660294 0.662993 0.666527
0.244454 0.248191 0.247999
0.188437 0.188489 0.188426
0.604754 0.602668 0.601485
0.544910 0.544940 0.534646
0.251440 0.250106 0.251177
0.218828 0.220280 0.223876
0.602439 0.614288 0.616992
0.454461 0.455893 0.457573
0.617605 0.617429 0.615484
0.374487 0.375852 0.377672
0.643165 0.644307 0.646318
0.507661 0.510777 0.509656
0.207958 0.208301 0.208478
0.242859 0.245538 0.244365
0.193585 0.193873 0.193712
0.697541 0.699768 0.701900
0.475989 0.480289 0.483862
0.269732 0.264044 0.261207
0.450349 0.453158 0.490865
0.652065 0.641150 0.637524
0.238810 0.239113 0.239046
0.256236 0.257909 0.260764
0.408520 0.407658 0.406720
0.425988 0.424455 0.419149
0.524585 0.529461 0.534448
0.725468 0.724785 0.720875
0.668910 0.670167 0.670681
0.221491 0.221642 0.221531
0.565467 0.559156 0.557994
0.513222 0.512657 0.511987
0.274075 0.274745 0.279318
0.717356 0.712912 0.708574
0.592152 0.596363 0.598103
0.511860 0.512106 0.515304
0.686153 0.686930 0.688412
0.326296 0.345718 0.347094
0.554537 0.554606 0.553838
0.489486 0.486197 0.471615
0.624990 0.625741 0.636884
0.596298 0.599546 0.600288
0.459524 0.459989 0.460458
0.472001 0.474765 0.484220
0.295726 0.294335 0.295765
0.234579 0.229229 0.228130
0.753262 0.748312 0.746312
0.352060 0.355232 0.352935
0.707687 0.701831 0.697750
0.217065 0.216914 0.217109
0.242236 0.240212 0.241159
0.495878 0.496253 0.498779
0.489009 0.494263 0.495263
0.621925 0.621099 0.617785
0.637889 0.639842 0.640263
0.216572 0.216459 0.216703
0.320542 0.313893 0.314640
0.607575 0.605022 0.604962
0.503894 0.503030 0.497857
0.617448 0.613766 0.614449
0.289551 0.286473 0.285641
0.700278 0.699103 0.697879
0.441388 0.441205 0.440753
0.341415 0.339472 0.339732
0.506382 0.492665 0.483959
0.613060 0.640219 0.639984
0.248990 0.254164 0.252998
0.298660 0.297713 0.298276
0.430034 0.430407 0.424441
0.255745 0.268807 0.268489
0.182279 0.183689 0.194415
0.672520 0.672478 0.668600
0.600740 0.601462 0.600258
0.323941 0.323815 0.324968
0.515107 0.515414 0.511946
0.206944 0.208482 0.214903
0.448040 0.445728 0.445687
0.188517 0.188527 0.188695
0.518063 0.499599 0.497748
0.194317 0.199084 0.200521
0.598955 0.596073 0.593171
0.274063 0.273001 0.272443
0.383865 0.381841 0.371368
0.317257 0.318829 0.318289
0.741611 0.740105 0.741243
0.445879 0.447235 0.448250
0.500256 0.499687 0.500261
0.515168 0.520182 0.521799
0.379123 0.378998 0.379447
0.398092 0.394515 0.392432
0.591048 0.592038 0.594011
0.235310 0.237508 0.237498
0.526758 0.529152 0.534687
0.662113 0.655697 0.656343
0.762041 0.762476 0.762791
0.213320 0.213195 0.214315
0.590183 0.592986 0.593490
0.273592 0.273618 0.273277
0.627183 0.600197 0.570417
0.591570 0.590821 0.589368
0.748875 0.753446 0.754299
0.730639 0.733722 0.729668
0.502156 0.502678 0.502171
0.592219 0.592999 0.591240
0.406347 0.408600 0.410255
0.480396 0.478750 0.449641
0.816125 0.817279 0.819845
0.429169 0.431785 0.433038
0.355967 0.352681 0.349978
0.839656 0.837113 0.832741
0.620746 0.621075 0.612871
0.402944 0.403429 0.401940
0.328311 0.330084 0.332300
0.500629 0.500531 0.501767
0.613597 0.608643 0.593326
0.209146 0.209165 0.209382
0.370755 0.369187 0.368692
0.235155 0.230567 0.230573
0.319573 0.321227 0.322054
0.636142 0.634295 0.635824
0.561078 0.559251 0.549307
0.531758 0.531272 0.531204
0.365541 0.365314 0.364479
0.638504 0.642492 0.650915
0.406887 0.413281 0.442119
0.456587 0.458706 0.459593
0.466619 0.467473 0.470117
0.748311 0.746440 0.746539
0.661024 0.646692 0.644778
0.234480 0.233999 0.232951
0.516157 0.516294 0.515025
0.182876 0.188396 0.195455
0.580936 0.584640 0.587191
0.242980 0.243032 0.243380
0.468385 0.468245 0.468269
0.370976 0.365142 0.365393
0.238513 0.244016 0.244370
0.615310 0.614706 0.615630
0.661136 0.649160 0.647528
0.352095 0.354975 0.355033
0.499453 0.502799 0.502520
0.521265 0.522055 0.520853
0.346287 0.346921 0.346805
0.640437 0.639596 0.635254
0.339516 0.341988 0.350975
0.527882 0.526408 0.527278
0.641705 0.657022 0.658782
0.517973 0.518493 0.518838
0.231924 0.231026 0.233094
0.615916 0.614440 0.609661
0.224007 0.223887 0.224442
0.365607 0.365461 0.363377
0.442556 0.438992 0.406118
0.487192 0.467910 0.467624
0.505731 0.513605 0.516275
0.525264 0.504253 0.507305
0.665111 0.668683 0.671437
0.354600 0.355172 0.356022
0.672019 0.669558 0.668870
0.432674 0.444246 0.457908
0.524912 0.523485 0.523207
0.371486 0.371550 0.372719
0.366597 0.386690 0.388994
0.528452 0.529750 0.530207
0.663919 0.667910 0.680786
0.185770 0.188055 0.200257
0.329624 0.332113 0.332894
0.485706 0.485539 0.485656
0.441976 0.457903 0.460561
0.685234 0.685763 0.677269
0.698076 0.698072 0.696912
0.547156 0.543889 0.542878
0.337284 0.338472 0.338287
0.194032 0.193156 0.193273
0.241216 0.239303 0.238657
0.203392 0.203318 0.203201
0.586125 0.598759 0.602941
0.212642 0.226602 0.229961
0.239814 0.240958 0.242963
0.674002 0.672557 0.672515
0.736660 0.738448 0.739132
0.801319 0.800536 0.796555
0.460191 0.456050 0.448290
0.512493 0.514366 0.519837
0.310302 0.310715 0.312073
0.749341 0.750380 0.801969
0.452911 0.453141 0.452604
0.712380 0.709333 0.690735
0.511133 0.510786 0.508272
0.202334 0.203847 0.203681
0.185637 0.185820 0.188139
0.337108 0.339227 0.345437
0.639130 0.641277 0.641564
0.478561 0.478679 0.478284
0.252299 0.253151 0.252596
0.702039 0.704532 0.701910
0.240901 0.239429 0.238896
0.589817 0.591761 0.581680
0.660431 0.659728 0.659993
0.577719 0.583500 0.563719
0.401594 0.401258 0.403232
0.646718 0.651352 0.668391
0.592209 0.595965 0.598426
0.613720 0.613041 0.613601
0.672940 0.671765 0.672050
0.594234 0.595788 0.594828
0.537844 0.541153 0.554577
0.242880 0.252307 0.254334
0.656302 0.658528 0.651661
0.319592 0.319404 0.320311
0.546858 0.553781 0.559730
0.220987 0.221418 0.221162
0.769907 0.781988 0.779816
0.501458 0.501400 0.501324
0.188657 0.188849 0.190205
0.604105 0.604382 0.607439
0.326646 0.326761 0.326969
0.270602 0.270370 0.269727
0.275766 0.277786 0.276209
0.235443 0.229433 0.229417
0.583490 0.593728 0.595574
0.779816 0.776800 0.779129
0.544360 0.539468 0.535142
0.624269 0.624381 0.623705
0.293934 0.296262 0.298756
0.264633 0.264237 0.263960
0.449683 0.448850 0.446371
0.350674 0.355269 0.360346
0.962517 0.959262 0.956121
0.343882 0.343400 0.341258
0.331742 0.332647 0.329114
0.486757 0.486156 0.485169
0.653609 0.652941 0.649674
0.198008 0.198182 0.203432
0.565161 0.561452 0.549898
0.502737 0.502594 0.502030
0.825321 0.826871 0.830737
0.251094 0.251111 0.250845
0.244349 0.243597 0.243881
0.884113 0.882073 0.885191
0.675748 0.662851 0.658547
0.746982 0.743016 0.740935
0.441575 0.418493 0.413153
0.260813 0.262724 0.263475
0.523430 0.524878 0.525578
0.655943 0.668093 0.660556
0.520615 0.518744 0.512893
0.443494 0.447682 0.487495
0.185270 0.184915 0.186666
0.596974 0.593884 0.597219
0.229382 0.229340 0.229168
0.241451 0.240097 0.240386
0.345327 0.345886 0.346866
0.606545 0.609692 0.612336
0.645020 0.646714 0.648393
0.702472 0.697409 0.700487
0.638578 0.638745 0.638945
0.988663 0.985799 0.965172
0.191044 0.190380 0.190425
0.296900 0.298487 0.301844
0.242054 0.241946 0.243284
0.314805 0.311000 0.310100
0.206975 0.206561 0.204954
0.516046 0.515176 0.511967
0.666543 0.641735 0.624061
0.242197 0.243756 0.244245
0.295897 0.295943 0.296047
0.898197 0.897331 0.897502
0.315227 0.314696 0.314535
0.523481 0.527599 0.530936
0.551515 0.555600 0.560058
0.324724 0.321953 0.319956
0.303951 0.305241 0.306417
0.609326 0.607332 0.606016
0.628429 0.610958 0.605845
0.681708 0.714901 0.704165
0.784255 0.782991 0.782325
0.230870 0.230667 0.231126
0.388868 0.388108 0.398402
0.248153 0.242906 0.241375
0.320844 0.320118 0.320016
0.784510 0.788675 0.790400
0.613155 0.653989 0.653833
0.409671 0.407214 0.405406
0.561710 0.561732 0.560049
0.309489 0.305457 0.303833
0.496304 0.498957 0.506289
0.642763 0.634044 0.625596
0.447650 0.452251 0.453064
0.338288 0.340853 0.340898
0.622741 0.619152 0.612562
0.905822 0.901898 0.901989
0.246639 0.245645 0.243878
0.701311 0.700171 0.699060
0.367963 0.369169 0.369675
0.257548 0.263492 0.263136
0.255662 0.255773 0.255977
0.647651 0.648397 0.650049
0.635167 0.636170 0.632494
0.465929 0.466799 0.469294
0.593371 0.591375 0.588591
0.489081 0.488580 0.477143
0.371561 0.363747 0.362484
0.678521 0.675786 0.675423
0.354716 0.355497 0.356566
0.492423 0.492411 0.492526
0.241375 0.241394 0.232564
0.271782 0.272534 0.272927
0.416406 0.418321 0.420070
0.673481 0.674130 0.675212
0.596309 0.596692 0.599843
0.430349 0.428869 0.428289
0.404646 0.403062 0.423790
0.380191 0.380166 0.381164
0.308654 0.309270 0.310219
0.354612 0.352408 0.351577
0.349331 0.349791 0.350489
0.705079 0.705162 0.704765
0.726697 0.731749 0.729650
0.648760 0.662116 0.660681
0.419910 0.420898 0.421114
0.556770 0.555311 0.555334
0.854344 0.853790 0.853710
0.258381 0.259516 0.257067
0.493768 0.490984 0.487906
0.597245 0.597826 0.597922
0.481635 0.478511 0.464772
0.462543 0.465718 0.471604
0.453690 0.453620 0.453357
0.603790 0.619520 0.623175
0.592363 0.592350 0.595710
0.620951 0.622245 0.623450
0.466277 0.479349 0.479705
0.477915 0.479655 0.478518
0.234668 0.233599 0.232118
0.474113 0.475946 0.477030
0.213016 0.204762 0.191483
0.590527 0.589561 0.592217
0.683617 0.685575 0.683156
0.460722 0.460084 0.469602
0.272631 0.272145 0.271658
0.272841 0.273731 0.273834
0.620769 0.622285 0.625389
0.719117 0.719538 0.709655
0.699926 0.630180 0.622919
0.664458 0.661677 0.659305
0.734469 0.732328 0.740437
0.325382 0.327578 0.327196
0.281612 0.270101 0.269928
0.729053 0.730372 0.731638
0.286742 0.287127 0.288116
0.630646 0.633746 0.655171
0.698560 0.696088 0.695734
0.472722 0.480498 0.483177
0.734240 0.734143 0.735671
0.760456 0.751188 0.749470
0.697736 0.696480 0.705456
0.271262 0.270065 0.274213
0.552310 0.547349 0.545050
0.601500 0.598062 0.589690
0.616503 0.616719 0.617889
0.615962 0.615997 0.615811
0.649524 0.651089 0.653106
0.505373 0.508138 0.517243
0.714178 0.704146 0.704217
0.217277 0.217060 0.217387
0.610414 0.615131 0.636043
0.731765 0.733584 0.733849
0.626470 0.626472 0.624658
0.236548 0.237130 0.236959
0.188013 0.189616 0.199947
0.696048 0.695674 0.692007
0.319033 0.312379 0.308152
0.459556 0.460308 0.460797
0.317366 0.317015 0.318815
0.568554 0.571564 0.573209
0.260634 0.263275 0.263316
0.633998 0.630185 0.629843
0.574261 0.567822 0.563975
0.186807 0.186439 0.187126
0.272306 0.274632 0.286899
0.407658 0.406720 0.405145
0.450026 0.451455 0.452716
0.776134 0.786489 0.785855
0.201024 0.195639 0.188330
0.197715 0.196609 0.194661
0.269323 0.272929 0.281766
0.232793 0.230732 0.230495
0.294019 0.293221 0.292116
0.528202 0.530401 0.530291
0.702440 0.702444 0.702270
0.416726 0.416624 0.418729
0.485408 0.481684 0.480420
0.608299 0.608229 0.611741
0.183689 0.194415 0.196309
0.591628 0.581436 0.579874
0.313527 0.317544 0.317086
0.269257 0.268371 0.265071
0.433577 0.434603 0.435246
0.517968 0.518834 0.520449
0.687916 0.687823 0.687831
0.638276 0.634345 0.632418
0.239054 0.244022 0.246778
0.591508 0.588398 0.588633
0.605223 0.602188 0.594434
0.494511 0.495565 0.494239
0.655826 0.647737 0.645898
0.548810 0.553022 0.558189
0.289933 0.293082 0.295499
0.238911 0.239113 0.240588
0.185113 0.184977 0.185402
0.217667 0.217782 0.215876
0.494812 0.488287 0.481328
0.246128 0.245849 0.245332
0.734193 0.732515 0.731894
0.653833 0.653776 0.653517
0.314433 0.316912 0.319768
0.518135 0.523065 0.524007
0.786441 0.779170 0.767525
0.263931 0.242705 0.240054
0.475262 0.476379 0.482693
0.462889 0.465398 0.466060
0.602667 0.600669 0.600343
0.211119 0.207639 0.208005
0.250579 0.250963 0.251387
0.322285 0.322430 0.322382
0.707281 0.698969 0.694617
0.670626 0.670813 0.670661
0.622311 0.628751 0.641114
0.206329 0.210530 0.210297
0.273001 0.272443 0.273791
0.200662 0.191455 0.188968
0.503999 0.504623 0.506380
0.823102 0.831896 0.833992
0.658144 0.658209 0.657694
0.624422 0.624624 0.623617
0.217790 0.212168 0.214148
0.458762 0.460544 0.461625
0.668705 0.670494 0.670456
0.593204 0.593872 0.592705
0.322893 0.326204 0.324969
0.581661 0.583031 0.582566
0.813546 0.806741 0.804677
0.462954 0.463344 0.470392
0.292307 0.292078 0.291728
0.543445 0.545283 0.546804
0.348097 0.350536 0.354466
0.599296 0.619889 0.621717
0.229088 0.232895 0.233407
0.366985 0.386525 0.389320
0.347553 0.331951 0.323166
0.474183 0.480275 0.482082
0.603523 0.607806 0.602411
0.241322 0.240602 0.233650
0.601814 0.606372 0.601084
0.313013 0.307265 0.293821
0.193604 0.195957 0.195899
0.599926 0.608483 0.613272
0.478518 0.476993 0.476687
0.565923 0.567067 0.566346
0.436097 0.413316 0.413352
0.355637 0.355334 0.355827
0.672916 0.680149 0.680904
0.495490 0.509668 0.512453
0.233083 0.233764 0.240532
0.875826 0.884113 0.882073
0.255216 0.255378 0.255386
0.248308 0.240919 0.240913
0.448479 0.446578 0.446383
0.418488 0.419655 0.420642
0.701640 0.703127 0.720109
0.280621 0.279146 0.273020
0.491849 0.492666 0.492621
0.354594 0.356137 0.353146
0.620842 0.620217 0.619262
0.621092 0.620756 0.624093
0.445347 0.445244 0.445007
0.310169 0.308874 0.309178
0.238883 0.240442 0.241961
0.805127 0.806585 0.807869
0.615166 0.748123 0.752976
0.786536 0.778733 0.777296
0.659729 0.661669 0.659877
0.497854 0.473262 0.468887
0.731139 0.732844 0.740503
0.311758 0.311163 0.301847
0.260900 0.258678 0.258399
0.757353 0.749713 0.724880
0.614661 0.607663 0.600897
0.356978 0.358080 0.358848
0.403404 0.403009 0.406044
0.232628 0.233515 0.233470
0.554968 0.610735 0.615063
0.453957 0.448715 0.446026
0.343704 0.349963 0.352939
0.557365 0.559450 0.578865
0.591177 0.591590 0.590884
0.346089 0.346907 0.346264
0.576260 0.579996 0.581900
0.754032 0.754646 0.754126
0.185690 0.185794 0.185753
0.217171 0.217244 0.217453
0.651370 0.652707 0.652200
0.741024 0.736604 0.726851
0.442298 0.442735 0.445962
0.352681 0.351413 0.352386
0.404125 0.403274 0.406329
0.389455 0.391884 0.391932
0.611508 0.610916 0.609452
0.645898 0.648254 0.649613
0.747338 0.747013 0.732368
0.493008 0.499051 0.500439
0.636188 0.635771 0.631051
0.298777 0.298375 0.298659
0.229406 0.229507 0.229383
0.197881 0.198153 0.198653
0.612367 0.632535 0.631626
0.339909 0.339737 0.339632
0.395523 0.395454 0.394997
0.527164 0.525218 0.523150
0.217114 0.217158 0.217374
0.555565 0.552694 0.555379
0.331651 0.330173 0.331030
0.402471 0.402750 0.409668
0.674232 0.674299 0.670406
0.581606 0.578818 0.578774
0.484908 0.486325 0.487477
0.583837 0.584912 0.583478
0.499776 0.490467 0.475128
0.288432 0.286501 0.285967
0.278580 0.277247 0.275768
0.226267 0.227081 0.227602
0.736080 0.699606 0.699107
0.300224 0.300705 0.303036
0.799902 0.798885 0.798160
0.208974 0.210527 0.217388
0.435158 0.444095 0.456236
0.188592 0.189197 0.191325
0.275614 0.276427 0.276122
0.625040 0.641420 0.641806
