0.524305 0.528487 0.531325
0.412469 0.413850 0.418243
0.567709 0.566802 0.566349
0.378154 0.376720 0.380377
0.510705 0.507398 0.505433
0.525611 0.523564 0.527860
0.423915 0.423635 0.422617
0.485476 0.483377 0.483718
0.461904 0.457742 0.454568
0.505882 0.499611 0.499642
0.401126 0.399968 0.401325
0.447925 0.447612 0.447283
0.483357 0.482306 0.482554
0.388256 0.380469 0.380899
0.567407 0.580899 0.585266
0.407222 0.403205 0.389732
0.487114 0.489679 0.491822
0.527814 0.530049 0.525821
0.645798 0.647769 0.643764
0.459001 0.457561 0.444596
0.535039 0.535236 0.534202
0.582061 0.586065 0.586707
0.457820 0.457214 0.458181
0.478022 0.476878 0.482216
0.542485 0.540944 0.540369
0.517445 0.516095 0.512723
0.485402 0.481803 0.482781
0.393213 0.390302 0.387228
0.510818 0.510667 0.511477
0.453866 0.454727 0.466255
0.370085 0.370903 0.371238
0.581255 0.582244 0.581599
0.480826 0.481747 0.482956
0.547819 0.544552 0.544487
0.530947 0.533536 0.530972
0.494350 0.497336 0.506264
0.401463 0.398214 0.396353
0.299600 0.312096 0.317061
0.506389 0.506802 0.511067
0.543785 0.546392 0.554877
0.407286 0.409510 0.408168
0.644716 0.644618 0.647354
0.563804 0.556841 0.551614
0.559061 0.560024 0.564135
0.317436 0.317424 0.318845
0.421437 0.416646 0.415668
0.473814 0.472718 0.468388
0.425633 0.417479 0.419689
0.443649 0.436401 0.432171
0.314889 0.316838 0.317742
0.334261 0.335265 0.335374
0.401505 0.396579 0.399388
0.500210 0.500573 0.498277
0.496867 0.494846 0.493311
0.389176 0.389356 0.389762
0.422475 0.423638 0.428051
0.563644 0.564145 0.560967
0.317686 0.318444 0.321193
0.538740 0.534201 0.546859
0.499457 0.505584 0.505459
0.386857 0.388122 0.389176
0.364286 0.359589 0.358306
0.533100 0.534275 0.535536
0.499042 0.492301 0.489910
0.487259 0.484268 0.506213
0.538029 0.543463 0.546419
0.642043 0.644954 0.642679
0.406180 0.405884 0.403473
0.282205 0.278530 0.277909
0.440923 0.439861 0.438332
0.408825 0.411211 0.417625
0.561304 0.553262 0.539078
0.494668 0.497981 0.498559
0.339033 0.349932 0.360018
0.443619 0.442457 0.443234
0.459883 0.463370 0.465041
0.385608 0.385978 0.390999
0.633455 0.634225 0.633505
0.580681 0.580448 0.583165
0.535792 0.536625 0.537797
0.449910 0.450317 0.449385
0.483929 0.485261 0.486710
0.511841 0.515110 0.520904
0.598433 0.598794 0.598481
0.505463 0.500752 0.495427
0.298952 0.299269 0.300564
0.517250 0.517010 0.517605
0.365829 0.368114 0.366033
0.502515 0.509290 0.512419
0.451643 0.452044 0.453006
0.455770 0.455679 0.459910
0.408735 0.407484 0.409497
0.429659 0.428471 0.428222
0.644618 0.647354 0.647668
0.436633 0.436580 0.438123
0.457177 0.453817 0.452802
0.558758 0.562571 0.557805
0.517764 0.514799 0.513870
0.565876 0.569914 0.572253
0.461469 0.460395 0.458395
0.533629 0.523288 0.520901
0.375739 0.368690 0.368368
0.483785 0.486355 0.490166
0.549573 0.550114 0.551086
0.500932 0.502627 0.491221
0.447168 0.447806 0.447995
0.450256 0.450451 0.454256
0.564997 0.580851 0.590135
0.520614 0.518757 0.518524
0.450456 0.451587 0.450436
0.611220 0.611476 0.610766
0.403917 0.403892 0.404901
0.533500 0.535172 0.536802
0.429409 0.425487 0.428595
0.510622 0.511014 0.512571
0.463611 0.467701 0.470171
0.481384 0.483386 0.484387
0.515013 0.514177 0.516339
0.428066 0.428521 0.428602
0.494002 0.490635 0.483021
0.498452 0.491035 0.488522
0.564461 0.564980 0.561907
0.501769 0.500006 0.498431
0.425810 0.423137 0.418983
0.617547 0.618340 0.619697
0.529780 0.533430 0.531861
0.483977 0.486399 0.483413
0.524455 0.523840 0.524614
0.457648 0.456967 0.458151
0.405653 0.405389 0.405887
0.474981 0.481088 0.486079
0.567542 0.569606 0.568683
0.396237 0.397328 0.400136
0.448095 0.449741 0.450523
0.512948 0.511374 0.510929
0.526391 0.521468 0.513419
0.365638 0.366255 0.366395
0.377202 0.376203 0.370140
0.574292 0.576258 0.577789
0.399443 0.399486 0.399859
0.572092 0.563378 0.553830
0.410782 0.410674 0.409994
0.396980 0.399556 0.404247
0.492940 0.497105 0.497929
0.692750 0.694895 0.701379
0.328303 0.333382 0.340224
0.458462 0.456507 0.453742
0.428315 0.425027 0.429712
0.578483 0.582404 0.583979
0.649453 0.648259 0.650031
0.409193 0.421047 0.428281
0.570386 0.570272 0.569653
0.394993 0.392089 0.389299
0.424510 0.421144 0.416388
0.385559 0.392658 0.415454
0.350017 0.350155 0.352053
0.513053 0.507985 0.509273
0.455156 0.455826 0.459847
0.522126 0.522484 0.519906
0.473386 0.467090 0.451654
0.466142 0.468322 0.473317
0.601229 0.605543 0.607252
0.617582 0.616753 0.618368
0.483188 0.480186 0.472182
0.418126 0.420352 0.425192
0.479838 0.479169 0.483352
0.618939 0.641832 0.647477
0.353565 0.351003 0.348663
0.380567 0.382723 0.384292
0.426929 0.430991 0.431375
0.431036 0.432979 0.429265
0.565752 0.559589 0.540901
0.403917 0.400144 0.399721
0.578897 0.577523 0.589338
0.409909 0.411412 0.413136
0.606662 0.609378 0.610439
0.420333 0.423471 0.424122
0.507904 0.507363 0.507323
0.455740 0.450292 0.434184
0.493219 0.498610 0.520599
0.457561 0.444596 0.441020
0.563949 0.551655 0.561104
0.384161 0.381131 0.377369
0.530113 0.519879 0.518208
0.611951 0.604889 0.599520
0.419119 0.418734 0.418848
0.419078 0.421757 0.418453
0.399112 0.394948 0.394033
0.381706 0.382722 0.381778
0.362366 0.362024 0.357696
0.403126 0.402540 0.401436
0.532134 0.531389 0.535818
0.520917 0.525135 0.527368
0.531975 0.537196 0.539034
0.530697 0.528938 0.519936
0.519529 0.524837 0.526764
0.401730 0.401724 0.401690
0.559987 0.558377 0.556615
0.462935 0.461533 0.450796
0.559494 0.580712 0.583708
0.429623 0.417458 0.407580
0.418453 0.417355 0.412338
0.429461 0.429308 0.428445
0.408826 0.406339 0.400165
0.306285 0.305752 0.302994
0.366243 0.365935 0.365782
0.531539 0.527964 0.524667
0.421105 0.420586 0.418613
0.418864 0.417403 0.415534
0.586054 0.587235 0.585638
0.339241 0.339908 0.341046
0.604458 0.603317 0.602924
0.417825 0.415901 0.419378
0.550912 0.541160 0.540774
0.497261 0.494303 0.476393
0.457963 0.458876 0.460143
0.544926 0.545133 0.534960
0.515839 0.515523 0.515793
0.534323 0.533633 0.535003
0.466451 0.469439 0.469267
0.455654 0.454724 0.454480
0.445293 0.438521 0.438199
0.551137 0.550581 0.552152
0.562458 0.552423 0.545691
0.458616 0.459866 0.461592
0.415750 0.419450 0.414411
0.552361 0.554838 0.555241
0.587458 0.596588 0.597248
0.340664 0.343556 0.354710
0.412587 0.414874 0.416444
0.427994 0.425018 0.422912
0.376474 0.374001 0.370301
0.497909 0.500646 0.522366
0.424050 0.424775 0.424964
0.464992 0.476012 0.476040
0.552110 0.547688 0.546387
0.401609 0.402213 0.402618
0.566901 0.568098 0.567499
0.626733 0.623365 0.625596
0.445575 0.444185 0.439863
0.515694 0.514275 0.526783
0.362682 0.358594 0.358127
0.513767 0.514024 0.514141
0.526330 0.522779 0.526772
0.501917 0.510027 0.517602
0.428404 0.426363 0.424852
0.528053 0.529671 0.529753
0.481509 0.482585 0.490006
0.588938 0.587351 0.588549
0.443104 0.444856 0.452033
0.453466 0.453152 0.453107
0.421933 0.431418 0.430854
0.402097 0.410730 0.414156
0.459989 0.461501 0.462459
0.425434 0.421757 0.422299
0.562091 0.560240 0.531874
0.415416 0.409018 0.407195
0.410751 0.411078 0.412474
0.492611 0.497798 0.498557
0.385463 0.380232 0.380265
0.435561 0.434822 0.435220
0.516321 0.517331 0.516582
0.343397 0.346856 0.350684
0.399190 0.399895 0.402613
0.504234 0.503813 0.505841
0.545047 0.545547 0.554133
0.451039 0.459230 0.463256
0.428378 0.424834 0.422041
0.520409 0.518148 0.504946
0.445613 0.446302 0.446615
0.386390 0.387445 0.390324
0.350243 0.351144 0.351290
0.380865 0.383147 0.384486
0.567313 0.561795 0.561615
0.434952 0.431991 0.412314
0.573371 0.563175 0.562793
0.610838 0.610180 0.605658
0.477695 0.476717 0.477329
0.556767 0.556969 0.552837
0.494324 0.498038 0.498515
0.352361 0.351439 0.349520
0.538998 0.541029 0.542078
0.389250 0.386050 0.376893
0.425034 0.428383 0.426549
0.518357 0.516532 0.522149
0.562894 0.562368 0.562482
0.438949 0.439055 0.439498
0.629193 0.631209 0.631370
0.541078 0.546015 0.544454
0.410794 0.431612 0.435334
0.610128 0.599901 0.551552
0.511335 0.515331 0.512790
0.426542 0.426244 0.425311
0.542272 0.540786 0.533125
0.388371 0.395550 0.401154
0.485619 0.485424 0.485428
0.502181 0.510110 0.524732
0.535700 0.538965 0.543162
0.504355 0.494277 0.499264
0.349134 0.348462 0.352227
0.417804 0.415129 0.411947
0.445456 0.445769 0.445902
0.558938 0.555918 0.553574
0.461006 0.454585 0.448351
0.533935 0.534298 0.531818
0.473199 0.474628 0.474389
0.544264 0.543764 0.545432
0.556593 0.548532 0.543859
0.587220 0.581132 0.579799
0.444014 0.443978 0.447543
0.515953 0.515586 0.515272
0.480786 0.481945 0.482719
0.498454 0.498488 0.498945
0.347398 0.348210 0.348929
0.513609 0.523821 0.522430
0.441628 0.436567 0.437302
0.485325 0.484077 0.484924
0.540541 0.549330 0.553073
0.556681 0.555652 0.551495
0.456366 0.451228 0.448367
0.369936 0.366972 0.351982
0.370796 0.370977 0.370528
0.384943 0.391129 0.385188
0.348531 0.340887 0.340289
0.408250 0.408966 0.410920
0.394196 0.398604 0.398758
0.350978 0.349147 0.348513
0.435354 0.432659 0.431077
0.385108 0.383090 0.379769
0.638118 0.620789 0.611777
0.409196 0.408086 0.410525
0.370154 0.370768 0.370566
0.379349 0.383225 0.383294
0.509460 0.513945 0.515219
0.670254 0.670789 0.670900
0.390605 0.386675 0.379453
0.511605 0.511771 0.508226
0.406788 0.406529 0.407190
0.448442 0.448726 0.448845
0.457410 0.462464 0.460586
0.520257 0.519570 0.523019
0.397409 0.397421 0.395375
0.594490 0.599752 0.600101
0.512092 0.512062 0.502493
0.454678 0.454708 0.453409
0.427844 0.421411 0.420687
0.463872 0.458668 0.450983
0.395183 0.394075 0.397076
0.412917 0.414821 0.415029
0.359119 0.360827 0.361048
0.557279 0.557634 0.558537
0.290460 0.290045 0.288603
0.509573 0.512103 0.510071
0.471863 0.467613 0.467623
0.479768 0.477356 0.473376
0.391459 0.391674 0.392891
0.466224 0.467377 0.469008
0.378900 0.377810 0.378314
0.540742 0.538160 0.537745
0.564569 0.563776 0.563592
0.480667 0.479226 0.478532
0.627973 0.638661 0.642092
0.558010 0.558658 0.559452
0.506934 0.505937 0.504221
0.638561 0.634364 0.634390
0.534981 0.539042 0.538708
0.522734 0.521419 0.528149
0.534661 0.533543 0.534312
0.538794 0.537723 0.531978
0.518481 0.512362 0.510582
0.451661 0.432436 0.420504
0.523831 0.524733 0.530194
0.519578 0.514557 0.522879
0.590711 0.590012 0.587513
0.583744 0.577149 0.575465
0.519058 0.519143 0.518906
0.557436 0.549072 0.548070
0.522539 0.521718 0.523147
0.356333 0.359605 0.360837
0.390350 0.389345 0.387820
0.522853 0.522804 0.522590
0.460201 0.460017 0.459035
0.498415 0.501308 0.510203
0.390409 0.390594 0.390376
0.429187 0.430333 0.429894
0.530966 0.522041 0.509575
0.502412 0.487425 0.479814
0.405795 0.416911 0.429990
0.423746 0.422685 0.417798
0.527693 0.528218 0.522575
0.423702 0.429744 0.432663
0.506672 0.506337 0.504150
0.452795 0.447931 0.447396
0.541210 0.541032 0.541498
0.532734 0.529197 0.529086
0.441061 0.444544 0.445310
0.580749 0.577764 0.576941
0.463097 0.463026 0.462448
0.370156 0.374270 0.376443
0.430112 0.431461 0.432064
0.525459 0.526131 0.521469
0.332131 0.332328 0.333131
0.458138 0.456165 0.456373
0.426243 0.424510 0.421144
0.444731 0.442652 0.442801
0.384258 0.385844 0.384813
0.608925 0.610903 0.605132
0.406261 0.406858 0.406148
0.549848 0.546923 0.545407
0.476232 0.482221 0.515505
0.545110 0.543259 0.541125
0.515522 0.514717 0.516503
0.433266 0.431674 0.428338
0.468357 0.467509 0.465989
0.421804 0.419253 0.420138
0.425262 0.425834 0.423782
0.528618 0.536616 0.536204
0.575259 0.564057 0.557485
0.594484 0.595357 0.594725
0.598022 0.598205 0.595514
0.387028 0.402432 0.405397
0.371126 0.375664 0.376188
0.361688 0.363521 0.364570
0.562791 0.564393 0.567008
0.422529 0.424232 0.427567
0.556966 0.559415 0.580711
0.553345 0.558575 0.547473
0.394879 0.393415 0.391330
0.426369 0.433840 0.422894
0.602892 0.579599 0.561488
0.441885 0.441659 0.445005
0.516352 0.514779 0.511220
0.538688 0.525922 0.521271
0.539825 0.541276 0.542488
0.489321 0.492948 0.495158
0.494923 0.493895 0.494495
0.387424 0.385481 0.386306
0.510103 0.513399 0.515003
0.512840 0.515799 0.517424
0.356623 0.353207 0.357835
0.381484 0.380399 0.385010
0.382339 0.379097 0.377912
0.397112 0.397747 0.398374
0.412458 0.414817 0.413894
0.469283 0.479900 0.478862
0.501047 0.502288 0.502907
0.332513 0.332165 0.332980
0.483452 0.482571 0.483182
0.422764 0.423744 0.422767
0.344303 0.344149 0.344655
0.621583 0.615881 0.613045
0.424922 0.426811 0.424633
0.413917 0.416107 0.422808
0.382134 0.379975 0.371996
0.498003 0.497047 0.497308
0.462859 0.466636 0.472131
0.460348 0.453866 0.454727
0.601139 0.616635 0.622820
0.600721 0.603229 0.605431
0.555590 0.558195 0.560904
0.509633 0.512630 0.512270
0.455651 0.455184 0.457195
0.519411 0.521308 0.521311
0.491087 0.480399 0.477819
0.385731 0.388181 0.380119
0.482693 0.484459 0.484223
0.422162 0.435655 0.438338
0.531553 0.534109 0.539775
0.471530 0.473054 0.478178
0.414955 0.412842 0.413448
0.453185 0.455826 0.459117
0.472611 0.471007 0.468939
0.445990 0.448989 0.448734
0.308390 0.309071 0.309863
0.479458 0.479710 0.479625
0.413038 0.415734 0.410482
0.376325 0.386187 0.388739
0.335041 0.330733 0.311435
0.404932 0.403920 0.403782
0.613883 0.622082 0.624261
0.500492 0.496677 0.497293
0.520252 0.525587 0.523963
0.490797 0.487660 0.492423
0.480925 0.480558 0.485580
0.528445 0.525939 0.523459
0.452211 0.453327 0.460367
0.596000 0.595964 0.596741
0.570685 0.579552 0.580394
0.494056 0.495217 0.498559
0.476878 0.482216 0.485005
0.460035 0.465176 0.464944
0.511298 0.513690 0.524502
0.539372 0.537519 0.539481
0.508451 0.511812 0.510700
0.467402 0.474737 0.477592
0.473151 0.473830 0.473424
0.369672 0.370931 0.370860
0.478016 0.479327 0.468679
0.563089 0.562456 0.562618
0.481523 0.480973 0.480658
0.614610 0.612835 0.607448
0.431135 0.433756 0.434930
0.549935 0.551480 0.554076
0.423924 0.424929 0.422294
0.430878 0.430866 0.427619
0.525133 0.523325 0.526860
0.489969 0.483953 0.483507
0.491978 0.495987 0.498514
0.517251 0.526694 0.528315
0.402040 0.400306 0.399312
0.460668 0.460811 0.459573
0.396399 0.395912 0.392314
0.517762 0.522212 0.527612
0.416316 0.413928 0.413297
0.370903 0.371238 0.368518
0.384787 0.385504 0.379535
0.511768 0.506960 0.507724
0.415169 0.414831 0.414090
0.579285 0.579298 0.575749
0.363969 0.363023 0.365646
0.392448 0.391028 0.390461
0.424913 0.412555 0.409936
0.367282 0.368133 0.367793
0.460101 0.461437 0.459836
0.592637 0.593631 0.593062
0.471837 0.470421 0.472287
0.651342 0.651070 0.653488
0.709024 0.709934 0.700158
0.412729 0.413123 0.413070
0.406027 0.406143 0.404831
0.565800 0.569050 0.568196
0.635128 0.634337 0.632679
0.335287 0.332162 0.331904
0.387036 0.369892 0.361648
0.422840 0.422428 0.420968
0.430223 0.430087 0.432383
0.400899 0.398479 0.415206
0.486213 0.490730 0.492537
0.567995 0.567658 0.565379
0.399526 0.401388 0.408013
0.615567 0.613562 0.609667
0.579689 0.578438 0.581516
0.370590 0.370439 0.372595
0.445231 0.446012 0.448595
0.523105 0.516130 0.514170
0.513050 0.510182 0.511290
0.476208 0.481014 0.479133
0.460917 0.464140 0.469472
0.452840 0.452795 0.447931
0.393539 0.395134 0.397257
0.583143 0.585260 0.585552
0.598425 0.604383 0.600730
0.568112 0.569408 0.567658
0.386568 0.387023 0.386832
0.398050 0.417667 0.417325
0.494515 0.490504 0.474380
0.499896 0.502072 0.487436
0.341027 0.337579 0.335334
0.498529 0.500181 0.502056
0.463734 0.470779 0.471554
0.603804 0.603719 0.602066
0.381502 0.381402 0.380057
0.485144 0.490931 0.500319
0.383576 0.383613 0.387130
0.505635 0.503988 0.504406
0.483300 0.476997 0.470909
0.401792 0.400325 0.399112
0.390160 0.387148 0.387886
0.366282 0.367715 0.370497
0.603580 0.614083 0.616057
0.407268 0.405875 0.399891
0.524613 0.524489 0.524397
0.415327 0.416070 0.415637
0.391696 0.390624 0.394504
0.553558 0.553432 0.549762
0.617059 0.615116 0.607621
0.478636 0.478516 0.481335
0.527057 0.527125 0.528601
0.515291 0.511926 0.507063
0.442489 0.442610 0.444615
0.447114 0.447334 0.444914
0.457333 0.456465 0.456456
0.392265 0.387137 0.386503
0.396879 0.397097 0.396052
0.642897 0.641684 0.638177
0.487148 0.483958 0.482688
0.445152 0.433344 0.427652
0.545328 0.543797 0.544043
0.308870 0.310557 0.310909
0.543199 0.543336 0.543048
0.498636 0.517198 0.521777
0.554882 0.551641 0.551632
0.555412 0.557150 0.557534
0.553183 0.547375 0.546159
0.355332 0.353167 0.354995
0.407378 0.406866 0.406905
0.362823 0.368222 0.369769
0.457870 0.459232 0.461047
0.413796 0.411549 0.411769
0.404554 0.395530 0.393239
0.544071 0.548186 0.551108
0.463950 0.481375 0.480416
0.545585 0.546663 0.543834
0.605361 0.594190 0.591357
0.463504 0.464197 0.465001
0.514779 0.511220 0.507056
0.352364 0.347752 0.341280
0.439496 0.450253 0.452423
0.342232 0.336303 0.335105
0.573545 0.575307 0.577212
0.488972 0.495167 0.497460
0.522054 0.522584 0.521440
0.600470 0.599425 0.604682
0.505826 0.502966 0.505269
0.441020 0.440916 0.439910
0.550046 0.552083 0.553095
0.304589 0.306636 0.305898
0.608553 0.610709 0.608376
0.539690 0.547668 0.552702
0.429401 0.425278 0.424537
0.445587 0.445071 0.439479
0.617891 0.622452 0.620590
0.367455 0.364002 0.365696
0.577325 0.576184 0.580360
0.562495 0.568071 0.565674
0.460366 0.461494 0.463950
0.447612 0.431308 0.425351
0.399511 0.400781 0.399185
0.299974 0.300080 0.302408
0.411261 0.399099 0.401678
0.431208 0.432222 0.428938
0.622494 0.626448 0.629220
0.470496 0.464046 0.467859
0.479312 0.479441 0.479683
0.365705 0.361757 0.348475
0.443038 0.442075 0.439204
0.413532 0.412953 0.412423
0.407159 0.405537 0.405092
0.427567 0.428881 0.428442
0.618450 0.615887 0.614333
0.439906 0.438736 0.439178
0.464438 0.467291 0.472752
0.522136 0.523562 0.522600
0.480495 0.487967 0.490135
0.487530 0.490031 0.493228
0.510166 0.509639 0.511919
0.517571 0.518779 0.520209
0.364541 0.364948 0.365872
0.437555 0.427308 0.425186
0.344799 0.349948 0.350104
0.477921 0.483279 0.485309
0.317930 0.318917 0.319219
0.462641 0.452909 0.451611
0.450976 0.441463 0.440494
0.358077 0.359076 0.359552
0.457448 0.454493 0.448197
0.545356 0.539611 0.527312
0.621306 0.616601 0.616637
0.390511 0.390280 0.388371
0.516723 0.517647 0.516800
0.495388 0.495007 0.496233
0.489219 0.490322 0.488139
0.466299 0.467073 0.467127
0.598481 0.598526 0.591182
0.541243 0.542091 0.540660
0.526411 0.529209 0.535060
0.426260 0.425091 0.421831
0.413653 0.414591 0.416444
0.503693 0.504429 0.506030
0.430649 0.433550 0.441492
0.557761 0.556541 0.555041
0.479445 0.479868 0.478829
0.485424 0.485428 0.487535
0.492246 0.489436 0.487744
0.468101 0.457972 0.455289
0.489185 0.487070 0.484649
0.510807 0.508890 0.509680
0.607287 0.604916 0.585680
0.519330 0.526085 0.526759
0.540369 0.542199 0.543502
0.528484 0.529232 0.523022
0.479985 0.482195 0.477761
0.380686 0.381132 0.378943
0.472519 0.473107 0.473314
0.582527 0.588155 0.588024
0.510251 0.504072 0.499594
0.472435 0.473865 0.479536
0.504262 0.502108 0.493902
0.508899 0.505049 0.499571
0.385210 0.391050 0.395166
0.448277 0.447070 0.443447
0.511085 0.509911 0.515297
0.521030 0.522287 0.520626
0.456401 0.455103 0.453450
0.517941 0.519867 0.520410
0.446626 0.447909 0.447900
0.407927 0.410399 0.410398
0.401200 0.406828 0.407538
0.498969 0.500380 0.511047
0.497888 0.500387 0.522306
0.433292 0.433742 0.433463
0.372653 0.372338 0.372265
0.412159 0.413408 0.413214
0.556953 0.543183 0.540602
0.375178 0.370887 0.370337
0.522764 0.512916 0.515206
0.439402 0.436370 0.435087
0.669748 0.654004 0.664539
0.388908 0.387018 0.386892
0.473909 0.476319 0.480961
0.485523 0.485658 0.487262
0.525127 0.532257 0.535148
0.519139 0.520386 0.518744
0.461670 0.457537 0.453427
0.499799 0.503865 0.504724
0.385747 0.388593 0.390881
0.459578 0.453857 0.451915
0.439436 0.433304 0.436292
0.426806 0.425345 0.425921
0.511669 0.517647 0.515977
0.555252 0.544488 0.540885
0.585371 0.587220 0.581132
0.498986 0.502123 0.509469
0.452909 0.451611 0.455260
0.332357 0.334605 0.336013
0.393890 0.396333 0.410647
0.513329 0.504701 0.515884
0.462135 0.462338 0.458612
0.577313 0.576674 0.572799
0.381375 0.381712 0.381517
0.481599 0.476855 0.475786
0.498312 0.498173 0.499220
0.310767 0.310598 0.310222
0.470421 0.472287 0.472678
0.379503 0.378488 0.378416
0.318214 0.318730 0.318976
0.392225 0.392255 0.391865
0.601167 0.587128 0.583134
0.522432 0.521647 0.516848
0.363188 0.364162 0.363902
0.532391 0.529869 0.526648
0.563651 0.564426 0.563524
0.401526 0.400178 0.401194
0.388838 0.390855 0.391425
0.503660 0.503579 0.504402
0.609500 0.621235 0.621385
0.572866 0.606912 0.607874
0.473778 0.482090 0.481563
0.396554 0.398811 0.399747
0.394021 0.390699 0.384473
0.535813 0.534711 0.533940
0.391756 0.391834 0.392679
0.610180 0.605658 0.607640
0.387805 0.384509 0.382236
0.560115 0.563612 0.560875
0.528384 0.527056 0.522570
0.557004 0.557085 0.547341
0.518379 0.519288 0.522023
0.538856 0.538859 0.537568
0.481564 0.476712 0.481225
0.381312 0.383918 0.395458
0.518167 0.511784 0.506035
0.409627 0.409509 0.408304
0.598190 0.600167 0.601134
0.512545 0.508622 0.498268
0.544803 0.573997 0.574747
0.588808 0.584700 0.580163
0.516988 0.515268 0.515906
0.542367 0.553261 0.551915
0.496192 0.498750 0.497361
0.542672 0.539038 0.536937
0.503959 0.508468 0.512640
0.540518 0.540973 0.543403
0.498324 0.506476 0.507603
0.502714 0.501103 0.506390
0.387014 0.386495 0.386059
0.420359 0.426035 0.426311
0.409615 0.410619 0.413156
0.407973 0.407565 0.410850
0.390275 0.388444 0.387826
0.495051 0.494451 0.486641
0.447695 0.446816 0.445442
0.422050 0.425049 0.426808
0.598944 0.596225 0.595999
0.489332 0.500692 0.505114
0.541698 0.541576 0.537135
0.517382 0.518367 0.521601
0.427450 0.431036 0.432979
0.426374 0.425914 0.417325
0.464127 0.462899 0.463093
0.478039 0.476022 0.475430
0.395829 0.392710 0.392147
0.389965 0.391233 0.390672
0.541353 0.540734 0.540745
0.453649 0.444984 0.439229
0.439118 0.439323 0.443607
0.514360 0.512458 0.512135
0.379307 0.377781 0.377655
0.318257 0.320191 0.322200
0.564083 0.563659 0.557272
0.359615 0.356897 0.354934
0.394132 0.384049 0.381438
0.459267 0.455701 0.453232
0.350201 0.350991 0.352190
0.388072 0.390875 0.391320
0.460430 0.460237 0.457206
0.450371 0.449041 0.446681
0.357038 0.358159 0.359380
0.563195 0.561756 0.548661
0.476175 0.475076 0.472237
0.392445 0.370559 0.367905
0.502390 0.502707 0.503262
0.345246 0.344448 0.341237
0.379098 0.395078 0.406084
0.398920 0.399200 0.399166
0.422248 0.413643 0.412896
0.391965 0.393955 0.402975
0.501354 0.498303 0.497357
0.495075 0.496342 0.498538
0.547466 0.549259 0.549699
0.381592 0.380227 0.387036
0.504031 0.503730 0.503354
0.551962 0.551212 0.544232
0.568185 0.576278 0.576563
0.546287 0.543668 0.543688
0.648259 0.650031 0.657670
0.463059 0.466691 0.467399
0.400413 0.401276 0.403007
0.534938 0.536088 0.531378
0.425238 0.411490 0.410314
0.414224 0.413731 0.413473
0.524549 0.523436 0.522391
0.443703 0.439402 0.436370
0.618108 0.623239 0.625257
0.537327 0.536442 0.535902
0.442681 0.442132 0.443098
0.507582 0.511666 0.518743
0.453259 0.452395 0.452490
0.545446 0.543440 0.542629
0.356711 0.352787 0.352160
0.526180 0.525069 0.522700
0.392390 0.391634 0.392493
0.374483 0.385418 0.387108
0.405353 0.408743 0.409253
0.595999 0.596613 0.595184
0.497352 0.496294 0.495775
0.397662 0.396238 0.394356
0.480638 0.480622 0.479011
0.461444 0.462720 0.461169
0.563752 0.558644 0.561466
0.449589 0.457418 0.456268
0.297328 0.297606 0.299189
0.444615 0.449034 0.451278
0.427780 0.425363 0.425210
0.405644 0.405871 0.409826
0.537179 0.535666 0.535822
0.530072 0.532361 0.541140
0.442438 0.438059 0.437360
0.456890 0.456543 0.454669
0.535737 0.536981 0.538110
0.391307 0.396516 0.403722
0.407898 0.409638 0.414888
0.453581 0.454162 0.450160
0.420473 0.416919 0.410628
0.438916 0.439114 0.439541
0.533056 0.534376 0.535125
0.332547 0.330356 0.327944
0.525485 0.517085 0.514715
0.535850 0.537753 0.538125
0.581200 0.582192 0.582028
0.448095 0.449807 0.450473
0.534674 0.531874 0.530783
0.519929 0.514148 0.517244
0.607355 0.607152 0.607052
0.417604 0.414805 0.410096
0.506812 0.511633 0.513352
0.476934 0.475047 0.471505
0.428689 0.431397 0.431140
0.429887 0.438402 0.450937
0.417786 0.416848 0.418903
0.539070 0.545033 0.559919
0.390025 0.389457 0.386459
0.456943 0.443646 0.440923
0.503964 0.502187 0.502280
0.576555 0.583181 0.585814
0.398139 0.397090 0.396073
0.435746 0.434806 0.434367
0.435607 0.435405 0.434384
0.558824 0.556237 0.555907
0.396864 0.394198 0.372744
0.404705 0.404941 0.405873
0.464065 0.471620 0.470958
0.629576 0.630809 0.631244
0.379311 0.379133 0.379340
0.401162 0.405693 0.410180
0.478276 0.477779 0.476762
0.358682 0.356911 0.356429
0.370302 0.373168 0.378639
0.516311 0.518168 0.519798
0.613489 0.620602 0.621583
0.579341 0.575265 0.563047
0.463841 0.467668 0.467894
0.346931 0.367078 0.369968
0.606784 0.605280 0.606927
0.447684 0.448084 0.449013
0.472064 0.467672 0.465852
0.536611 0.540551 0.541423
0.514829 0.517037 0.520813
0.586876 0.597487 0.601171
0.590509 0.585880 0.581695
0.436418 0.435688 0.433987
0.411947 0.411742 0.406774
0.523716 0.518415 0.515433
0.428794 0.437463 0.444799
0.511950 0.511924 0.512590
0.504499 0.503985 0.502654
0.568707 0.569897 0.567393
0.436652 0.435859 0.434352
0.473816 0.468845 0.464140
0.484412 0.488830 0.500770
0.354558 0.355540 0.360761
0.369756 0.370927 0.369062
0.371371 0.373551 0.374177
0.470429 0.467084 0.467027
0.422779 0.422703 0.420112
0.569668 0.566407 0.567250
0.444249 0.451005 0.460863
0.462021 0.453476 0.451824
0.393025 0.390362 0.389669
0.549650 0.550033 0.549886
0.509587 0.508219 0.505486
0.498612 0.499600 0.508947
0.432995 0.433124 0.434947
0.485335 0.483767 0.479320
0.493714 0.492896 0.491899
0.371705 0.374362 0.376150
0.498282 0.499871 0.486955
0.459999 0.457044 0.453898
0.461457 0.460404 0.458464
0.432134 0.440331 0.446135
0.401424 0.406206 0.413952
0.563994 0.562894 0.562368
0.477890 0.478640 0.480771
0.425229 0.424573 0.423197
0.454663 0.455940 0.451397
0.567770 0.563758 0.552430
0.385513 0.387595 0.371047
0.447090 0.447072 0.447300
0.396595 0.396116 0.396403
0.422617 0.421192 0.420279
0.614631 0.612711 0.603164
0.541965 0.558999 0.558494
0.517250 0.514378 0.518303
0.525397 0.525683 0.526240
0.509482 0.509822 0.510450
0.459554 0.454814 0.453103
0.410269 0.411348 0.417455
0.475298 0.475748 0.474547
0.512266 0.524766 0.526056
0.401916 0.402053 0.401644
0.569034 0.569668 0.566407
0.563321 0.563833 0.563292
0.374279 0.373140 0.370151
0.563181 0.562592 0.567105
0.509874 0.522309 0.528174
0.401807 0.402612 0.402598
0.505688 0.503978 0.503135
0.518379 0.519809 0.519568
0.399449 0.396391 0.395509
0.487649 0.490581 0.505133
0.422072 0.421027 0.420540
0.368264 0.370473 0.370842
0.455395 0.455082 0.451846
0.412726 0.414452 0.413342
0.458327 0.457539 0.458038
0.643459 0.644372 0.651342
0.409500 0.408711 0.406462
0.457995 0.460141 0.467080
0.432789 0.432393 0.435867
0.495293 0.494869 0.493714
0.485371 0.486335 0.490936
0.623409 0.623878 0.612366
0.367976 0.372588 0.388166
0.533436 0.534545 0.534335
0.392723 0.392448 0.391028
0.415584 0.421452 0.420957
0.363373 0.364952 0.365184
0.378688 0.377998 0.377263
0.551054 0.549020 0.544870
0.561459 0.557871 0.556513
0.317927 0.318992 0.320969
0.424388 0.420436 0.416984
0.539544 0.548680 0.546589
0.461587 0.462455 0.460993
0.392602 0.393291 0.380384
0.426814 0.425919 0.428575
0.534479 0.535793 0.538031
0.394770 0.394857 0.397759
0.534423 0.534798 0.529761
0.512551 0.511821 0.512800
