0.138680 0.138752 0.141912
0.140147 0.139871 0.139656
0.173081 0.206308 0.212900
0.180855 0.181045 0.181022
0.128375 0.128294 0.128575
0.122815 0.122938 0.123078
0.130385 0.130309 0.130613
0.126458 0.127868 0.128575
0.124710 0.125350 0.125291
0.137296 0.137237 0.136921
0.140343 0.141115 0.140656
0.130863 0.131115 0.131295
0.135199 0.135886 0.135999
0.139605 0.140546 0.140057
0.189922 0.189976 0.189796
0.134265 0.135014 0.134785
0.127700 0.126993 0.126133
0.134275 0.133552 0.133665
0.329403 0.329612 0.329825
0.115475 0.115133 0.116126
0.141861 0.142398 0.143319
0.134329 0.134314 0.133946
0.130826 0.130566 0.130985
0.136406 0.136572 0.136064
0.139544 0.140311 0.140966
0.143180 0.141357 0.138941
0.135419 0.135335 0.134668
0.137569 0.137478 0.137116
0.138368 0.138016 0.138679
0.137117 0.138319 0.138471
0.133328 0.133301 0.133214
0.139933 0.140147 0.141011
0.147810 0.146863 0.146876
0.125025 0.125062 0.125402
0.126489 0.126107 0.125677
0.138910 0.139119 0.138170
0.133462 0.133422 0.133808
0.135343 0.134589 0.135138
0.128650 0.129320 0.133063
0.223153 0.223033 0.222607
0.160940 0.161281 0.160984
0.125946 0.126581 0.125715
0.135468 0.135324 0.134789
0.140130 0.139507 0.138927
0.134199 0.135830 0.136185
0.128206 0.128036 0.127488
0.140998 0.141553 0.141630
0.123393 0.124856 0.125034
0.148057 0.147062 0.144378
0.179974 0.179888 0.178996
0.139917 0.139477 0.139463
0.145222 0.145142 0.147792
0.215008 0.228840 0.246825
0.114803 0.115237 0.115622
0.138418 0.139089 0.139591
0.140945 0.138002 0.136761
0.181092 0.180861 0.180725
0.131060 0.132442 0.131245
0.141563 0.141736 0.141283
0.126656 0.125889 0.125135
0.136057 0.136370 0.137155
0.133274 0.132764 0.133919
0.145225 0.146387 0.147211
0.139516 0.138317 0.136189
0.114592 0.114050 0.114217
0.121109 0.120135 0.119172
0.130828 0.130046 0.130679
0.134684 0.134732 0.134216
0.152916 0.152685 0.152491
0.138743 0.140897 0.143505
0.136226 0.136097 0.137012
0.127508 0.129796 0.137977
0.139610 0.139176 0.140694
0.136211 0.136429 0.136920
0.170533 0.170878 0.170771
0.130540 0.130404 0.131254
0.130361 0.128720 0.128249
0.141229 0.141054 0.140238
0.139632 0.140012 0.139756
0.133400 0.133545 0.133191
0.133467 0.133585 0.133418
0.131747 0.132500 0.130883
0.130417 0.130716 0.129959
0.142645 0.142401 0.142203
0.128990 0.129960 0.129896
0.131791 0.131824 0.131596
0.135244 0.135260 0.138381
0.130169 0.129961 0.130457
0.126216 0.126619 0.125969
0.131804 0.131758 0.132269
0.133412 0.133379 0.133143
0.133828 0.132914 0.133921
0.130402 0.131178 0.130816
0.140282 0.140447 0.139911
0.128900 0.130401 0.130688
0.129982 0.129319 0.129551
0.129651 0.128963 0.126855
0.135883 0.135856 0.137361
0.141433 0.140549 0.139553
0.128161 0.128125 0.127206
0.120137 0.121618 0.121761
0.128701 0.128187 0.127714
0.137885 0.137308 0.136787
0.128696 0.127432 0.127110
0.129613 0.129842 0.129234
0.143875 0.142084 0.142857
0.145256 0.146153 0.146856
0.139068 0.139002 0.139904
0.122454 0.121540 0.121190
0.136805 0.137193 0.136624
0.140135 0.139859 0.139889
0.138517 0.138781 0.138596
0.137550 0.137441 0.137340
0.131079 0.131529 0.130664
0.132358 0.132637 0.133037
0.137783 0.136530 0.135582
0.134507 0.134791 0.134709
0.140527 0.139865 0.139065
0.161686 0.160842 0.161461
0.142332 0.139868 0.140578
0.127656 0.127197 0.127322
0.135870 0.136211 0.136357
0.134666 0.133620 0.133842
0.128324 0.128652 0.129891
0.142655 0.142344 0.142404
0.128886 0.129189 0.129514
0.121412 0.121613 0.121076
0.136911 0.134335 0.134462
0.122139 0.121685 0.122044
0.146183 0.147314 0.149243
0.124095 0.123833 0.123529
0.136537 0.136566 0.135610
0.124862 0.124066 0.123530
0.146378 0.145741 0.145525
0.134407 0.133743 0.133936
0.126824 0.125329 0.124928
0.167371 0.167329 0.169271
0.146049 0.145777 0.146409
0.140231 0.139720 0.139806
0.284798 0.284745 0.284736
0.137029 0.134636 0.135195
0.148373 0.148097 0.148602
0.129470 0.130057 0.130212
0.141052 0.141907 0.141969
0.164548 0.163871 0.158656
0.141399 0.142114 0.141740
0.128141 0.128020 0.127836
0.140413 0.140393 0.140415
0.135747 0.135977 0.136364
0.123494 0.121809 0.121608
0.122117 0.122116 0.121987
0.130782 0.130937 0.129574
0.137978 0.137498 0.137257
0.130402 0.130089 0.130944
0.131137 0.130158 0.130960
0.129528 0.129725 0.129777
0.122613 0.122678 0.122518
0.135029 0.134598 0.134830
0.138193 0.138370 0.136468
0.138285 0.137450 0.138076
0.145706 0.144383 0.144426
0.132334 0.131863 0.132997
0.128250 0.129361 0.130011
0.141303 0.142700 0.143327
0.137031 0.136698 0.137472
0.139633 0.139039 0.138969
0.152605 0.148560 0.146710
0.136779 0.137962 0.139909
0.139433 0.140904 0.139676
0.142639 0.141590 0.141451
0.148624 0.148503 0.148539
0.139572 0.139218 0.139040
0.116217 0.116912 0.117140
0.137610 0.138207 0.137269
0.131099 0.130405 0.130424
0.123233 0.122874 0.122502
0.121829 0.119925 0.117880
0.141413 0.142934 0.142384
0.131009 0.132398 0.133626
0.174899 0.175270 0.175229
0.132307 0.131126 0.130279
0.137251 0.136922 0.136262
0.127565 0.127659 0.127553
0.123263 0.124306 0.123702
0.126690 0.126319 0.124956
0.120707 0.120157 0.120239
0.123786 0.122750 0.122548
0.144119 0.145099 0.144801
0.128754 0.130742 0.131048
0.140529 0.140769 0.139956
0.180687 0.181000 0.181202
0.129981 0.129471 0.129344
0.126118 0.126848 0.126775
0.126671 0.126584 0.126847
0.141726 0.142984 0.142618
0.120903 0.121579 0.124014
0.136363 0.137299 0.136922
0.148995 0.147987 0.147642
0.128367 0.128100 0.128578
0.132432 0.132068 0.130296
0.126257 0.128111 0.127797
0.136583 0.135753 0.135660
0.121922 0.122979 0.123142
0.143660 0.142687 0.142012
0.144104 0.143230 0.143493
0.126355 0.126946 0.126979
0.143652 0.143047 0.142714
0.146138 0.144835 0.143832
0.215112 0.213969 0.213508
0.137114 0.135323 0.134949
0.127182 0.127112 0.126513
0.133760 0.133107 0.132841
0.131521 0.132025 0.133576
0.132687 0.132706 0.132639
0.130969 0.131651 0.131063
0.126074 0.124629 0.125033
0.137473 0.137803 0.139064
0.144762 0.145943 0.147317
0.138257 0.138134 0.137513
0.125193 0.126490 0.126139
0.216358 0.217079 0.217176
0.138629 0.138388 0.138984
0.138961 0.138763 0.139620
0.124193 0.124345 0.124040
0.130285 0.129630 0.129263
0.128716 0.129018 0.126390
0.122106 0.122665 0.123472
0.143608 0.143082 0.141921
0.134852 0.134501 0.134525
0.132265 0.132262 0.132384
0.128258 0.128654 0.127322
0.112222 0.111559 0.111981
0.143823 0.143652 0.141987
0.127547 0.126857 0.126707
0.138272 0.138397 0.138354
0.140570 0.141995 0.143767
0.134613 0.135438 0.135369
0.130376 0.130017 0.130102
0.142188 0.142099 0.142430
0.129281 0.131192 0.131404
0.121717 0.121949 0.120277
0.133324 0.131818 0.131547
0.142008 0.140621 0.141023
0.127789 0.126878 0.126938
0.308915 0.308731 0.308773
0.124641 0.124487 0.121720
0.139484 0.137787 0.136216
0.156992 0.159900 0.160755
0.125119 0.123691 0.123571
0.131019 0.129618 0.130519
0.121893 0.122449 0.121900
0.131213 0.131012 0.129945
0.139213 0.139091 0.139830
0.145834 0.147012 0.146621
0.135684 0.135433 0.135744
0.134653 0.134955 0.134117
0.134149 0.135129 0.134961
0.149520 0.149896 0.147900
0.137310 0.136369 0.135626
0.133866 0.134413 0.134045
0.133147 0.133064 0.132831
0.136256 0.135892 0.137605
0.140810 0.141146 0.142108
0.153564 0.153717 0.152797
0.140672 0.141627 0.142080
0.133998 0.133504 0.133462
0.124485 0.124133 0.124921
0.141718 0.141570 0.140278
0.143376 0.143160 0.144318
0.132187 0.132868 0.133909
0.174591 0.173158 0.171393
0.127090 0.127607 0.128627
0.204046 0.203839 0.203488
0.141866 0.141785 0.141299
0.134478 0.133324 0.131818
0.173109 0.172179 0.172461
0.131879 0.131862 0.130734
0.136746 0.136223 0.136796
0.125159 0.124953 0.124777
0.153612 0.152706 0.152339
0.127925 0.126238 0.128268
0.220680 0.220812 0.220661
0.125560 0.126568 0.126136
0.130337 0.130765 0.131191
0.129228 0.129497 0.129039
0.121735 0.121752 0.120521
0.134247 0.134139 0.134256
0.138960 0.136435 0.135801
0.130144 0.132666 0.133621
0.128599 0.129477 0.130607
0.132902 0.133935 0.133518
0.328386 0.328086 0.328079
0.145158 0.143396 0.142960
0.141789 0.142051 0.141762
0.149787 0.150030 0.151435
0.132600 0.132647 0.133894
0.141430 0.141422 0.141478
0.144090 0.144102 0.142132
0.132852 0.132200 0.133007
0.202015 0.202061 0.202194
0.141677 0.141909 0.141481
0.227497 0.227267 0.225649
0.137126 0.136233 0.135812
0.139662 0.141274 0.140998
0.142157 0.142279 0.142347
0.141923 0.143364 0.143168
0.127634 0.127547 0.126857
0.139397 0.139489 0.140430
0.133890 0.133022 0.132684
0.151459 0.151788 0.151752
0.137376 0.137452 0.137616
0.131902 0.131846 0.132181
0.139141 0.137213 0.137692
0.127709 0.127042 0.126658
0.209443 0.212714 0.212902
0.144768 0.143980 0.143468
0.142207 0.142810 0.143586
0.146982 0.147016 0.147161
0.127946 0.128456 0.128319
0.127901 0.129318 0.129460
0.162602 0.163746 0.163468
0.135409 0.134348 0.134837
0.144808 0.144426 0.144651
0.141635 0.142990 0.142592
0.161660 0.162874 0.162734
0.128412 0.128767 0.128801
0.136547 0.135756 0.135178
0.119133 0.119016 0.119377
0.136109 0.135013 0.133437
0.142427 0.142899 0.143199
0.124097 0.124378 0.123373
0.133029 0.134409 0.134929
0.134459 0.135519 0.136485
0.132695 0.133401 0.133395
0.137696 0.137566 0.139125
0.135746 0.135932 0.135644
0.133460 0.133834 0.134794
0.132362 0.130959 0.131919
0.114356 0.114111 0.113777
0.160763 0.160167 0.161553
0.132217 0.131687 0.131927
0.136720 0.135838 0.134329
0.130910 0.132770 0.133952
0.130535 0.131081 0.132089
0.130714 0.131148 0.131190
0.156616 0.156544 0.156792
0.126820 0.127077 0.127179
0.141183 0.141933 0.142646
0.126579 0.126495 0.125825
0.132115 0.132371 0.132558
0.139855 0.141465 0.141534
0.170614 0.169826 0.169436
0.128558 0.128589 0.129334
0.136453 0.136322 0.136454
0.129633 0.128990 0.127995
0.127343 0.127629 0.130415
0.144883 0.145486 0.145517
0.135471 0.135241 0.134905
0.131421 0.131486 0.132092
0.136290 0.135553 0.135431
0.142556 0.142369 0.142256
0.142701 0.142879 0.142668
0.122878 0.123718 0.123570
0.134556 0.133322 0.135533
0.130166 0.130073 0.129575
0.137205 0.138771 0.138844
0.127766 0.125387 0.127964
0.114822 0.114407 0.113658
0.140592 0.139014 0.139138
0.150526 0.148975 0.148340
0.125423 0.125814 0.124866
0.138940 0.138942 0.138923
0.130408 0.131009 0.132398
0.135936 0.136171 0.135561
0.134684 0.133351 0.134417
0.139855 0.139701 0.139934
0.127856 0.127756 0.127384
0.144968 0.145471 0.144828
0.137638 0.135271 0.135277
0.133560 0.133657 0.133263
0.118531 0.118422 0.117712
0.127272 0.127372 0.126991
0.137652 0.135572 0.135841
0.137095 0.137353 0.137055
0.132959 0.132558 0.132753
0.136838 0.135812 0.135786
0.135834 0.136824 0.137440
0.130850 0.130770 0.131294
0.131874 0.132284 0.132453
0.139502 0.138551 0.137329
0.143478 0.142022 0.143831
0.130415 0.129456 0.129031
0.129279 0.130304 0.130177
0.131171 0.132636 0.132743
0.145872 0.144231 0.143576
0.124833 0.124324 0.123662
0.134530 0.133808 0.134639
0.136749 0.136652 0.136110
0.129902 0.129558 0.129181
0.142993 0.142996 0.142145
0.125492 0.125802 0.126948
0.142969 0.142558 0.142003
0.134483 0.134734 0.134650
0.127791 0.127321 0.124055
0.183240 0.183988 0.182519
0.141323 0.140592 0.139014
0.121103 0.121260 0.120748
0.144234 0.144814 0.145286
0.130940 0.130809 0.129876
0.218424 0.218462 0.218344
0.147679 0.146682 0.146967
0.133992 0.132804 0.131704
0.138503 0.138900 0.139378
0.189820 0.189998 0.189605
0.144418 0.143751 0.143289
0.136256 0.137240 0.136084
0.131342 0.133462 0.133422
0.138750 0.140593 0.140633
0.140745 0.140376 0.142821
0.137097 0.138368 0.138960
0.130499 0.131829 0.131832
0.128669 0.128717 0.127177
0.128392 0.127761 0.128688
0.163152 0.161347 0.161909
0.141481 0.142296 0.143821
0.128902 0.129977 0.132687
0.202819 0.202326 0.202794
0.135630 0.135190 0.133984
0.126959 0.128255 0.127770
0.126871 0.127086 0.128332
0.142254 0.142385 0.143388
0.123975 0.125813 0.127537
0.141207 0.141066 0.140865
0.127541 0.127097 0.128124
0.138284 0.138726 0.138983
0.138332 0.138567 0.141003
0.142673 0.142558 0.142405
0.130312 0.129937 0.131939
0.128663 0.127840 0.127595
0.153370 0.153252 0.153088
0.121271 0.120526 0.119947
0.290301 0.284922 0.284484
0.135531 0.135986 0.134854
0.142286 0.141040 0.140601
0.135112 0.136630 0.135761
0.125108 0.126736 0.129545
0.134645 0.135959 0.135919
0.140433 0.139454 0.139683
0.142959 0.143390 0.143569
0.149844 0.150001 0.149842
0.143803 0.142963 0.141718
0.126914 0.127795 0.129160
0.129200 0.128858 0.128946
0.142989 0.143797 0.144515
0.130828 0.130395 0.131529
0.136658 0.136570 0.136698
0.121311 0.121876 0.120223
0.133955 0.136202 0.136665
0.143380 0.142478 0.144422
0.138535 0.139192 0.138820
0.141464 0.140687 0.140755
0.138173 0.136105 0.136017
0.133574 0.133858 0.134227
0.133628 0.132755 0.134383
0.143145 0.140851 0.140626
0.128996 0.129212 0.128266
0.143104 0.143765 0.142623
0.114573 0.114634 0.114133
0.135551 0.135185 0.136915
0.132658 0.133093 0.131236
0.141901 0.142622 0.141501
0.137587 0.135888 0.135464
0.126437 0.127246 0.128225
0.135530 0.135503 0.134479
0.202469 0.203368 0.203741
0.154171 0.153390 0.153269
0.141299 0.141413 0.141492
0.159108 0.158807 0.159068
0.124092 0.123231 0.122711
0.135634 0.136663 0.136806
0.133831 0.133638 0.134008
0.143911 0.142344 0.141365
0.144310 0.143862 0.145290
0.151580 0.151016 0.151118
0.139419 0.140765 0.139978
0.131518 0.130973 0.130235
0.129294 0.128779 0.128473
0.140447 0.139911 0.140612
0.121925 0.124261 0.123980
0.114265 0.113987 0.113567
0.129447 0.126757 0.126688
0.132656 0.132434 0.133471
0.188100 0.188285 0.192287
0.223964 0.223781 0.224872
0.142009 0.143274 0.142987
0.130166 0.129411 0.130221
0.146157 0.146131 0.145778
0.130441 0.130516 0.130363
0.140552 0.141982 0.143348
0.162385 0.162596 0.163392
0.124055 0.124155 0.124835
0.137537 0.137590 0.137965
0.132597 0.132474 0.131974
0.143008 0.143224 0.143614
0.142466 0.143275 0.142318
0.136506 0.135734 0.135063
0.132641 0.132448 0.132632
0.131856 0.132356 0.132554
0.145087 0.145363 0.144954
0.125003 0.125742 0.125025
0.137047 0.136288 0.136871
0.130987 0.131099 0.130487
0.130993 0.131492 0.131159
0.128146 0.127876 0.125470
0.151250 0.151477 0.154859
0.328169 0.328266 0.326397
0.130229 0.130681 0.130828
0.125901 0.125837 0.125472
0.140305 0.139935 0.138306
0.220015 0.219667 0.219124
0.135736 0.135746 0.135274
0.133108 0.134294 0.134481
0.142344 0.142732 0.140913
0.117285 0.116498 0.115341
0.136801 0.138177 0.138447
0.145918 0.146400 0.146213
0.144886 0.145183 0.145889
0.132861 0.130925 0.131346
0.135152 0.133510 0.133157
0.134945 0.134783 0.134582
0.144803 0.144144 0.144269
0.157938 0.158519 0.158767
0.143723 0.142665 0.140525
0.161536 0.160763 0.160167
0.143391 0.143298 0.137020
0.131270 0.131001 0.131587
0.126905 0.126130 0.125472
0.145236 0.145407 0.147600
0.143947 0.143645 0.142743
0.145733 0.144282 0.145102
0.133447 0.133355 0.133922
0.122435 0.122569 0.122219
0.132303 0.132268 0.132140
0.135687 0.135743 0.134068
0.136276 0.136205 0.135152
0.119887 0.119818 0.120232
0.138866 0.139578 0.138842
0.140421 0.139601 0.140010
0.138751 0.135903 0.137031
0.138234 0.138971 0.139226
0.134199 0.134302 0.133716
0.136372 0.136314 0.136378
0.125152 0.125520 0.125280
0.135651 0.134902 0.136273
0.126664 0.126436 0.126726
0.113788 0.114942 0.115029
0.129304 0.129841 0.130582
0.138448 0.137883 0.137563
0.127525 0.126505 0.126607
0.126088 0.126769 0.127787
0.125058 0.125191 0.125704
0.147437 0.147520 0.144891
0.147007 0.146674 0.146959
0.132496 0.137762 0.139062
0.130825 0.129596 0.129781
0.145731 0.145291 0.145724
0.145376 0.145910 0.146150
0.130857 0.130150 0.130088
0.133760 0.136000 0.134627
0.137411 0.139230 0.140203
0.126008 0.125827 0.128031
0.134837 0.133625 0.132136
0.139119 0.139976 0.140025
0.137992 0.137832 0.137950
0.131252 0.130942 0.131168
0.218297 0.218565 0.218554
0.126688 0.126809 0.127627
0.131347 0.131379 0.131926
0.124095 0.124085 0.123953
0.136984 0.136986 0.136564
0.173086 0.170739 0.170351
0.147952 0.148402 0.147298
0.129207 0.128124 0.126969
0.140106 0.138311 0.138152
0.134428 0.134314 0.134768
0.136726 0.135291 0.132641
0.138882 0.138039 0.137926
0.130737 0.130220 0.130818
0.327052 0.327799 0.327416
0.131823 0.132795 0.138649
0.136878 0.137264 0.137671
0.126931 0.128529 0.128557
0.133499 0.135164 0.135413
0.133336 0.134633 0.135606
0.132192 0.132254 0.132176
0.126630 0.124818 0.126474
0.137061 0.136952 0.137014
0.130819 0.134315 0.135085
0.139141 0.138721 0.139345
0.138684 0.136075 0.135209
0.146273 0.146405 0.146831
0.143403 0.143639 0.141750
0.138134 0.137513 0.137616
0.128999 0.129132 0.129434
0.149253 0.149520 0.149896
0.129549 0.129066 0.128874
0.152356 0.152085 0.151844
0.114307 0.114068 0.114512
0.137804 0.138158 0.136717
0.130147 0.130241 0.130132
0.142286 0.142050 0.142356
0.130448 0.128648 0.127208
0.138721 0.138640 0.139078
0.145984 0.145460 0.144773
0.135353 0.134224 0.132291
0.130443 0.130837 0.130105
0.124550 0.124599 0.124775
0.181065 0.181117 0.181547
0.136639 0.135379 0.135814
0.141633 0.141468 0.140676
0.134357 0.134243 0.134242
0.128953 0.126206 0.126260
0.170553 0.170131 0.167316
0.129737 0.130491 0.130489
0.133562 0.131848 0.132000
0.131614 0.131556 0.131805
0.135570 0.135713 0.135747
0.129547 0.128627 0.128744
0.113923 0.114142 0.114265
0.132609 0.133689 0.133766
0.129771 0.130157 0.129745
0.175298 0.173994 0.174454
0.123016 0.122693 0.124366
0.132774 0.133218 0.132693
0.133939 0.134523 0.135020
0.141811 0.142728 0.142632
0.130132 0.130207 0.130307
0.122588 0.122045 0.122851
0.141352 0.141630 0.141328
0.125133 0.125251 0.125523
0.117623 0.118498 0.118614
0.138467 0.140248 0.141428
0.131988 0.132369 0.132615
0.135372 0.136036 0.136319
0.255758 0.254940 0.249983
0.146277 0.145814 0.146295
0.134069 0.134558 0.135178
0.138381 0.138468 0.137813
0.127630 0.127755 0.127563
0.135438 0.135444 0.135941
0.150741 0.150018 0.149795
0.131904 0.131638 0.130885
0.127157 0.128416 0.127774
0.129513 0.129794 0.130330
0.138056 0.138663 0.138891
0.116910 0.116355 0.115857
0.140193 0.137338 0.137376
0.123312 0.122985 0.122745
0.128614 0.128802 0.128247
0.130987 0.131102 0.131050
0.127392 0.127725 0.127529
0.133717 0.132827 0.132566
0.134428 0.134645 0.135179
0.125336 0.125414 0.125310
0.146545 0.143527 0.140945
0.147106 0.147471 0.147923
0.142959 0.142922 0.142964
0.148984 0.147752 0.146976
0.135613 0.134811 0.135114
0.144827 0.146355 0.146655
0.140515 0.140933 0.140542
0.125251 0.124461 0.122241
0.127646 0.127114 0.127076
0.153117 0.153730 0.153239
0.138912 0.139220 0.138543
0.141108 0.140714 0.140843
0.136787 0.135117 0.133949
0.128231 0.129149 0.128476
0.127645 0.127783 0.128548
0.144180 0.144093 0.143673
0.140645 0.141119 0.140676
0.135106 0.135650 0.136050
0.135028 0.135014 0.134239
0.123692 0.124110 0.124965
0.144216 0.143601 0.144743
0.144507 0.143899 0.143235
0.169746 0.169983 0.171351
0.140411 0.140204 0.140390
0.148731 0.148749 0.154712
0.123967 0.123648 0.123780
0.125222 0.128749 0.130038
0.133146 0.135017 0.136175
0.120497 0.120856 0.121164
0.140873 0.140718 0.141512
0.144080 0.143249 0.142607
0.136204 0.136183 0.135200
0.153743 0.156740 0.156268
0.141604 0.142365 0.143130
0.138549 0.138498 0.138058
0.140070 0.140487 0.140159
0.131017 0.130663 0.130770
0.137942 0.137180 0.137200
0.136591 0.135807 0.136027
0.124166 0.124184 0.123631
0.126973 0.126499 0.126367
0.144133 0.148822 0.148879
0.179945 0.179070 0.177947
0.125210 0.124529 0.124790
0.139836 0.139813 0.138915
0.141293 0.142341 0.142841
0.149447 0.149114 0.149411
0.138224 0.137896 0.137744
0.132847 0.133096 0.133259
0.143586 0.144375 0.143709
0.136312 0.133489 0.133158
0.163127 0.162686 0.162635
0.138365 0.140113 0.139723
0.116221 0.116584 0.117242
0.162337 0.162420 0.161766
0.125323 0.126204 0.126432
0.139145 0.139593 0.139702
0.135752 0.136008 0.137906
0.142752 0.141859 0.143007
0.143941 0.143966 0.144555
0.170851 0.172035 0.171734
0.128957 0.127494 0.127527
0.130587 0.131074 0.131592
0.125560 0.126010 0.124604
0.143792 0.143721 0.142911
0.216619 0.217176 0.217303
0.125763 0.125137 0.123597
0.139104 0.139754 0.139662
0.121352 0.120935 0.120981
0.140499 0.140880 0.141061
0.137758 0.138004 0.137087
0.130652 0.130883 0.130628
0.137252 0.136785 0.137094
0.125610 0.126831 0.128443
0.135485 0.134728 0.135151
0.139491 0.138515 0.138566
0.135635 0.133962 0.134197
0.133468 0.133604 0.132579
0.142045 0.142093 0.141492
0.128942 0.130685 0.131050
0.129883 0.130001 0.130644
0.130009 0.130462 0.130936
0.134294 0.134481 0.133886
0.137770 0.137378 0.135980
0.129919 0.130535 0.131081
0.141414 0.141674 0.144079
0.125710 0.125669 0.126123
0.136993 0.138013 0.137433
0.140737 0.140668 0.141806
0.140684 0.138680 0.138947
0.134645 0.134586 0.134150
0.139390 0.137916 0.136359
0.124518 0.124788 0.125288
0.137194 0.138410 0.137188
0.132014 0.133682 0.134095
0.128551 0.128496 0.128246
0.138190 0.137986 0.138121
0.123385 0.122004 0.121657
0.139615 0.139869 0.140016
0.134236 0.132805 0.131465
0.129403 0.129520 0.128716
0.133267 0.134106 0.134149
0.135781 0.135881 0.135197
0.129176 0.127648 0.128375
0.142732 0.142060 0.142097
0.172600 0.172264 0.172413
0.134728 0.135202 0.133716
0.138016 0.138194 0.138583
0.130441 0.130608 0.131958
0.142253 0.140404 0.140475
0.129859 0.130066 0.129272
0.121919 0.122152 0.121555
0.132357 0.132141 0.132505
0.143682 0.144555 0.144047
0.175521 0.175052 0.174114
0.136632 0.135951 0.135934
0.133226 0.132736 0.133134
0.135820 0.135172 0.134283
0.144845 0.144350 0.143970
0.140442 0.137337 0.137325
0.138137 0.138913 0.138400
0.139564 0.139085 0.139207
0.149493 0.148944 0.148867
0.136397 0.136872 0.136472
0.138127 0.138073 0.137816
0.136629 0.137158 0.137225
0.132163 0.131526 0.130492
0.173286 0.173126 0.173028
0.154869 0.154828 0.156183
0.135427 0.135632 0.136536
0.129177 0.128877 0.128749
0.141054 0.140238 0.140406
0.129941 0.130635 0.132566
0.132044 0.132167 0.132049
0.135838 0.134329 0.134314
0.125994 0.127627 0.127313
0.128960 0.129610 0.129311
0.126476 0.127039 0.127793
0.132832 0.133124 0.133560
0.125827 0.126929 0.126719
0.130815 0.130401 0.130106
0.125061 0.124971 0.126015
0.150360 0.150951 0.149203
0.126650 0.124891 0.124902
0.137144 0.138516 0.138940
0.328364 0.328237 0.328083
0.139320 0.138875 0.139548
0.147790 0.148592 0.149315
0.132732 0.132144 0.131281
0.132651 0.133083 0.133299
0.127397 0.127114 0.125796
0.123360 0.122799 0.122735
0.116686 0.117970 0.116523
0.207199 0.207527 0.206974
0.134417 0.131330 0.131780
0.120237 0.119123 0.121342
0.131347 0.131456 0.132143
0.126993 0.126133 0.125974
0.124080 0.124089 0.125012
0.152905 0.152883 0.153289
0.157391 0.157089 0.157857
0.132715 0.132412 0.133526
0.134098 0.134317 0.134304
0.120731 0.120507 0.121145
0.113587 0.113323 0.113012
0.141627 0.142080 0.141881
0.144691 0.144694 0.143810
0.329863 0.329601 0.329743
0.133910 0.134413 0.134320
0.142770 0.144503 0.143003
0.145383 0.145055 0.144750
0.133480 0.133724 0.133831
0.142317 0.142195 0.142792
0.138872 0.139601 0.140119
0.131359 0.130975 0.131706
0.146151 0.146060 0.146225
0.134381 0.134475 0.134887
0.145454 0.145544 0.145314
0.130520 0.131276 0.130412
0.118870 0.117795 0.117580
0.141067 0.140940 0.139394
0.140330 0.140345 0.141257
0.130491 0.130615 0.130233
0.140093 0.139807 0.139603
0.134750 0.134419 0.134112
0.136736 0.136680 0.137356
0.135088 0.134941 0.135906
0.130610 0.130799 0.130478
0.135971 0.136503 0.136969
0.130913 0.130295 0.129114
0.125144 0.125247 0.127051
0.137407 0.137565 0.135562
0.127772 0.128455 0.127588
0.139846 0.139414 0.138985
0.134154 0.134595 0.135072
0.123560 0.123742 0.123419
0.135790 0.136287 0.135805
0.127982 0.128023 0.129019
0.123753 0.123852 0.122551
0.130800 0.131321 0.131573
0.132443 0.132159 0.132576
0.151118 0.150993 0.150914
0.134987 0.138969 0.140017
0.146489 0.146380 0.145383
0.120982 0.120667 0.121884
0.141584 0.138208 0.137890
0.126187 0.125318 0.125433
0.124625 0.125403 0.126538
0.124908 0.125753 0.125406
0.135962 0.135779 0.135141
0.132262 0.132605 0.132166
0.138142 0.139435 0.140506
0.327268 0.327642 0.327948
0.151416 0.151624 0.151551
0.123990 0.123804 0.124506
0.134924 0.134987 0.136602
0.133442 0.134261 0.133746
0.138250 0.138293 0.137818
0.129597 0.128203 0.127478
0.134070 0.134113 0.134849
0.186686 0.185579 0.185136
0.123614 0.124327 0.124887
0.126946 0.126979 0.127233
0.129268 0.124166 0.124184
0.122655 0.120190 0.118379
0.134293 0.133569 0.134632
0.127093 0.127456 0.126995
0.133483 0.132817 0.131220
0.127802 0.126951 0.125996
0.150058 0.148745 0.145370
0.217123 0.217418 0.217908
0.127093 0.127228 0.127812
0.127632 0.125960 0.125270
0.131055 0.129799 0.130370
0.132238 0.133596 0.133989
0.126319 0.124956 0.124883
0.122125 0.123766 0.124792
0.136327 0.136947 0.136967
0.120992 0.121534 0.124127
0.137641 0.136253 0.135861
0.130190 0.130012 0.130002
0.126117 0.127515 0.127467
0.139681 0.141461 0.141614
0.145599 0.145133 0.142077
0.127840 0.127664 0.126955
0.133850 0.134599 0.135160
0.126691 0.126706 0.127223
0.126431 0.125601 0.127535
0.129377 0.128024 0.127937
0.122394 0.122400 0.122363
0.138630 0.137667 0.138451
0.138223 0.138424 0.138697
0.139154 0.140543 0.139431
0.139705 0.140001 0.136547
0.127040 0.126021 0.125973
0.127102 0.126390 0.126847
0.134383 0.135313 0.135524
0.141969 0.142037 0.142198
0.138745 0.136477 0.134530
0.133471 0.133166 0.132870
0.158639 0.158729 0.153796
0.125161 0.124630 0.124903
0.131030 0.131155 0.130528
0.123861 0.122737 0.122968
0.144501 0.145381 0.145379
0.201985 0.202849 0.202604
0.123652 0.123776 0.124424
0.139938 0.140250 0.140250
0.136484 0.136251 0.136182
0.138089 0.137544 0.134476
0.128487 0.128629 0.128483
0.134177 0.135203 0.134888
0.143172 0.144450 0.144416
0.140665 0.139826 0.139453
0.132158 0.132931 0.133609
0.146579 0.145700 0.146385
0.136031 0.135328 0.134848
0.144264 0.145029 0.145480
0.136037 0.134394 0.134174
0.137826 0.138368 0.139124
0.125506 0.125822 0.126100
0.128500 0.128874 0.129611
0.135686 0.135808 0.135659
0.129534 0.125955 0.125213
0.139493 0.139509 0.140493
0.120746 0.121475 0.121951
0.133090 0.133287 0.133525
0.136870 0.136779 0.137962
0.139477 0.139463 0.139212
0.131939 0.131008 0.130245
0.138347 0.137978 0.137498
0.147471 0.146955 0.149493
0.130323 0.129368 0.128810
0.160555 0.159873 0.159263
0.145797 0.144979 0.144809
0.130555 0.131336 0.131790
0.144610 0.144338 0.144102
0.133275 0.134191 0.135584
0.139194 0.139092 0.140139
0.130927 0.131403 0.131825
0.126641 0.127327 0.129704
0.136935 0.135830 0.137031
0.119906 0.120637 0.121543
0.126284 0.126213 0.125594
0.140320 0.138480 0.138745
0.134887 0.134929 0.133801
0.130353 0.129824 0.130484
0.133083 0.133435 0.133364
0.136186 0.136150 0.134965
0.138557 0.133550 0.131873
0.125627 0.125737 0.126171
0.196009 0.206725 0.214606
0.114148 0.112686 0.112900
0.136428 0.137347 0.136819
0.139057 0.140325 0.140251
0.124585 0.123350 0.123010
0.136536 0.136667 0.135931
0.136964 0.136672 0.135726
0.131891 0.131739 0.130947
0.134085 0.134308 0.134800
0.139769 0.140184 0.140200
0.185460 0.154557 0.143746
0.127696 0.129039 0.130958
0.128788 0.128646 0.128982
0.203204 0.202978 0.202844
0.123944 0.124241 0.123930
0.142765 0.143769 0.142384
0.141941 0.142747 0.144124
0.137802 0.140641 0.140524
0.135888 0.135836 0.135887
0.144674 0.144536 0.144289
0.127033 0.126908 0.127378
0.327399 0.327161 0.327151
0.133938 0.135108 0.136330
0.170163 0.170358 0.166674
0.153169 0.153186 0.153108
