0.220491 0.220976 0.222120
0.218893 0.219928 0.222005
0.239142 0.239037 0.237932
0.158961 0.159940 0.160359
0.176530 0.174734 0.178177
0.207340 0.206561 0.207361
0.174652 0.174376 0.174023
0.188713 0.187538 0.186421
0.181675 0.182094 0.181719
0.286175 0.287260 0.285301
0.172538 0.172628 0.171959
0.210683 0.211272 0.212611
0.359390 0.357027 0.348540
0.222358 0.221774 0.222068
0.180310 0.180176 0.180633
0.337364 0.335458 0.334354
0.229433 0.230672 0.230399
0.232068 0.230138 0.229564
0.163186 0.162651 0.162326
0.236903 0.234296 0.234328
0.173723 0.174133 0.174682
0.314042 0.308986 0.308566
0.217596 0.218229 0.216218
0.228635 0.229055 0.228792
0.395710 0.392611 0.391999
0.200774 0.201455 0.201797
0.188918 0.192193 0.189853
0.306139 0.305537 0.303238
0.198774 0.200357 0.201883
0.179029 0.176751 0.178749
0.163170 0.162928 0.163805
0.194547 0.194777 0.196583
0.352839 0.334615 0.334165
0.172110 0.171916 0.169481
0.215811 0.217435 0.217388
0.171854 0.176872 0.176859
0.296650 0.297480 0.297992
0.250713 0.254279 0.255575
0.231690 0.231867 0.232630
0.304663 0.304666 0.304112
0.210846 0.207320 0.206151
0.207101 0.207831 0.207203
0.213448 0.211792 0.210875
0.159703 0.159444 0.159213
0.191692 0.192197 0.192168
0.209909 0.210370 0.210273
0.220827 0.218464 0.214635
0.170281 0.170069 0.168291
0.263359 0.264194 0.264802
0.214674 0.215388 0.216200
0.295962 0.294633 0.278156
0.268482 0.269774 0.269930
0.217912 0.216925 0.216965
0.175693 0.175944 0.174822
0.195656 0.194869 0.193975
0.200456 0.200029 0.200384
0.168150 0.167661 0.167315
0.190853 0.190318 0.190823
0.311014 0.306059 0.305793
0.216087 0.215554 0.216564
0.176895 0.175555 0.171884
0.264177 0.267233 0.266924
0.205518 0.207253 0.209047
0.261917 0.262479 0.262843
0.263199 0.263546 0.265305
0.192803 0.192588 0.194610
0.200440 0.200983 0.203082
0.228029 0.227265 0.225378
0.163450 0.163582 0.163101
0.200391 0.195911 0.195815
0.237895 0.238689 0.240278
0.307118 0.308100 0.313734
0.347287 0.346580 0.347175
0.362922 0.356621 0.357308
0.187249 0.186786 0.186684
0.235016 0.234401 0.234848
0.298232 0.299505 0.296331
0.204986 0.208162 0.209073
0.194840 0.196466 0.195467
0.262967 0.262619 0.261110
0.286314 0.286801 0.285584
0.172442 0.172936 0.172453
0.198605 0.198124 0.198056
0.209468 0.205887 0.205757
0.270527 0.270783 0.271153
0.203230 0.207247 0.207040
0.171515 0.176141 0.178448
0.196259 0.197237 0.197567
0.254397 0.257254 0.261931
0.214537 0.215055 0.214488
0.210952 0.210880 0.210039
0.178891 0.174438 0.170460
0.205604 0.206027 0.206466
0.187489 0.187683 0.187408
0.184386 0.184490 0.184447
0.195745 0.196767 0.198814
0.198908 0.199323 0.191157
0.250414 0.254377 0.259077
0.177312 0.177437 0.177188
0.206709 0.206873 0.209973
0.189644 0.189860 0.189240
0.218263 0.217417 0.210209
0.163143 0.163260 0.161652
0.201305 0.201027 0.200434
0.332244 0.332914 0.332040
0.208220 0.208889 0.210999
0.250084 0.249017 0.249997
0.173247 0.172157 0.171657
0.190207 0.200314 0.200605
0.196314 0.194600 0.191639
0.218086 0.215650 0.215720
0.230541 0.231615 0.230708
0.171355 0.171918 0.172412
0.274100 0.271216 0.268656
0.190212 0.190002 0.189085
0.168930 0.171271 0.173814
0.191261 0.192750 0.194424
0.184143 0.184336 0.186353
0.271689 0.280852 0.284404
0.282757 0.288530 0.290254
0.191430 0.187877 0.185920
0.226011 0.236737 0.234143
0.193857 0.194451 0.194397
0.219478 0.219308 0.218876
0.174518 0.176822 0.180467
0.263008 0.262445 0.261883
0.217323 0.215379 0.214244
0.187370 0.189313 0.186965
0.188206 0.187761 0.190427
0.171826 0.173693 0.173711
0.232397 0.231912 0.230808
0.176913 0.177654 0.178442
0.377344 0.377621 0.377060
0.371572 0.375650 0.376351
0.208157 0.209411 0.208812
0.379037 0.378699 0.379418
0.169870 0.169771 0.169648
0.212559 0.212615 0.211857
0.294971 0.293193 0.292789
0.339604 0.340242 0.340602
0.215308 0.216788 0.221255
0.379374 0.379850 0.379977
0.242321 0.243093 0.243703
0.176443 0.175944 0.176407
0.374130 0.373680 0.372948
0.210288 0.209549 0.209418
0.192148 0.192083 0.191866
0.159278 0.161515 0.164028
0.335904 0.336973 0.344308
0.204666 0.203153 0.201094
0.282303 0.282152 0.281916
0.222754 0.222500 0.223583
0.189501 0.189393 0.189432
0.408699 0.408994 0.409437
0.225276 0.224239 0.221912
0.244336 0.244120 0.240149
0.310192 0.308537 0.308027
0.272501 0.271674 0.272862
0.177828 0.179277 0.179337
0.188351 0.187639 0.185631
0.210546 0.210380 0.210621
0.170510 0.169596 0.170993
0.222717 0.219858 0.220165
0.198638 0.194750 0.195332
0.192255 0.192098 0.191984
0.194607 0.194549 0.191538
0.197242 0.197542 0.196881
0.197277 0.197503 0.197531
0.194660 0.193978 0.193789
0.181783 0.180016 0.181981
0.283792 0.283515 0.283872
0.167883 0.166924 0.167969
0.188576 0.188210 0.187573
0.187399 0.187809 0.188704
0.260052 0.259731 0.239642
0.177394 0.176340 0.179314
0.297469 0.285866 0.286788
0.174186 0.175742 0.178696
0.242486 0.243222 0.242538
0.219377 0.217962 0.217917
0.236201 0.237231 0.240029
0.165113 0.164983 0.167100
0.364794 0.366876 0.367390
0.187932 0.185497 0.184248
0.311006 0.320570 0.324707
0.236262 0.238415 0.238658
0.203626 0.203459 0.202761
0.204880 0.203219 0.196821
0.157100 0.157318 0.154711
0.173962 0.173976 0.174184
0.176037 0.175068 0.173125
0.173966 0.180774 0.183369
0.290222 0.288516 0.290534
0.269366 0.268337 0.266837
0.192562 0.190552 0.191351
0.326183 0.310883 0.311014
0.189261 0.190946 0.190081
0.168986 0.169751 0.169934
0.210467 0.210522 0.210636
0.294337 0.294385 0.293533
0.214997 0.214461 0.214142
0.208864 0.210168 0.210730
0.206312 0.208328 0.208744
0.156739 0.154195 0.151746
0.170365 0.169697 0.177381
0.190107 0.191477 0.193799
0.216895 0.217041 0.215619
0.178495 0.178273 0.178455
0.361148 0.354170 0.354430
0.190113 0.191377 0.194184
0.232580 0.233361 0.233425
0.190725 0.190520 0.191019
0.268806 0.267162 0.266442
0.155058 0.156983 0.159692
0.233080 0.233531 0.230982
0.277380 0.277054 0.276868
0.169798 0.172117 0.169952
0.198134 0.195255 0.197894
0.162392 0.163662 0.163252
0.427713 0.427933 0.428072
0.209716 0.200559 0.200073
0.204277 0.204913 0.208220
0.168860 0.173388 0.176463
0.230559 0.229546 0.230540
0.185048 0.184598 0.184214
0.259593 0.261411 0.249217
0.187103 0.187415 0.187131
0.179211 0.182092 0.182425
0.283534 0.283741 0.284728
0.188519 0.190479 0.191092
0.185191 0.184752 0.185070
0.199528 0.199980 0.199703
0.266259 0.268598 0.269035
0.186897 0.187103 0.187205
0.186361 0.185982 0.184190
0.349208 0.348707 0.348714
0.231701 0.230916 0.229589
0.202969 0.202953 0.201786
0.241472 0.236017 0.234695
0.161484 0.157918 0.160640
0.189134 0.192757 0.192904
0.395322 0.408112 0.408316
0.177919 0.183039 0.181308
0.237412 0.235942 0.234838
0.199602 0.200267 0.199959
0.259827 0.259375 0.259175
0.210915 0.211996 0.211662
0.392001 0.390969 0.390453
0.362940 0.364278 0.365002
0.172048 0.173883 0.175411
0.300577 0.298951 0.288672
0.209743 0.208348 0.205706
0.262314 0.262177 0.262817
0.172980 0.175150 0.173862
0.205039 0.208289 0.216876
0.200596 0.200898 0.199010
0.255540 0.245410 0.242845
0.228397 0.221709 0.218999
0.241211 0.237957 0.234381
0.207554 0.206589 0.204624
0.201674 0.200286 0.199413
0.190474 0.192715 0.193532
0.243014 0.239753 0.239351
0.183325 0.183701 0.185670
0.363300 0.362034 0.363154
0.214047 0.211569 0.207541
0.333569 0.333822 0.336043
0.219140 0.219936 0.220515
0.185385 0.186796 0.186987
0.213050 0.214111 0.214286
0.306390 0.307279 0.305479
0.185566 0.182763 0.183219
0.185907 0.185953 0.185782
0.291673 0.288356 0.287393
0.211740 0.211561 0.212438
0.225917 0.226837 0.221428
0.308688 0.309731 0.311341
0.200466 0.204249 0.207755
0.206734 0.209036 0.208703
0.180322 0.178097 0.178262
0.181514 0.181206 0.181181
0.265177 0.267094 0.273682
0.165186 0.164756 0.164926
0.250693 0.248887 0.247978
0.226815 0.225974 0.224913
0.173125 0.172994 0.172566
0.187717 0.188597 0.188148
0.194933 0.195707 0.196195
0.232378 0.232422 0.230703
0.222851 0.222845 0.223931
0.271206 0.272244 0.272705
0.356332 0.360096 0.368325
0.197742 0.198475 0.200596
0.214027 0.213234 0.213656
0.195602 0.195052 0.194662
0.190837 0.190492 0.191932
0.188368 0.188697 0.189834
0.202535 0.203841 0.205683
0.205237 0.204587 0.204538
0.304554 0.303075 0.294381
0.192330 0.190874 0.189880
0.208163 0.208723 0.208950
0.183827 0.180189 0.174842
0.358486 0.352863 0.355770
0.202494 0.202528 0.202599
0.291168 0.293351 0.295243
0.284625 0.282991 0.283490
0.205966 0.205952 0.204308
0.200116 0.199990 0.198981
0.343653 0.342357 0.344336
0.212027 0.211869 0.211503
0.234309 0.234030 0.233798
0.263973 0.263985 0.263651
0.159530 0.157027 0.157582
0.288658 0.281353 0.279425
0.181282 0.181188 0.181571
0.198332 0.197699 0.197734
0.338435 0.336750 0.336829
0.228092 0.228450 0.229168
0.193517 0.196915 0.195391
0.161570 0.160391 0.159614
0.311772 0.310803 0.305249
0.306044 0.310349 0.310520
0.225118 0.224310 0.223644
0.337848 0.329759 0.329672
0.239087 0.238510 0.238196
0.173711 0.174061 0.173630
0.273571 0.273578 0.273587
0.245847 0.246290 0.247587
0.182718 0.182724 0.182700
0.238510 0.238196 0.237516
0.188305 0.190113 0.191377
0.168588 0.168019 0.167109
0.200030 0.196902 0.197837
0.180507 0.179275 0.177306
0.194595 0.196554 0.196644
0.188106 0.187982 0.187182
0.183594 0.186759 0.184986
0.171632 0.172104 0.172541
0.185850 0.186656 0.186338
0.185164 0.186505 0.186534
0.210030 0.209369 0.209296
0.210536 0.210227 0.209505
0.193097 0.194190 0.193911
0.313514 0.311828 0.311353
0.163822 0.166300 0.164421
0.179827 0.178160 0.178124
0.214877 0.215040 0.215068
0.178773 0.178989 0.178721
0.188956 0.187369 0.186919
0.261592 0.262619 0.262707
0.184439 0.184166 0.182114
0.164764 0.165039 0.166491
0.343504 0.342293 0.343331
0.276305 0.277735 0.276588
0.176189 0.174993 0.174698
0.158780 0.158333 0.158547
0.201605 0.200812 0.203597
0.194018 0.194138 0.194798
0.272487 0.272099 0.271619
0.352452 0.350921 0.349557
0.311191 0.312211 0.314553
0.178702 0.178810 0.178206
0.230234 0.230262 0.229928
0.195705 0.204228 0.205036
0.189662 0.189674 0.189211
0.208260 0.207491 0.206496
0.211209 0.211500 0.212983
0.301646 0.302684 0.302190
0.205539 0.206738 0.205263
0.220389 0.218142 0.217317
0.239559 0.238867 0.237940
0.146053 0.145896 0.146394
0.317177 0.311061 0.307512
0.213813 0.213422 0.212900
0.313704 0.314999 0.319949
0.219146 0.213873 0.214602
0.193419 0.198391 0.198114
0.177381 0.178145 0.179050
0.203084 0.202754 0.204653
0.214438 0.215084 0.214872
0.174188 0.174439 0.174950
0.162362 0.162846 0.162958
0.312691 0.312169 0.311805
0.205785 0.203665 0.201376
0.199748 0.198499 0.198922
0.136501 0.138381 0.138252
0.215860 0.219336 0.218301
0.146574 0.145465 0.144095
0.190115 0.188061 0.184777
0.208809 0.212418 0.208966
0.197840 0.197001 0.196597
0.195945 0.196373 0.195241
0.219548 0.219638 0.219094
0.176768 0.177428 0.177534
0.193878 0.193892 0.196069
0.196963 0.197494 0.197546
0.195667 0.197447 0.200312
0.261270 0.260022 0.259936
0.180355 0.181151 0.185519
0.198214 0.197563 0.192163
0.223902 0.227622 0.231075
0.172226 0.173965 0.174638
0.250433 0.248960 0.247806
0.206477 0.205470 0.205411
0.177296 0.179207 0.179773
0.196844 0.197305 0.198007
0.210670 0.211545 0.211702
0.318261 0.317490 0.319043
0.302576 0.302783 0.301349
0.190749 0.191147 0.191819
0.205916 0.204204 0.203796
0.175831 0.176889 0.176265
0.266365 0.263555 0.263328
0.135667 0.133679 0.133629
0.219122 0.220861 0.221194
0.191037 0.191300 0.191447
0.166731 0.169126 0.167883
0.211232 0.211381 0.210783
0.199070 0.204065 0.206195
0.235688 0.234900 0.234771
0.283136 0.280926 0.280739
0.293411 0.292574 0.289402
0.245164 0.245211 0.243746
0.372998 0.372829 0.370940
0.168393 0.171515 0.176141
0.221835 0.221004 0.221257
0.208576 0.209576 0.210467
0.180697 0.180062 0.180489
0.326849 0.326938 0.327901
0.153387 0.153909 0.154007
0.214891 0.214271 0.212305
0.208191 0.207153 0.205338
0.188205 0.186854 0.184315
0.256109 0.256173 0.256974
0.257668 0.257843 0.258130
0.207261 0.207531 0.206870
0.186127 0.186128 0.186372
0.202605 0.203217 0.205323
0.205427 0.205243 0.204540
0.170105 0.169929 0.168908
0.199332 0.196391 0.194461
0.163838 0.164106 0.164102
0.301761 0.299506 0.295819
0.222509 0.229461 0.228255
0.161426 0.161060 0.161721
0.276715 0.276831 0.276971
0.371588 0.371402 0.377344
0.204373 0.202436 0.202465
0.276611 0.275656 0.275238
0.186292 0.184386 0.184049
0.187306 0.186946 0.186730
0.190326 0.192465 0.191893
0.209957 0.205280 0.203737
0.338179 0.339261 0.339290
0.196220 0.196636 0.198838
0.336952 0.340386 0.340351
0.183681 0.180634 0.175748
0.207189 0.207686 0.207606
0.184511 0.184746 0.185131
0.209877 0.208900 0.210309
0.170402 0.167680 0.168014
0.172088 0.172298 0.171427
0.170062 0.170782 0.171359
0.174051 0.174105 0.175020
0.280552 0.280726 0.280295
0.196811 0.194767 0.192112
0.273713 0.272130 0.271521
0.326147 0.324291 0.325506
0.378198 0.379079 0.379349
0.210914 0.210231 0.207085
0.200353 0.199445 0.199168
0.185203 0.185267 0.185456
0.335030 0.333949 0.332731
0.193434 0.192803 0.192588
0.209778 0.210245 0.211093
0.254053 0.254209 0.245604
0.319272 0.318309 0.317624
0.244075 0.243932 0.242080
0.196184 0.196100 0.196778
0.249067 0.248100 0.245435
0.191290 0.191049 0.192240
0.218036 0.216805 0.216512
0.155603 0.154535 0.154333
0.198890 0.199534 0.198216
0.246775 0.250414 0.254377
0.183244 0.184954 0.181136
0.212882 0.212112 0.211796
0.294120 0.293703 0.290443
0.305305 0.304272 0.306114
0.362229 0.362662 0.362568
0.207048 0.205527 0.205487
0.223033 0.223158 0.223835
0.237059 0.237557 0.237651
0.255466 0.254680 0.252471
0.231392 0.231642 0.231086
0.194188 0.193966 0.194074
0.196000 0.195947 0.197869
0.189308 0.188745 0.184981
0.178845 0.180896 0.182295
0.185876 0.186158 0.186391
0.224338 0.221550 0.221909
0.183320 0.185758 0.185800
0.216051 0.216988 0.215154
0.202736 0.201682 0.200409
0.283621 0.285203 0.285031
0.210921 0.210526 0.212309
0.173169 0.172810 0.171566
0.186112 0.185713 0.185425
0.239160 0.239522 0.238296
0.267949 0.268521 0.268911
0.174588 0.174378 0.173874
0.157241 0.157820 0.159796
0.195968 0.196073 0.197878
0.203149 0.205098 0.204891
0.176928 0.173016 0.172428
0.204777 0.206259 0.205785
0.219484 0.219669 0.219779
0.172582 0.173009 0.172577
0.209121 0.213100 0.214455
0.194841 0.194802 0.194197
0.177306 0.172800 0.172309
0.324219 0.323178 0.322169
0.175362 0.175629 0.175351
0.187045 0.187133 0.187815
0.284574 0.283520 0.279708
0.197839 0.198561 0.198558
0.196119 0.195296 0.195840
0.178480 0.175178 0.172635
0.192548 0.192677 0.192526
0.380297 0.381611 0.383897
0.183736 0.182006 0.181550
0.235587 0.236424 0.238620
0.204480 0.204146 0.205617
0.186825 0.192239 0.197398
0.189478 0.191703 0.200399
0.208369 0.209510 0.209068
0.213800 0.214405 0.216275
0.202097 0.202266 0.204073
0.351155 0.351018 0.350303
0.259054 0.266792 0.268847
0.232019 0.229719 0.227376
0.212097 0.211778 0.211333
0.208731 0.207674 0.203770
0.254116 0.252731 0.254281
0.170187 0.170116 0.170185
0.190069 0.187522 0.184713
0.170200 0.171631 0.171756
0.182884 0.185326 0.185000
0.249452 0.250926 0.254647
0.198854 0.197586 0.194137
0.223001 0.223180 0.222244
0.197786 0.196438 0.195219
0.204353 0.203548 0.203198
0.188624 0.188497 0.188762
0.158942 0.158968 0.158463
0.213121 0.215585 0.214033
0.210515 0.211378 0.210902
0.191844 0.192402 0.192390
0.397508 0.404161 0.404578
0.214365 0.214599 0.215874
0.141357 0.142731 0.142896
0.215930 0.212838 0.212942
0.173013 0.173802 0.173256
0.209473 0.208455 0.208659
0.203702 0.204249 0.204102
0.181516 0.180600 0.180725
0.200647 0.201313 0.201839
0.220072 0.221058 0.220859
0.204427 0.204445 0.202951
0.193043 0.192148 0.192862
0.211046 0.209499 0.207619
0.205987 0.208114 0.212681
0.284649 0.273313 0.270988
0.298606 0.298083 0.299796
0.169705 0.169338 0.169276
0.291310 0.293430 0.294137
0.198782 0.198890 0.196009
0.199478 0.200649 0.201086
0.236590 0.236268 0.236494
0.166082 0.166046 0.165606
0.204204 0.203796 0.204235
0.211640 0.212347 0.210113
0.191101 0.192667 0.191266
0.215313 0.213714 0.212916
0.180769 0.180805 0.180569
0.298622 0.297108 0.297337
0.295347 0.293147 0.293700
0.188246 0.187615 0.189602
0.280313 0.284802 0.283865
0.166446 0.164022 0.163397
0.267640 0.264248 0.260997
0.198776 0.199452 0.203396
0.341126 0.340783 0.340634
0.200802 0.201807 0.201592
0.176679 0.176192 0.173287
0.159796 0.161258 0.161607
0.192027 0.191856 0.192181
0.205978 0.204036 0.203343
0.198351 0.198079 0.198085
0.205463 0.205319 0.205208
0.251317 0.253244 0.254343
0.221961 0.221818 0.221171
0.182315 0.182519 0.183575
0.215669 0.215265 0.214653
0.232124 0.231339 0.231156
0.313006 0.312298 0.311173
0.290205 0.289109 0.288472
0.169011 0.170010 0.171716
0.253207 0.254111 0.258219
0.203199 0.203890 0.203984
0.166418 0.167047 0.166869
0.174029 0.175552 0.175347
0.249243 0.250470 0.249945
0.211300 0.211551 0.211527
0.178470 0.178349 0.178120
0.260675 0.263040 0.262731
0.160618 0.159926 0.159619
0.165359 0.165730 0.164466
0.178052 0.180184 0.182541
0.209147 0.209046 0.210087
0.204798 0.205537 0.209246
0.179269 0.177924 0.177759
0.203790 0.202668 0.202338
0.210795 0.210605 0.214023
0.156075 0.158491 0.158883
0.280035 0.283534 0.283741
0.157495 0.157408 0.157235
0.259149 0.259718 0.260151
0.305488 0.299297 0.308041
0.182585 0.182105 0.182547
0.185208 0.185187 0.184742
0.208170 0.207976 0.208043
0.190673 0.191176 0.197527
0.187464 0.187624 0.187870
0.180426 0.179014 0.178761
0.176896 0.176985 0.178807
0.303944 0.304515 0.302908
0.187681 0.187783 0.186568
0.193317 0.192288 0.191411
0.194976 0.196018 0.196588
0.301792 0.304784 0.305081
0.181574 0.181392 0.180838
0.188891 0.188430 0.187654
0.195958 0.193021 0.195329
0.133593 0.133916 0.133583
0.201835 0.202420 0.204019
0.228169 0.230897 0.238726
0.291640 0.291481 0.289866
0.373153 0.372521 0.371215
0.141960 0.141910 0.141438
0.193647 0.193505 0.194604
0.168973 0.166809 0.165142
0.198135 0.196016 0.195577
0.194816 0.194721 0.195127
0.335598 0.334785 0.335636
0.184781 0.183190 0.182384
0.199154 0.200367 0.199802
0.284005 0.281988 0.280360
0.278396 0.278155 0.279618
0.321011 0.324887 0.320327
0.304356 0.304447 0.307883
0.171818 0.172103 0.172384
0.199188 0.199898 0.198140
0.197443 0.198002 0.195496
0.266641 0.265741 0.264928
0.355463 0.357055 0.358764
0.230389 0.239719 0.239877
0.167944 0.167871 0.167460
0.282248 0.281921 0.282663
0.201132 0.200108 0.197753
0.295035 0.294752 0.294695
0.178995 0.177953 0.178524
0.179137 0.181915 0.181098
0.210622 0.209125 0.205757
0.196579 0.194265 0.195114
0.180810 0.180617 0.181216
0.221145 0.219377 0.217962
0.167398 0.169019 0.171095
0.167858 0.167000 0.167308
0.218429 0.217360 0.208460
0.306605 0.306228 0.307271
0.197612 0.195233 0.194238
0.183219 0.183097 0.184193
0.288645 0.278218 0.277316
0.195409 0.196285 0.196405
0.186250 0.184406 0.179517
0.317673 0.317376 0.317044
0.162981 0.162824 0.165112
0.190730 0.190156 0.189480
0.206564 0.205349 0.204915
0.198064 0.198072 0.196799
0.307325 0.308554 0.309068
0.194409 0.191566 0.189547
0.187938 0.184316 0.183290
0.363226 0.361831 0.362800
0.187823 0.187541 0.183716
0.223788 0.219080 0.216496
0.261868 0.261468 0.262705
0.371228 0.372069 0.371538
0.313356 0.307671 0.308559
0.286324 0.288820 0.289026
0.202231 0.200081 0.199014
0.290401 0.290278 0.290118
0.391216 0.391626 0.391893
0.281684 0.287233 0.290065
0.188646 0.183286 0.166730
0.321653 0.316425 0.316262
0.189035 0.190090 0.189552
0.370021 0.368057 0.365777
0.196428 0.196569 0.196681
0.169103 0.167122 0.171432
0.194384 0.193256 0.190839
0.293809 0.292802 0.292551
0.173599 0.173842 0.174386
0.295470 0.295060 0.294673
0.225614 0.225289 0.225298
0.174222 0.175001 0.171826
0.207529 0.206833 0.209727
0.198792 0.195913 0.194096
0.365682 0.368464 0.367125
0.161905 0.160055 0.159741
0.168504 0.168325 0.167096
0.236984 0.235065 0.234094
0.271419 0.267012 0.268789
0.256035 0.257189 0.258126
0.252593 0.251388 0.251989
0.180196 0.179160 0.176114
0.305905 0.307931 0.309695
0.340333 0.345906 0.345797
0.300963 0.298043 0.296450
0.307767 0.304429 0.301925
0.301757 0.305126 0.305451
0.320621 0.315071 0.314447
0.287103 0.288499 0.291939
0.220540 0.221692 0.223138
0.245661 0.242903 0.243225
0.238887 0.239447 0.239562
0.302112 0.303056 0.302164
0.172069 0.170989 0.172334
0.222244 0.221871 0.222152
0.303295 0.302054 0.305884
0.255581 0.255126 0.255689
0.287021 0.290401 0.290278
0.214228 0.216497 0.219983
0.156498 0.157495 0.157408
0.147889 0.148206 0.148130
0.210367 0.209575 0.209121
0.171568 0.173000 0.171286
0.278802 0.279026 0.279334
0.168056 0.169459 0.169749
0.296307 0.298547 0.300429
0.180342 0.179836 0.178722
0.345971 0.347212 0.348328
0.193494 0.195056 0.196828
0.233689 0.233188 0.232577
0.168214 0.168427 0.167472
0.249945 0.249996 0.250172
0.196324 0.197323 0.196261
0.197656 0.197222 0.197576
0.206349 0.200941 0.204391
0.208858 0.208601 0.208641
0.207321 0.204916 0.206549
0.226707 0.230004 0.239431
0.212613 0.213580 0.215315
0.296592 0.296066 0.294861
0.181788 0.182037 0.181340
0.200856 0.202481 0.202699
0.330100 0.329651 0.328101
0.194594 0.197835 0.199294
0.308548 0.308388 0.307112
0.184050 0.182595 0.181046
0.169624 0.169034 0.167780
0.314756 0.317635 0.316002
0.201131 0.202156 0.201447
0.207247 0.204799 0.203450
0.208075 0.207991 0.208322
0.196791 0.194989 0.196332
0.186099 0.187043 0.187426
0.351772 0.354693 0.355992
0.224701 0.223876 0.221540
0.186039 0.186119 0.186209
0.189814 0.190020 0.190777
0.219845 0.219234 0.216974
0.307271 0.307978 0.307540
0.289907 0.291900 0.288949
0.307873 0.305443 0.304713
0.265009 0.259478 0.257385
0.292724 0.293167 0.294397
0.374553 0.368955 0.366607
0.355402 0.355844 0.354948
0.383415 0.371386 0.362763
0.179417 0.179989 0.178453
0.168889 0.170008 0.172409
0.216741 0.215337 0.214986
0.212221 0.212588 0.212501
0.339420 0.339426 0.338370
0.352906 0.363518 0.361436
0.366302 0.366131 0.366718
0.168932 0.168370 0.167646
0.168966 0.168114 0.168581
0.397724 0.399333 0.400654
0.174292 0.183434 0.183429
0.221637 0.220557 0.220106
0.166424 0.166282 0.165860
0.185094 0.184991 0.184120
0.222157 0.225168 0.225096
0.219612 0.222525 0.221222
0.194965 0.192055 0.191548
0.190002 0.190130 0.193607
0.171676 0.173866 0.175269
0.169383 0.170124 0.170305
0.293096 0.293591 0.293642
0.199009 0.201076 0.206387
0.329347 0.326712 0.326126
0.333936 0.334719 0.335217
0.197015 0.196758 0.191053
0.252942 0.255483 0.258699
0.194644 0.193212 0.191261
0.220697 0.219605 0.218772
0.188806 0.189980 0.191901
0.242979 0.244661 0.244241
0.196228 0.198336 0.195760
0.191498 0.191366 0.189844
0.195284 0.194478 0.193933
0.271321 0.270813 0.267370
0.171939 0.174164 0.173757
0.174374 0.176224 0.179123
0.368989 0.362899 0.361677
0.344201 0.339350 0.337995
0.323931 0.326494 0.324644
0.214790 0.214834 0.216897
0.175147 0.174569 0.175833
0.205602 0.210135 0.210984
0.200982 0.206191 0.207606
0.241960 0.243821 0.244263
0.229917 0.229848 0.232803
0.169010 0.169277 0.173288
0.208882 0.208811 0.209159
0.180001 0.180085 0.180286
0.190948 0.190980 0.191091
0.159151 0.156454 0.153381
0.209319 0.208275 0.205852
0.201606 0.206387 0.218747
0.193959 0.194840 0.194018
0.248678 0.248006 0.246803
0.172910 0.172460 0.172654
0.268553 0.268813 0.269754
0.422954 0.423919 0.423039
0.162663 0.165282 0.166653
0.224330 0.227201 0.223807
0.186165 0.185499 0.183721
0.186128 0.185912 0.186002
0.195587 0.195685 0.194845
0.180805 0.180569 0.179725
0.188621 0.186105 0.185618
0.172813 0.177828 0.179277
0.210670 0.211436 0.215159
0.222356 0.220975 0.219981
0.209944 0.213770 0.213622
0.218635 0.219089 0.219163
0.211084 0.207075 0.208444
0.178633 0.174366 0.173275
0.173364 0.172505 0.173743
0.159043 0.159392 0.153574
0.236183 0.236324 0.238569
0.360609 0.360766 0.361084
0.213418 0.214706 0.213649
0.194917 0.194471 0.193738
0.210902 0.212018 0.211891
0.174379 0.177652 0.175043
0.170229 0.172074 0.177385
0.204071 0.203619 0.203111
0.169363 0.167369 0.166301
0.193008 0.191644 0.189861
0.208785 0.208938 0.209239
0.185290 0.191675 0.193319
0.191635 0.190702 0.186533
0.210180 0.212234 0.212622
0.206818 0.208933 0.209181
0.340638 0.342131 0.344375
0.186973 0.185739 0.183880
0.342516 0.340593 0.340251
0.185243 0.182557 0.179563
0.193895 0.192697 0.194646
0.190470 0.189766 0.185208
0.180021 0.180329 0.179384
0.355265 0.352646 0.352921
0.217886 0.218348 0.218133
0.211877 0.210517 0.209896
0.228231 0.227587 0.227093
0.267618 0.267640 0.264248
0.190344 0.187289 0.187606
0.210026 0.209572 0.209745
0.170312 0.169206 0.168652
0.200541 0.203686 0.203195
0.201004 0.199288 0.202254
0.186512 0.186194 0.186181
0.200794 0.200472 0.200647
0.264284 0.263694 0.265676
0.351144 0.348054 0.343600
0.277615 0.277306 0.278330
0.312112 0.309567 0.308181
0.180385 0.180236 0.179478
0.168817 0.168138 0.167838
0.253735 0.253027 0.252734
0.290054 0.290357 0.287857
0.192565 0.196253 0.199307
0.166748 0.167915 0.167269
0.171548 0.171081 0.170873
0.292365 0.292721 0.292254
0.163271 0.165987 0.165965
0.176149 0.176168 0.176447
0.205061 0.204506 0.204808
0.306384 0.304581 0.304481
0.207729 0.206003 0.205266
0.180813 0.179465 0.178559
0.302331 0.295784 0.297144
0.167480 0.168230 0.169508
0.181722 0.181752 0.182160
0.201015 0.199141 0.199202
0.222104 0.220687 0.217657
0.169873 0.169883 0.166495
0.181308 0.182411 0.181873
0.282192 0.280073 0.282419
0.212238 0.210159 0.208397
0.194484 0.194797 0.193335
0.218191 0.218195 0.216611
0.214653 0.213811 0.214027
0.202817 0.201132 0.195266
0.263565 0.263309 0.262855
0.206070 0.202180 0.201190
0.199052 0.197851 0.197930
0.303149 0.298622 0.297108
0.212593 0.211037 0.206873
0.213626 0.212894 0.214079
0.186938 0.186028 0.187388
0.320378 0.325221 0.319839
0.163100 0.161586 0.161578
0.201992 0.200980 0.204071
0.174085 0.174344 0.174322
0.223603 0.222075 0.219741
0.191984 0.194315 0.196291
0.169476 0.170207 0.168525
0.215240 0.215183 0.214768
0.259190 0.263974 0.263622
0.231894 0.230543 0.234393
0.185260 0.186633 0.185540
0.171851 0.169508 0.172184
0.262388 0.260976 0.263540
0.190452 0.192436 0.194540
0.180189 0.174842 0.173501
0.278874 0.278499 0.279054
0.206883 0.206495 0.204880
0.184126 0.183630 0.184306
0.178246 0.177873 0.177178
0.259518 0.256808 0.255477
0.177005 0.180002 0.180772
0.172179 0.169364 0.174632
0.193319 0.193454 0.194210
0.185200 0.186334 0.184483
0.228192 0.228042 0.227164
0.203082 0.204162 0.205819
0.197360 0.196766 0.196323
0.213875 0.213983 0.214653
0.261328 0.261573 0.262850
0.236227 0.237386 0.236156
0.234010 0.234177 0.235077
0.196984 0.196797 0.195707
0.186333 0.190481 0.191555
0.168915 0.169198 0.168899
0.243242 0.238945 0.239604
0.192430 0.191254 0.189978
0.185473 0.185177 0.184662
0.172522 0.171988 0.172806
0.170744 0.170134 0.169621
0.272244 0.272705 0.272023
0.248266 0.249371 0.249620
0.216551 0.216532 0.217193
0.206748 0.211781 0.212791
0.190759 0.193513 0.193737
0.173515 0.173747 0.174473
0.259246 0.264023 0.265437
0.345816 0.347195 0.347562
0.167888 0.168630 0.168697
0.200671 0.198623 0.198969
0.225182 0.224964 0.224890
0.223237 0.225405 0.225448
0.316890 0.316383 0.315691
0.165964 0.168087 0.168176
0.299542 0.299931 0.298323
0.225321 0.225590 0.225154
0.192196 0.192783 0.193647
0.167797 0.167888 0.168630
0.201271 0.202518 0.206721
0.222540 0.222895 0.222362
0.204378 0.205389 0.205545
0.340602 0.340333 0.345906
0.199088 0.199006 0.198997
0.303793 0.304988 0.304882
