0.124790 0.124312 0.123998
0.216797 0.217585 0.218250
0.127119 0.129441 0.132246
0.187806 0.176607 0.168405
0.206712 0.206502 0.206301
0.191539 0.191218 0.190551
0.208668 0.207830 0.209513
0.250330 0.249257 0.247469
0.168715 0.168932 0.167605
0.101433 0.102922 0.103322
0.231079 0.227426 0.226998
0.218658 0.216817 0.204158
0.131057 0.130421 0.129145
0.212555 0.215048 0.214330
0.148258 0.148505 0.147590
0.231517 0.232247 0.232583
0.192644 0.195821 0.196443
0.225837 0.225964 0.226115
0.174051 0.173950 0.176762
0.217280 0.216175 0.217339
0.197864 0.193214 0.192721
0.205842 0.205090 0.205198
0.149037 0.148963 0.149138
0.145089 0.145055 0.145014
0.179027 0.179550 0.179460
0.156586 0.158157 0.160475
0.202421 0.200705 0.199093
0.206540 0.193080 0.192196
0.140504 0.138336 0.134015
0.124185 0.124258 0.124494
0.121102 0.121371 0.122091
0.146167 0.145746 0.145475
0.148628 0.148513 0.147883
0.221847 0.222035 0.222011
0.217664 0.217208 0.217410
0.198393 0.198665 0.199036
0.172622 0.191350 0.194402
0.217966 0.217815 0.218069
0.213829 0.213716 0.212478
0.121609 0.123110 0.127913
0.194118 0.195721 0.195338
0.185075 0.190781 0.199658
0.147025 0.145553 0.144379
0.131120 0.131376 0.131066
0.114070 0.114067 0.114324
0.131821 0.131768 0.131310
0.197033 0.198052 0.198847
0.204370 0.205249 0.207530
0.144464 0.144985 0.145060
0.215550 0.210400 0.210501
0.144947 0.145207 0.147778
0.221622 0.221776 0.222340
0.178599 0.178351 0.177794
0.123447 0.123132 0.122937
0.224935 0.224776 0.223830
0.134901 0.135445 0.136469
0.204094 0.206707 0.204315
0.127560 0.128863 0.130192
0.217295 0.217519 0.217164
0.222435 0.220218 0.217513
0.143866 0.141743 0.141649
0.195213 0.195253 0.196648
0.245377 0.245862 0.245912
0.146816 0.146169 0.145752
0.227369 0.227280 0.227622
0.222441 0.222151 0.221358
0.198067 0.198519 0.208352
0.144070 0.143548 0.144156
0.201814 0.203759 0.213843
0.128765 0.128852 0.128934
0.244856 0.243923 0.241444
0.212208 0.212455 0.217700
0.202246 0.203782 0.203769
0.204984 0.204873 0.207147
0.194491 0.194647 0.193701
0.113714 0.112688 0.110883
0.211782 0.211618 0.213469
0.202462 0.196193 0.196215
0.200427 0.200244 0.199700
0.211945 0.212948 0.212315
0.152442 0.160126 0.162654
0.189858 0.189318 0.188421
0.223829 0.223843 0.223704
0.225022 0.224934 0.224393
0.211758 0.213866 0.209849
0.132253 0.132408 0.132655
0.149029 0.148699 0.149518
0.208581 0.208392 0.208460
0.226694 0.222810 0.222835
0.199840 0.200846 0.202027
0.140005 0.139274 0.133721
0.143591 0.143289 0.143591
0.222786 0.224274 0.225254
0.177181 0.176938 0.177792
0.142200 0.142553 0.145112
0.236871 0.236806 0.236493
0.168287 0.168238 0.168270
0.216384 0.215944 0.215714
0.171679 0.171172 0.170765
0.197035 0.196374 0.194292
0.223166 0.223377 0.223283
0.140023 0.139507 0.143895
0.206457 0.209735 0.210672
0.198606 0.198002 0.197559
0.196841 0.196014 0.196843
0.185224 0.185632 0.185871
0.117287 0.119637 0.127514
0.144211 0.144595 0.145451
0.200105 0.201754 0.202416
0.134097 0.134181 0.134134
0.170665 0.172511 0.172930
0.121804 0.121432 0.121021
0.206309 0.206032 0.205947
0.185178 0.185361 0.185500
0.144430 0.144021 0.143480
0.195324 0.195375 0.195820
0.202777 0.212865 0.214927
0.206530 0.207654 0.209676
0.219142 0.218719 0.220006
0.226275 0.228618 0.229054
0.126877 0.125214 0.124474
0.205259 0.205136 0.207036
0.201586 0.200475 0.199792
0.195751 0.194938 0.194748
0.129632 0.132016 0.132347
0.207884 0.208208 0.208175
0.221451 0.221280 0.221431
0.189794 0.193312 0.197220
0.227841 0.227264 0.227299
0.206857 0.206751 0.207280
0.233000 0.231705 0.232130
0.230829 0.229766 0.229449
0.210514 0.210295 0.214245
0.198919 0.199384 0.200047
0.178872 0.176948 0.172192
0.207342 0.206723 0.204979
0.230696 0.230390 0.226542
0.203329 0.203981 0.204169
0.192457 0.192709 0.174998
0.216436 0.216092 0.217364
0.218677 0.217871 0.218988
0.196264 0.196207 0.196195
0.205464 0.206307 0.218733
0.182707 0.182022 0.181692
0.216841 0.221888 0.222303
0.174804 0.176847 0.178802
0.203012 0.207160 0.207294
0.192987 0.196196 0.195510
0.217282 0.217219 0.217699
0.202240 0.201719 0.201520
0.205538 0.203544 0.201077
0.203856 0.203844 0.203265
0.198664 0.199073 0.201776
0.204252 0.204717 0.207631
0.137145 0.135516 0.134672
0.170561 0.170362 0.170771
0.177383 0.177886 0.178331
0.193482 0.194043 0.194010
0.134036 0.132625 0.129721
0.195247 0.191418 0.179801
0.145177 0.145341 0.145319
0.203427 0.202936 0.202662
0.218268 0.219036 0.220726
0.222266 0.222700 0.223262
0.200129 0.198519 0.199866
0.192821 0.192414 0.192327
0.185447 0.185237 0.185095
0.232662 0.233424 0.231163
0.220136 0.219736 0.219263
0.149586 0.150294 0.150260
0.204935 0.204581 0.201981
0.212846 0.214519 0.217053
0.116440 0.117344 0.116276
0.143390 0.147187 0.148227
0.133985 0.136539 0.139419
0.153066 0.153525 0.154381
0.113078 0.113500 0.112067
0.149937 0.150393 0.149487
0.172973 0.174509 0.175616
0.101423 0.102993 0.103680
0.170214 0.169660 0.169312
0.141786 0.141923 0.141956
0.216386 0.217282 0.217219
0.225846 0.226712 0.229429
0.211294 0.211957 0.206130
0.145190 0.145394 0.145320
0.181978 0.182124 0.181907
0.149162 0.141847 0.140160
0.242331 0.242590 0.242312
0.177268 0.177644 0.178555
0.206824 0.205497 0.205276
0.197612 0.198215 0.198579
0.208725 0.207815 0.207567
0.197220 0.196439 0.196047
0.199646 0.199570 0.199485
0.183910 0.190719 0.190492
0.186078 0.180573 0.180848
0.177942 0.177905 0.179001
0.157471 0.157691 0.158312
0.170065 0.170153 0.170169
0.222368 0.222175 0.222453
0.230273 0.229760 0.222245
0.139899 0.141888 0.145992
0.134281 0.133608 0.132086
0.196619 0.195716 0.193828
0.209643 0.209167 0.205971
0.167122 0.166855 0.166373
0.244417 0.244951 0.245269
0.208662 0.209237 0.209009
0.129538 0.129670 0.129555
0.197679 0.197874 0.197206
0.149736 0.149724 0.149491
0.138553 0.138558 0.138943
0.146303 0.144852 0.144121
0.230528 0.230222 0.225155
0.110281 0.108834 0.109410
0.133024 0.133727 0.134088
0.186249 0.186093 0.185468
0.119821 0.118238 0.116165
0.129180 0.130198 0.132454
0.164397 0.171635 0.175615
0.156724 0.156747 0.156607
0.124670 0.126912 0.127565
0.151754 0.151966 0.152289
0.135669 0.136004 0.136104
0.143225 0.143002 0.142582
0.208390 0.209717 0.210460
0.228439 0.228317 0.229303
0.176152 0.171648 0.168596
0.206876 0.207203 0.207170
0.202111 0.200796 0.202069
0.212413 0.211628 0.210868
0.179592 0.178975 0.179220
0.148608 0.148456 0.148379
0.229960 0.230676 0.230279
0.202638 0.202250 0.202244
0.148142 0.148915 0.149288
0.215942 0.210132 0.209035
0.232287 0.231630 0.230499
0.163835 0.159668 0.155635
0.181327 0.175206 0.173502
0.244877 0.244423 0.243850
0.169678 0.169603 0.169711
0.247635 0.244854 0.244223
0.119876 0.120039 0.119995
0.206292 0.205729 0.204352
0.221562 0.222951 0.214409
0.197512 0.198637 0.199449
0.201651 0.199035 0.193866
0.212861 0.213889 0.216655
0.201326 0.202683 0.203888
0.196478 0.195412 0.193027
0.209927 0.209355 0.209200
0.145955 0.146698 0.147584
0.140868 0.138700 0.139163
0.212105 0.211762 0.212940
0.202751 0.199007 0.199634
0.195827 0.196119 0.196212
0.187136 0.187831 0.188797
0.216554 0.217089 0.218894
0.134103 0.134133 0.134467
0.212423 0.213751 0.218020
0.127227 0.127029 0.131553
0.223760 0.223813 0.224420
0.145855 0.145659 0.145746
0.166383 0.168101 0.168131
0.152577 0.152686 0.154442
0.209482 0.209382 0.209538
0.147146 0.147422 0.148537
0.227164 0.227220 0.226859
0.159862 0.159107 0.160279
0.210351 0.209790 0.209163
0.192853 0.186609 0.188541
0.220693 0.220475 0.220519
0.189625 0.190046 0.193675
0.214669 0.213636 0.214168
0.134887 0.134657 0.135302
0.192542 0.194260 0.195088
0.179402 0.179150 0.178929
0.158667 0.157123 0.157036
0.133829 0.134299 0.134831
0.150037 0.149866 0.149642
0.213890 0.219588 0.221076
0.202015 0.198379 0.197497
0.204609 0.208489 0.210215
0.200381 0.200755 0.198188
0.221705 0.217414 0.216964
0.214314 0.214499 0.218423
0.164966 0.161177 0.162520
0.209438 0.209842 0.210176
0.126207 0.127088 0.124308
0.143300 0.143940 0.142762
0.238049 0.238977 0.238952
0.147005 0.146169 0.142898
0.134030 0.133390 0.133813
0.231227 0.230948 0.231033
0.191240 0.191912 0.191669
0.191988 0.192391 0.192578
0.236610 0.237245 0.238669
0.202096 0.206531 0.206311
0.220523 0.223632 0.227236
0.193811 0.194327 0.194667
0.218012 0.216371 0.215357
0.198129 0.198050 0.200070
0.140790 0.140803 0.141123
0.193747 0.193622 0.193633
0.191717 0.193242 0.196667
0.143989 0.143053 0.146885
0.134718 0.134344 0.132767
0.119097 0.119247 0.119178
0.216218 0.216410 0.216442
0.110882 0.110621 0.108718
0.118468 0.123583 0.123951
0.147605 0.146616 0.142902
0.194192 0.192277 0.190635
0.211218 0.211217 0.210736
0.172036 0.173317 0.173304
0.221316 0.222576 0.225486
0.170493 0.169796 0.169765
0.203738 0.204012 0.204151
0.134514 0.135193 0.143619
0.208916 0.205563 0.202373
0.153869 0.154255 0.155166
0.210676 0.212185 0.212507
0.110506 0.111269 0.112749
0.171439 0.175839 0.176778
0.235353 0.235286 0.234582
0.150769 0.150829 0.150991
0.138911 0.140097 0.141584
0.207257 0.207757 0.208177
0.229933 0.229659 0.228829
0.129360 0.129597 0.130061
0.138911 0.138555 0.138608
0.216766 0.217223 0.223955
0.228126 0.226865 0.225844
0.225136 0.225360 0.225506
0.126469 0.126596 0.126591
0.224806 0.226583 0.236009
0.237100 0.236348 0.235351
0.186012 0.186289 0.190039
0.151419 0.151059 0.150247
0.169393 0.167380 0.165689
0.147339 0.147316 0.146984
0.225025 0.223427 0.223146
0.230507 0.230876 0.229385
0.222152 0.225449 0.224739
0.137428 0.138206 0.138401
0.177649 0.177681 0.177889
0.219751 0.223453 0.225108
0.213051 0.211164 0.205232
0.199903 0.199908 0.200921
0.192396 0.192575 0.192916
0.165726 0.165770 0.166475
0.210188 0.210028 0.208528
0.175838 0.176296 0.175892
0.188851 0.192076 0.196006
0.148505 0.147590 0.146903
0.130653 0.133250 0.133618
0.214992 0.213387 0.215093
0.109410 0.108416 0.108555
0.137000 0.130638 0.124371
0.139986 0.140837 0.139912
0.159109 0.157779 0.157495
0.143955 0.140657 0.140426
0.161678 0.163130 0.169977
0.234970 0.233790 0.233923
0.119214 0.118977 0.118769
0.126757 0.125920 0.126768
0.198168 0.198168 0.199498
0.127012 0.126516 0.127245
0.207297 0.215668 0.218777
0.197247 0.194260 0.189144
0.226226 0.226369 0.226390
0.210295 0.211539 0.212132
0.122910 0.123082 0.122827
0.201280 0.198501 0.196208
0.206614 0.206076 0.205832
0.115041 0.110316 0.109736
0.154713 0.160080 0.167345
0.202804 0.203466 0.202926
0.138700 0.139163 0.140415
0.160037 0.160436 0.160592
0.220814 0.221099 0.221240
0.213922 0.213449 0.210610
0.175636 0.173581 0.166707
0.229787 0.225304 0.224596
0.192440 0.191019 0.190326
0.122512 0.122794 0.123727
0.138754 0.140873 0.141417
0.120972 0.117331 0.116284
0.154727 0.151750 0.148923
0.149106 0.149598 0.151928
0.208092 0.208583 0.207999
0.225288 0.225244 0.225870
0.225493 0.225462 0.225219
0.193148 0.193418 0.193596
0.151649 0.151901 0.152305
0.218307 0.224361 0.225039
0.212566 0.212137 0.212190
0.188286 0.187296 0.188239
0.154919 0.152739 0.151111
0.222349 0.223197 0.215445
0.126736 0.126776 0.126305
0.238435 0.237093 0.235561
0.238909 0.238540 0.238943
0.136409 0.136250 0.137364
0.149594 0.149699 0.148524
0.205149 0.208511 0.211089
0.139489 0.139669 0.139663
0.213084 0.215741 0.217423
0.216836 0.217166 0.217690
0.214686 0.215316 0.217293
0.221803 0.222193 0.221166
0.218718 0.224714 0.224483
0.215601 0.234662 0.238374
0.220494 0.220593 0.221649
0.121741 0.123584 0.124393
0.214475 0.214613 0.215351
0.213473 0.212543 0.213385
0.139976 0.138891 0.138409
0.173771 0.172204 0.173313
0.190914 0.190159 0.191148
0.193323 0.192881 0.192099
0.221391 0.217572 0.216190
0.178176 0.178705 0.186312
0.148041 0.146678 0.146191
0.199663 0.199585 0.199814
0.130576 0.130848 0.130802
0.225538 0.225200 0.221580
0.148015 0.148263 0.148306
0.178519 0.169909 0.161919
0.114677 0.114713 0.116161
0.138056 0.139344 0.139503
0.203756 0.205649 0.211625
0.218551 0.219580 0.213824
0.200780 0.200183 0.199047
0.146045 0.148453 0.149518
0.210801 0.211012 0.210676
0.210868 0.211873 0.201261
0.212917 0.212399 0.214534
0.180244 0.179148 0.179100
0.132132 0.131742 0.131841
0.159692 0.159689 0.158070
0.190328 0.191521 0.190985
0.201428 0.201395 0.201907
0.126564 0.126722 0.127101
0.108039 0.108858 0.109601
0.118484 0.116814 0.117309
0.228617 0.228047 0.225876
0.129511 0.128862 0.129622
0.235704 0.234519 0.234487
0.221723 0.219758 0.221204
0.197029 0.196542 0.196267
0.179883 0.181553 0.182485
0.172044 0.164076 0.160690
0.139023 0.138854 0.139091
0.143591 0.145137 0.144164
0.206617 0.207511 0.207469
0.213627 0.213481 0.211686
0.225580 0.224473 0.222066
0.141279 0.142462 0.143261
0.218136 0.218343 0.218386
0.230990 0.227017 0.225512
0.124993 0.127263 0.127414
0.159522 0.163835 0.159668
0.178342 0.178865 0.178515
0.139023 0.139271 0.139432
0.130338 0.131226 0.131499
0.156367 0.156085 0.156115
0.211673 0.212880 0.213146
0.145307 0.146095 0.145415
0.162622 0.163528 0.170949
0.112439 0.111763 0.111911
0.127186 0.129941 0.130195
0.118000 0.117315 0.115640
0.127600 0.129245 0.128195
0.129917 0.128501 0.127728
0.209041 0.209008 0.209125
0.200152 0.197564 0.192991
0.193963 0.194290 0.194887
0.165832 0.164559 0.164040
0.218810 0.218728 0.219902
0.235183 0.234931 0.238264
0.196029 0.195438 0.190856
0.148347 0.148634 0.148828
0.140027 0.139847 0.140011
0.220510 0.221089 0.221965
0.211022 0.210862 0.209518
0.200118 0.196961 0.194787
0.237955 0.235953 0.232941
0.219386 0.226345 0.230827
0.235750 0.235834 0.233128
0.212087 0.213381 0.215455
0.138799 0.139060 0.139823
0.215212 0.216657 0.216332
0.149610 0.153747 0.156531
0.177229 0.177395 0.178075
0.119756 0.119710 0.119339
0.200326 0.196235 0.196768
0.210249 0.208466 0.206584
0.224649 0.222604 0.222137
0.217048 0.217159 0.220187
0.124335 0.125313 0.126130
0.201029 0.200456 0.201047
0.192955 0.187864 0.186764
0.111935 0.113796 0.118428
0.172530 0.186402 0.194184
0.185636 0.181399 0.179330
0.195628 0.191256 0.192597
0.207918 0.209946 0.210608
0.143545 0.143645 0.143955
0.144527 0.146097 0.146717
0.213362 0.213489 0.214589
0.234737 0.233874 0.232906
0.182662 0.182313 0.177396
0.134947 0.135402 0.135717
0.154842 0.154691 0.155673
0.199851 0.195849 0.194360
0.216296 0.216521 0.211082
0.156010 0.156329 0.156901
0.218579 0.218773 0.219182
0.231312 0.225573 0.222827
0.221763 0.221629 0.220996
0.147453 0.146851 0.146430
0.201011 0.198335 0.198385
0.142730 0.141616 0.141408
0.192916 0.192931 0.192788
0.150911 0.149920 0.144951
0.199344 0.203385 0.203767
0.182368 0.182504 0.182565
0.141985 0.143145 0.142433
0.184346 0.182374 0.182216
0.158446 0.158482 0.158271
0.235977 0.234978 0.234707
0.210224 0.206824 0.206767
0.176341 0.175585 0.175385
0.132847 0.132987 0.132871
0.151037 0.152094 0.155191
0.159915 0.158506 0.158352
0.112014 0.111975 0.112336
0.161766 0.161133 0.163340
0.199682 0.199763 0.199772
0.201744 0.201963 0.202462
0.196888 0.198269 0.198926
0.202773 0.203923 0.205380
0.139379 0.141066 0.143229
0.217339 0.219625 0.220251
0.220966 0.220440 0.219455
0.173744 0.182574 0.183651
0.152679 0.152409 0.151976
0.186570 0.186470 0.185643
0.197814 0.196905 0.198142
0.200517 0.200325 0.196027
0.212917 0.212674 0.212358
0.130345 0.129927 0.130002
0.160733 0.165718 0.172348
0.147611 0.147260 0.147059
0.205362 0.204423 0.206436
0.147962 0.149944 0.149444
0.221977 0.221513 0.220032
0.140904 0.141788 0.140273
0.197492 0.199053 0.200164
0.235012 0.236161 0.236829
0.203970 0.204217 0.204501
0.160824 0.158679 0.158598
0.174909 0.173908 0.172544
0.137343 0.137116 0.136849
0.222602 0.229449 0.231855
0.132304 0.132337 0.133813
0.211445 0.211017 0.209400
0.168852 0.170045 0.170387
0.213612 0.209317 0.209045
0.228836 0.228626 0.227969
0.209635 0.209257 0.210559
0.142915 0.145038 0.147496
0.225964 0.226353 0.226226
0.202065 0.200780 0.200183
0.128699 0.128511 0.127975
0.226859 0.225446 0.230947
0.204611 0.206708 0.207185
0.139014 0.137468 0.137100
0.145122 0.145817 0.146119
0.225744 0.224485 0.226125
0.137600 0.137773 0.137701
0.213889 0.216655 0.216623
0.144414 0.144548 0.144999
0.210437 0.210181 0.210406
0.179729 0.180059 0.178317
0.142475 0.146650 0.148583
0.139811 0.136772 0.136536
0.195284 0.195664 0.196013
0.239985 0.234455 0.234227
0.120230 0.117868 0.114800
0.170848 0.170881 0.171085
0.199079 0.199195 0.200840
0.222112 0.224397 0.224556
0.133707 0.133575 0.133657
0.232896 0.233012 0.233286
0.194540 0.192015 0.192427
0.213924 0.213025 0.208862
0.203198 0.202712 0.202887
0.109151 0.110773 0.111101
0.218515 0.212650 0.209803
0.201989 0.202239 0.201879
0.199281 0.199423 0.207137
0.115209 0.111523 0.108900
0.141302 0.141095 0.143083
0.190671 0.200062 0.206946
0.134359 0.134345 0.134225
0.220184 0.221123 0.220766
0.200234 0.200486 0.200111
0.219555 0.228296 0.228686
0.136543 0.135995 0.136658
0.225308 0.222818 0.218967
0.190518 0.189337 0.188989
0.148769 0.148689 0.149555
0.147409 0.145283 0.143989
0.220525 0.213997 0.214366
0.210289 0.209482 0.209382
0.199560 0.199958 0.199501
0.195186 0.195448 0.197510
0.110725 0.110779 0.111159
0.205182 0.205290 0.205793
0.149014 0.149136 0.150170
0.147427 0.146832 0.147514
0.184766 0.185169 0.185444
0.212375 0.203766 0.197135
0.192261 0.191926 0.192238
0.154261 0.156006 0.154266
0.130071 0.129994 0.128339
0.115595 0.111636 0.109318
0.200948 0.200610 0.200750
0.157190 0.156942 0.150216
0.222533 0.221976 0.222650
0.150774 0.151785 0.152338
0.197352 0.196678 0.195163
0.202813 0.199562 0.198908
0.156157 0.156189 0.156300
0.202324 0.198530 0.198152
0.230449 0.240136 0.240922
0.184436 0.184733 0.185263
0.148920 0.149303 0.148915
0.153591 0.154552 0.154845
0.206476 0.204725 0.204036
0.151954 0.148932 0.147170
0.200990 0.200460 0.199635
0.112113 0.111894 0.111991
0.205576 0.208136 0.211773
0.169331 0.168480 0.168730
0.148548 0.148386 0.147390
0.204121 0.204203 0.203971
0.116161 0.115588 0.116214
0.218861 0.219941 0.220743
0.134245 0.134722 0.137206
0.216522 0.215662 0.213536
0.230086 0.229549 0.228712
0.229966 0.230896 0.231046
0.240120 0.240318 0.239172
0.199132 0.198776 0.199523
0.111039 0.112059 0.113764
0.210403 0.210374 0.208935
0.233128 0.232944 0.231893
0.127171 0.128807 0.127940
0.156733 0.156699 0.156737
0.190903 0.193654 0.196923
0.167345 0.171854 0.172071
0.213865 0.213547 0.213058
0.216915 0.216954 0.218408
0.225004 0.224007 0.224515
0.198886 0.200863 0.186678
0.144475 0.144154 0.143591
0.124917 0.125078 0.125110
0.138948 0.139940 0.139717
0.212492 0.212006 0.213255
0.232596 0.229913 0.229898
0.164057 0.165316 0.165723
0.115797 0.116081 0.116061
0.204831 0.211809 0.213554
0.137908 0.138333 0.138338
0.118677 0.114922 0.111420
0.211308 0.210157 0.209876
0.137041 0.137374 0.136543
0.134307 0.134332 0.134277
0.226408 0.226280 0.226393
0.232435 0.231103 0.230421
0.123077 0.123029 0.122620
0.230468 0.230437 0.230859
0.165856 0.166282 0.168229
0.149941 0.150406 0.150941
0.180044 0.180589 0.180776
0.114593 0.115106 0.115687
0.147444 0.147347 0.147145
0.133717 0.133514 0.132733
0.225283 0.225842 0.226287
0.148227 0.148261 0.148156
0.195082 0.194746 0.194164
0.214175 0.211642 0.209525
0.195827 0.196345 0.196933
0.147357 0.147788 0.147599
0.210189 0.209790 0.211086
0.157854 0.156449 0.156294
0.192295 0.193605 0.201891
0.197942 0.198319 0.199528
0.243838 0.243628 0.241560
0.123063 0.122456 0.123274
0.187563 0.187547 0.187923
0.155696 0.146600 0.145431
0.139823 0.139955 0.140230
0.108401 0.108225 0.108513
0.110993 0.117099 0.117187
0.205624 0.205421 0.205533
0.216261 0.216172 0.215299
0.205453 0.205710 0.211627
0.130848 0.130802 0.129443
0.193373 0.198164 0.199756
0.163873 0.164292 0.165405
0.231444 0.227858 0.228079
0.193142 0.193473 0.193201
0.205410 0.211288 0.212581
0.131958 0.136238 0.137451
0.201767 0.202226 0.201232
0.147116 0.147089 0.147001
0.210397 0.210675 0.210711
0.129873 0.130701 0.131005
0.131170 0.134492 0.138797
0.225703 0.224694 0.220130
0.235668 0.233381 0.231319
0.178974 0.179340 0.178031
0.211945 0.211296 0.210870
0.222676 0.221096 0.219922
0.179222 0.179305 0.179159
0.203527 0.204123 0.202382
0.175880 0.175753 0.175787
0.194340 0.193899 0.194389
0.136365 0.136409 0.136250
0.185237 0.188846 0.188947
0.191905 0.191494 0.191341
0.177077 0.177142 0.176563
0.153907 0.154000 0.153602
0.220536 0.221790 0.223695
0.191470 0.190803 0.189818
0.210452 0.214863 0.215693
0.146776 0.150016 0.148895
0.119649 0.119440 0.119499
0.152363 0.151966 0.152089
0.205322 0.202959 0.202802
0.207684 0.210216 0.210437
0.216316 0.213765 0.216776
0.140765 0.142605 0.141181
0.152475 0.152231 0.152177
0.199518 0.199483 0.204251
0.226342 0.232758 0.234426
0.132329 0.133353 0.129782
0.162507 0.165265 0.162023
0.127650 0.129133 0.129934
0.203992 0.203880 0.203140
0.127764 0.127186 0.128725
0.208416 0.209281 0.210050
0.209765 0.210278 0.210665
0.112333 0.111907 0.112461
0.197845 0.197003 0.195987
0.220539 0.224179 0.226298
0.111793 0.110787 0.107910
0.144167 0.143414 0.147551
0.136958 0.136604 0.136212
0.122313 0.123042 0.122910
0.171322 0.172750 0.172868
0.168577 0.167773 0.167246
0.191414 0.191596 0.193322
0.214286 0.214870 0.218137
0.152903 0.154847 0.158109
0.232583 0.232435 0.228904
0.204787 0.205292 0.208957
0.133814 0.133214 0.133292
0.228335 0.230774 0.232064
0.140275 0.139790 0.140020
0.181280 0.181172 0.181672
0.162806 0.162751 0.162603
0.228907 0.230676 0.232045
0.154455 0.154541 0.152000
0.227573 0.227654 0.229442
0.158091 0.158513 0.158473
0.181079 0.180532 0.180884
0.207120 0.206993 0.206102
0.221535 0.222440 0.222498
0.229375 0.229672 0.225818
0.165484 0.161198 0.159185
0.176402 0.176718 0.176000
0.228582 0.229178 0.227730
0.219399 0.218836 0.218863
0.214868 0.214520 0.214147
0.107663 0.107538 0.101428
0.145071 0.143920 0.142479
0.135635 0.135278 0.134353
0.195340 0.194988 0.195937
0.126642 0.126631 0.126769
0.189195 0.189568 0.191836
0.192601 0.192327 0.192157
0.131743 0.131100 0.130895
0.136630 0.137179 0.137898
0.177540 0.177334 0.177787
0.213624 0.213727 0.213824
0.197640 0.199401 0.202461
0.166164 0.165769 0.160549
0.179702 0.179725 0.178975
0.148422 0.148868 0.148538
0.229997 0.231070 0.230617
0.225741 0.225851 0.225395
0.210901 0.210056 0.210988
0.142512 0.142730 0.141616
0.139840 0.139994 0.140024
0.207561 0.206610 0.205826
0.149642 0.149133 0.147873
0.128272 0.128258 0.128415
0.210134 0.210433 0.210466
0.214931 0.211906 0.212542
0.227249 0.218434 0.218118
0.128511 0.128207 0.128072
0.177934 0.177442 0.176659
0.160832 0.160925 0.161179
0.130944 0.130372 0.129504
0.200962 0.200637 0.194520
0.224803 0.225153 0.225030
0.167014 0.168660 0.172385
0.216158 0.215446 0.213843
0.223434 0.223238 0.223500
0.221824 0.224174 0.224496
0.222141 0.221172 0.223779
0.240641 0.238555 0.237021
0.110583 0.108955 0.109390
0.152619 0.152433 0.152708
0.141765 0.141008 0.140250
0.202969 0.204602 0.224635
0.206723 0.204979 0.204652
0.218662 0.218747 0.218825
0.217306 0.217721 0.211303
0.185732 0.187181 0.196530
0.214264 0.213481 0.212667
0.223287 0.223419 0.223310
0.217135 0.215896 0.213672
0.129488 0.129720 0.129555
0.164021 0.164076 0.166050
0.196678 0.195163 0.194144
0.116451 0.116536 0.115408
0.149933 0.150749 0.151766
0.210498 0.211588 0.211684
0.206567 0.207242 0.207076
0.146059 0.144969 0.142373
0.139484 0.140933 0.149569
0.142542 0.142528 0.139853
0.217926 0.220896 0.221071
0.136252 0.136191 0.136074
0.154101 0.155659 0.159622
0.194661 0.193316 0.186935
0.117984 0.117808 0.120609
0.193699 0.192892 0.189738
0.193742 0.193776 0.200530
0.137364 0.138460 0.137492
0.148387 0.148250 0.147445
0.241985 0.243747 0.242019
0.239973 0.238998 0.232937
0.184913 0.183754 0.183802
0.206071 0.207948 0.207919
0.148379 0.148547 0.148577
0.199663 0.202340 0.202772
0.194118 0.194550 0.193305
0.200755 0.198188 0.188054
0.214639 0.213362 0.213681
0.167544 0.167649 0.167490
0.122800 0.122029 0.122210
0.228879 0.225832 0.225795
0.118097 0.118067 0.118236
0.212955 0.213695 0.214025
0.184164 0.183454 0.182894
0.203271 0.201766 0.201511
0.238943 0.238866 0.238718
0.147795 0.148338 0.150623
0.139813 0.139957 0.142279
0.119982 0.117903 0.116651
0.213531 0.211690 0.198946
0.138512 0.139102 0.138477
0.160525 0.162103 0.170777
0.138332 0.143284 0.144496
0.143779 0.143904 0.144731
0.218197 0.217722 0.213232
0.234619 0.234305 0.234636
0.190102 0.188344 0.187578
0.165216 0.165436 0.165384
0.197241 0.197405 0.198002
0.128592 0.129028 0.129543
0.217770 0.219331 0.219012
0.111566 0.111966 0.112311
0.178370 0.177207 0.177056
0.150502 0.152148 0.152836
0.218409 0.219198 0.219994
0.145137 0.144164 0.143929
0.199689 0.195720 0.196557
0.166219 0.165885 0.166292
0.203000 0.204108 0.205348
0.207698 0.207016 0.205235
0.207016 0.205235 0.204857
0.138105 0.138132 0.135342
0.215481 0.216417 0.216386
0.210021 0.207386 0.204380
0.139390 0.138273 0.137740
0.121886 0.121012 0.119875
0.220356 0.220404 0.220239
0.108950 0.109700 0.110172
0.208352 0.210016 0.210575
0.199994 0.201357 0.202261
0.135131 0.134700 0.135513
0.241146 0.241313 0.242858
0.157467 0.153915 0.152624
0.210698 0.210794 0.210425
0.161231 0.161527 0.161135
0.192472 0.192120 0.191567
0.192471 0.192662 0.192913
0.146679 0.147603 0.150413
0.195868 0.195666 0.195656
0.145493 0.145090 0.146846
0.156251 0.156310 0.155413
0.193446 0.193555 0.197186
0.218977 0.221658 0.227020
0.188754 0.189375 0.191368
0.131786 0.130959 0.130608
0.233181 0.224414 0.222639
0.176701 0.174935 0.175893
0.173072 0.172004 0.171597
0.211820 0.204668 0.203204
0.180002 0.179874 0.178435
0.156638 0.157977 0.158131
0.148416 0.148443 0.148584
0.126208 0.126902 0.124176
0.162551 0.158522 0.158343
0.196486 0.196202 0.195983
0.200859 0.201010 0.203071
0.200433 0.200769 0.200517
0.202819 0.201112 0.199610
0.148767 0.148017 0.148310
0.208260 0.208190 0.206809
0.208915 0.210030 0.210556
0.218996 0.218047 0.219193
0.119397 0.119399 0.119648
0.113014 0.112888 0.112970
0.110228 0.109464 0.109361
0.151555 0.151792 0.154613
0.150449 0.151296 0.152464
0.125215 0.126922 0.126196
0.151751 0.152438 0.155529
0.132689 0.132407 0.131980
0.194787 0.195282 0.197205
0.186478 0.186165 0.185759
0.218012 0.217459 0.217077
0.197337 0.197144 0.197110
0.158142 0.158158 0.159078
0.205568 0.205453 0.205141
0.194970 0.194827 0.195387
0.212301 0.212413 0.211628
0.211623 0.214087 0.214511
0.201468 0.201574 0.199463
0.142155 0.142530 0.142432
0.209845 0.204311 0.202985
0.124424 0.124762 0.125168
0.158575 0.158174 0.159089
0.119149 0.114272 0.112574
0.175798 0.176063 0.175356
0.152260 0.152850 0.155071
0.146714 0.146048 0.145484
0.136281 0.135740 0.135436
0.189865 0.189176 0.189123
0.212285 0.214501 0.214620
0.176576 0.177461 0.177938
0.204668 0.203204 0.202318
0.210441 0.211142 0.214886
0.214720 0.215554 0.215944
0.186059 0.186076 0.188810
0.192170 0.199663 0.202340
0.217041 0.217926 0.220896
0.218343 0.218386 0.217823
0.183250 0.183764 0.188278
0.202912 0.202259 0.202104
0.134053 0.134402 0.134482
0.144299 0.144260 0.144393
0.214278 0.216104 0.218228
0.189053 0.188262 0.183030
0.197009 0.196290 0.196838
0.132996 0.133975 0.133852
0.214001 0.213113 0.212441
0.195957 0.193736 0.192989
0.171399 0.171389 0.172088
0.218679 0.218738 0.215268
0.182830 0.178023 0.177529
0.184316 0.179974 0.178215
0.179874 0.178435 0.178573
0.149578 0.149858 0.149865
0.157903 0.158180 0.157167
0.210376 0.215606 0.216408
0.223871 0.226521 0.225811
0.166945 0.167449 0.168310
0.143458 0.143625 0.143942
