0.161032 0.160682 0.160691
0.149503 0.147852 0.147314
0.160071 0.160041 0.159678
0.175523 0.175865 0.176004
0.156365 0.155542 0.155831
0.147988 0.148169 0.150743
0.147810 0.147963 0.148475
0.151473 0.156514 0.160714
0.143293 0.144521 0.145547
0.119146 0.119898 0.119535
0.144335 0.144628 0.144346
0.160337 0.160680 0.160396
0.168865 0.161807 0.160617
0.147636 0.150694 0.154357
0.176502 0.179273 0.180366
0.157904 0.157696 0.157434
0.164097 0.159917 0.155971
0.145661 0.145936 0.148543
0.181178 0.182232 0.183235
0.146977 0.146862 0.146834
0.170073 0.166194 0.165992
0.176589 0.176510 0.176748
0.154856 0.156848 0.157083
0.163780 0.160294 0.166199
0.148337 0.148308 0.148331
0.145721 0.147062 0.147650
0.159116 0.154965 0.152659
0.149981 0.150176 0.149614
0.164391 0.164502 0.164409
0.150575 0.150977 0.151360
0.151366 0.149327 0.149093
0.150360 0.150897 0.155261
0.128223 0.127948 0.129613
0.158771 0.158244 0.152866
0.146361 0.144259 0.144117
0.166780 0.174248 0.177815
0.160032 0.161771 0.164477
0.164265 0.164227 0.163257
0.181313 0.181156 0.181178
0.155897 0.155820 0.155701
0.166328 0.165153 0.165322
0.163724 0.163754 0.163564
0.173876 0.173681 0.169336
0.145402 0.146547 0.156484
0.146874 0.146872 0.146791
0.170325 0.170379 0.170560
0.158599 0.157798 0.157777
0.157720 0.156972 0.154946
0.166166 0.166256 0.165663
0.153789 0.153873 0.153715
0.166534 0.164969 0.164249
0.147118 0.147119 0.147178
0.168145 0.167971 0.168462
0.138792 0.138510 0.138265
0.164175 0.163914 0.163874
0.146820 0.146849 0.146864
0.162568 0.162441 0.156939
0.147818 0.147994 0.149171
0.160991 0.161207 0.161705
0.163902 0.162759 0.161353
0.158961 0.158791 0.158222
0.164304 0.164341 0.163764
0.154838 0.147877 0.145286
0.158567 0.158711 0.157547
0.169807 0.167783 0.160998
0.156060 0.155439 0.155061
0.157026 0.158203 0.164733
0.148623 0.148415 0.148238
0.158694 0.157913 0.157762
0.124799 0.124731 0.124747
0.177177 0.179006 0.179257
0.160400 0.157769 0.155360
0.160770 0.159734 0.152580
0.141376 0.143286 0.143980
0.171870 0.174581 0.174259
0.151152 0.150758 0.150702
0.152791 0.149507 0.146882
0.159990 0.154345 0.152582
0.156494 0.156516 0.155700
0.162526 0.161549 0.155926
0.164228 0.164227 0.164097
0.147700 0.147791 0.147521
0.174925 0.175094 0.174795
0.165845 0.166128 0.166230
0.143673 0.143728 0.139160
0.161525 0.161502 0.161678
0.149084 0.149103 0.149269
0.165921 0.166027 0.166734
0.142918 0.152576 0.155546
0.146883 0.148476 0.148575
0.155044 0.157248 0.157452
0.151230 0.151759 0.151507
0.149814 0.152742 0.153118
0.145757 0.145535 0.145553
0.138535 0.139008 0.140457
0.143081 0.142560 0.142719
0.167469 0.167779 0.168145
0.138646 0.138506 0.143880
0.153216 0.153747 0.154260
0.146604 0.144976 0.144767
0.169396 0.159098 0.151754
0.158499 0.158642 0.158788
0.156840 0.157677 0.157728
0.158093 0.157781 0.163712
0.153670 0.153522 0.152930
0.159535 0.154419 0.150195
0.116781 0.116792 0.117209
0.174764 0.174542 0.174420
0.159574 0.160233 0.160321
0.146588 0.147157 0.147416
0.156596 0.156858 0.156537
0.146306 0.148190 0.148126
0.163936 0.164601 0.164241
0.146096 0.142302 0.138271
0.157330 0.156137 0.156149
0.151970 0.156366 0.160641
0.161110 0.161006 0.160818
0.145931 0.146025 0.146463
0.169172 0.168660 0.168610
0.133373 0.135853 0.135637
0.154654 0.154149 0.154588
0.152890 0.153308 0.152616
0.152919 0.152981 0.148001
0.149147 0.149102 0.150381
0.116356 0.116160 0.116487
0.175803 0.175252 0.174792
0.159951 0.163096 0.163654
0.143518 0.145410 0.144433
0.154179 0.153455 0.152931
0.157745 0.157658 0.157743
0.150749 0.150755 0.150726
0.142825 0.147805 0.150467
0.149365 0.149783 0.150021
0.158202 0.158452 0.155465
0.151319 0.150294 0.149858
0.171645 0.168835 0.166533
0.173902 0.171558 0.168105
0.146809 0.146874 0.146421
0.172859 0.171613 0.171194
0.173853 0.173123 0.172418
0.151161 0.147593 0.150191
0.152594 0.152579 0.152227
0.169261 0.169307 0.169620
0.150831 0.150834 0.149940
0.143684 0.142992 0.142404
0.159477 0.159581 0.159975
0.134325 0.134923 0.135229
0.133334 0.132935 0.133205
0.179959 0.174403 0.175408
0.154052 0.159548 0.164543
0.168009 0.166649 0.162100
0.160643 0.161041 0.165232
0.154373 0.154492 0.155855
0.168067 0.163716 0.163025
0.145569 0.143659 0.143249
0.146954 0.146701 0.145766
0.172006 0.172183 0.172880
0.154724 0.154551 0.154474
0.131986 0.132798 0.132843
0.153221 0.151791 0.152154
0.156984 0.156907 0.155801
0.169144 0.164976 0.163415
0.159414 0.159391 0.158583
0.161709 0.160112 0.159845
0.111511 0.111695 0.111814
0.151303 0.151360 0.150900
0.152327 0.152449 0.152618
0.163858 0.162809 0.156915
0.152010 0.150173 0.149668
0.124700 0.124733 0.124746
0.146579 0.149314 0.149345
0.150740 0.155751 0.156637
0.114985 0.114975 0.113229
0.166694 0.167693 0.167556
0.147286 0.143060 0.143559
0.152436 0.160422 0.162345
0.161098 0.161126 0.161134
0.161731 0.161521 0.160482
0.148221 0.148885 0.148135
0.167358 0.167655 0.167106
0.162253 0.162155 0.161879
0.167490 0.167101 0.167069
0.124759 0.124596 0.123230
0.148757 0.147815 0.147555
0.134761 0.138352 0.141786
0.161310 0.161490 0.161248
0.154020 0.154303 0.159551
0.157030 0.157244 0.156904
0.172879 0.173169 0.173142
0.156286 0.156309 0.156801
0.127230 0.116782 0.114218
0.169254 0.171106 0.171189
0.170568 0.170998 0.170416
0.145637 0.145824 0.140418
0.159873 0.160077 0.160536
0.164320 0.168211 0.170605
0.153717 0.153617 0.153235
0.154474 0.156193 0.159529
0.145414 0.146576 0.146614
0.153088 0.153911 0.161022
0.164238 0.164300 0.164108
0.150961 0.149107 0.149688
0.151327 0.151234 0.150994
0.157769 0.155360 0.155920
0.154936 0.150650 0.148780
0.163682 0.164071 0.164092
0.153522 0.152930 0.152597
0.152332 0.152843 0.153335
0.152792 0.153131 0.153066
0.163587 0.169407 0.172093
0.168265 0.168146 0.168174
0.149888 0.149987 0.149767
0.155155 0.154883 0.155090
0.140871 0.140433 0.140504
0.146492 0.147442 0.147410
0.168393 0.168237 0.167983
0.153795 0.153525 0.153864
0.158841 0.158957 0.159187
0.170051 0.169725 0.168193
0.156272 0.155406 0.155769
0.175773 0.171417 0.169803
0.109962 0.109688 0.109497
0.147955 0.146859 0.149236
0.157144 0.158073 0.158597
0.162493 0.164099 0.164266
0.161510 0.162008 0.162368
0.188815 0.188898 0.188651
0.149967 0.161223 0.163847
0.163584 0.164486 0.165093
0.174317 0.174431 0.173870
0.148095 0.147856 0.143549
0.133576 0.131728 0.133398
0.138368 0.139159 0.145126
0.140196 0.138008 0.138388
0.166465 0.166330 0.165414
0.178004 0.179731 0.180139
0.162727 0.167163 0.168945
0.169889 0.169918 0.169781
0.168790 0.166279 0.162354
0.174599 0.172815 0.167540
0.151154 0.151996 0.152232
0.155796 0.155402 0.154743
0.159450 0.163018 0.163678
0.149747 0.152545 0.152872
0.159719 0.154409 0.151656
0.154784 0.151040 0.151090
0.148575 0.149622 0.150229
0.148396 0.148331 0.148099
0.163270 0.164698 0.160700
0.145496 0.144723 0.145170
0.172348 0.171281 0.170736
0.176185 0.179807 0.179299
0.160973 0.160755 0.161371
0.163158 0.163348 0.161678
0.124975 0.124944 0.124935
0.157188 0.157071 0.156053
0.151120 0.151477 0.152162
0.161529 0.163490 0.163079
0.157818 0.157022 0.156497
0.134254 0.134325 0.134923
0.149305 0.146231 0.147143
0.149035 0.148448 0.147553
0.155017 0.154748 0.155974
0.151224 0.152053 0.158343
0.152375 0.147367 0.142608
0.176046 0.175820 0.176710
0.147181 0.147223 0.147279
0.149244 0.150200 0.150149
0.168898 0.168912 0.169112
0.145160 0.145154 0.145113
0.146302 0.145704 0.145563
0.159209 0.159163 0.159186
0.145577 0.158912 0.161091
0.160501 0.160965 0.160906
0.152372 0.151950 0.152375
0.144666 0.145451 0.145815
0.146715 0.146637 0.146239
0.126599 0.126696 0.126644
0.149719 0.149631 0.149093
0.148357 0.148270 0.148195
0.164678 0.166065 0.165907
0.144363 0.143611 0.143357
0.156828 0.156003 0.156676
0.119271 0.119363 0.119647
0.152875 0.152579 0.152667
0.159518 0.159688 0.160053
0.158647 0.159135 0.159184
0.137216 0.136992 0.137054
0.152552 0.150848 0.149161
0.157246 0.158717 0.163916
0.157275 0.153007 0.148398
0.177569 0.179726 0.180978
0.141581 0.141833 0.141671
0.157336 0.155094 0.153252
0.151271 0.148234 0.146775
0.164974 0.164668 0.164318
0.148668 0.149997 0.150676
0.169288 0.169550 0.169719
0.168331 0.167843 0.167578
0.147354 0.147710 0.146439
0.119590 0.119138 0.119208
0.157666 0.156071 0.156010
0.176994 0.176972 0.177027
0.170559 0.169721 0.167570
0.151408 0.151471 0.151416
0.153900 0.154396 0.153062
0.164694 0.166574 0.170756
0.170450 0.170583 0.170568
0.147755 0.149214 0.157711
0.153767 0.149314 0.148698
0.122337 0.122146 0.121571
0.150376 0.149500 0.149479
0.141413 0.141011 0.141074
0.132328 0.132390 0.132249
0.152365 0.152391 0.152263
0.146590 0.145777 0.145050
0.153620 0.152175 0.149790
0.164318 0.164789 0.164744
0.172107 0.171756 0.171739
0.165596 0.165922 0.166207
0.141469 0.141897 0.143469
0.168384 0.171888 0.171555
0.124978 0.124559 0.124470
0.145999 0.145606 0.146554
0.150034 0.153536 0.153889
0.128191 0.128699 0.135696
0.138197 0.138344 0.138634
0.178584 0.178723 0.183398
0.156675 0.156605 0.157031
0.156602 0.152582 0.149884
0.144265 0.148179 0.153353
0.150735 0.159354 0.161461
0.174795 0.174836 0.174998
0.161243 0.164560 0.164508
0.154046 0.153609 0.146234
0.174478 0.174197 0.174267
0.151027 0.150686 0.150463
0.154746 0.154763 0.160617
0.155020 0.156268 0.157394
0.149278 0.144071 0.144902
0.146401 0.145211 0.138281
0.157858 0.158367 0.159343
0.160918 0.160763 0.160861
0.160607 0.160394 0.159820
0.161206 0.161020 0.160682
0.166905 0.168374 0.169798
0.155159 0.161658 0.164133
0.161063 0.161713 0.161793
0.146190 0.146090 0.145599
0.146334 0.146502 0.146664
0.145524 0.146727 0.153724
0.162820 0.158029 0.155733
0.151610 0.150057 0.150353
0.140000 0.137467 0.137529
0.149168 0.149901 0.149650
0.160872 0.158648 0.156293
0.160601 0.160811 0.160856
0.136104 0.135330 0.138006
0.152103 0.152099 0.151378
0.148256 0.148109 0.148143
0.154635 0.154566 0.153803
0.150586 0.150408 0.152022
0.132322 0.133095 0.133250
0.155542 0.157204 0.157757
0.155545 0.154699 0.154121
0.150511 0.150450 0.150424
0.155736 0.154540 0.154480
0.114167 0.112952 0.113403
0.170605 0.171008 0.170989
0.153141 0.153412 0.153414
0.172182 0.171348 0.171070
0.162351 0.161867 0.161357
0.132889 0.138397 0.138704
0.165414 0.163181 0.156775
0.172155 0.171008 0.170560
0.159442 0.156970 0.154606
0.153203 0.152698 0.152743
0.144394 0.137759 0.137332
0.160881 0.163445 0.163517
0.152276 0.152472 0.152414
0.176170 0.176714 0.179075
0.148783 0.149198 0.150546
0.151493 0.151209 0.141709
0.156293 0.156524 0.155875
0.169571 0.169439 0.168975
0.143413 0.143155 0.143181
0.154337 0.154911 0.154593
0.154901 0.162387 0.162309
0.174344 0.172377 0.158470
0.147402 0.147989 0.148240
0.166580 0.166559 0.166712
0.145832 0.145964 0.146434
0.168135 0.168348 0.168228
0.130009 0.130119 0.130285
0.161041 0.165232 0.174713
0.150277 0.150107 0.150132
0.153974 0.153322 0.151199
0.141824 0.142321 0.142761
0.153647 0.153672 0.153632
0.174116 0.174295 0.173727
0.136936 0.135817 0.135986
0.165423 0.165039 0.165186
0.147877 0.145286 0.145723
0.148275 0.148229 0.148233
0.148517 0.150295 0.156625
0.140615 0.140531 0.140480
0.128231 0.133589 0.138726
0.152527 0.152554 0.152583
0.180703 0.180959 0.181054
0.152642 0.146758 0.144549
0.150257 0.149973 0.149693
0.168906 0.167015 0.159148
0.154435 0.150470 0.150345
0.154558 0.147974 0.143020
0.150872 0.151706 0.159927
0.149999 0.142494 0.140999
0.161593 0.162786 0.157012
0.167212 0.168906 0.167015
0.154037 0.154003 0.154029
0.143180 0.144813 0.151251
0.149027 0.149292 0.149252
0.130309 0.129836 0.129830
0.163490 0.161618 0.163033
0.156009 0.155783 0.156420
0.140726 0.140424 0.140429
0.154710 0.155117 0.152111
0.151622 0.144895 0.141836
0.169442 0.169305 0.169609
0.150334 0.150749 0.151731
0.155436 0.155318 0.155020
0.105318 0.105874 0.106174
0.149539 0.146793 0.145426
0.156030 0.160452 0.162500
0.149050 0.149444 0.148334
0.152425 0.152564 0.152514
0.146684 0.152480 0.155063
0.164508 0.160309 0.155569
0.160647 0.161458 0.165549
0.170401 0.169624 0.163730
0.160910 0.161126 0.165238
0.154877 0.152016 0.151640
0.161244 0.160543 0.160050
0.177088 0.177232 0.177039
0.164077 0.163107 0.155477
0.149148 0.153442 0.154080
0.174397 0.174398 0.174442
0.141210 0.141798 0.144026
0.172631 0.172505 0.171262
0.155971 0.156079 0.156157
0.156385 0.156159 0.155276
0.148171 0.148196 0.148704
0.170460 0.170194 0.170185
0.145613 0.146066 0.146251
0.145723 0.146524 0.146644
0.152175 0.154208 0.161450
0.147184 0.147382 0.147629
0.149221 0.147852 0.141065
0.163525 0.163167 0.164638
0.154860 0.151703 0.148925
0.158154 0.159387 0.159337
0.160645 0.161716 0.162055
0.147592 0.147370 0.146838
0.173956 0.171695 0.168673
0.174700 0.174643 0.174740
0.148218 0.148028 0.148143
0.150672 0.154043 0.155232
0.153675 0.156061 0.158355
0.146227 0.147161 0.147862
0.176030 0.177360 0.177644
0.130508 0.130374 0.130043
0.163607 0.163652 0.162264
0.154260 0.154537 0.154974
0.154603 0.156165 0.156483
0.153181 0.149694 0.149628
0.158622 0.156830 0.156763
0.140224 0.139905 0.139781
0.155221 0.153990 0.153810
0.126795 0.127805 0.127729
0.156118 0.159069 0.160327
0.162109 0.162014 0.162843
0.148364 0.143823 0.143644
0.141344 0.141325 0.141149
0.161456 0.161300 0.160847
0.154532 0.151723 0.151647
0.122192 0.122186 0.122425
0.155894 0.155681 0.155919
0.169140 0.169510 0.169468
0.169550 0.169719 0.170296
0.132818 0.132598 0.132628
0.171138 0.171142 0.170875
0.156840 0.156557 0.156636
0.154164 0.154042 0.154326
0.137402 0.137206 0.137225
0.157908 0.164814 0.175551
0.149924 0.156078 0.157814
0.164611 0.164306 0.163623
0.163366 0.163375 0.163657
0.152531 0.160820 0.162462
0.148233 0.148136 0.148135
0.159377 0.157984 0.158106
0.157841 0.157880 0.157532
0.162212 0.164093 0.166333
0.158115 0.158177 0.158093
0.155167 0.150309 0.148826
0.153420 0.153599 0.153460
0.158988 0.160721 0.160950
0.141877 0.134838 0.137319
0.121208 0.121317 0.126839
0.132092 0.131636 0.130861
0.171693 0.171599 0.172108
0.157022 0.156497 0.149478
0.141768 0.141776 0.141410
0.151467 0.151712 0.151746
0.136815 0.133349 0.133461
0.171038 0.171967 0.173181
0.144307 0.154369 0.155559
0.154756 0.159899 0.160038
0.165572 0.165596 0.165922
0.134603 0.138635 0.139706
0.116229 0.116339 0.116427
0.165302 0.170039 0.171543
0.172211 0.172143 0.172135
0.154567 0.154260 0.154315
0.145256 0.145296 0.145601
0.151544 0.149448 0.147813
0.131137 0.130933 0.132283
0.145838 0.152683 0.154874
0.157944 0.156165 0.157065
0.173832 0.173236 0.172608
0.118349 0.119126 0.119801
0.163967 0.166766 0.166673
0.152713 0.150774 0.152902
0.154960 0.154931 0.154948
0.133527 0.134099 0.134392
0.144087 0.144057 0.144205
0.172238 0.173674 0.173994
0.152121 0.151623 0.150900
0.159644 0.159878 0.159666
0.167220 0.167469 0.167779
0.169498 0.169577 0.170391
0.153388 0.154025 0.160726
0.143395 0.142959 0.142187
0.146666 0.146597 0.146164
0.120007 0.119921 0.120302
0.150388 0.149985 0.149904
0.144670 0.144419 0.144577
0.151852 0.154361 0.162318
0.159461 0.159334 0.158817
0.158069 0.157517 0.157366
0.165901 0.165948 0.166968
0.148633 0.149657 0.149589
0.167116 0.167156 0.166876
0.151860 0.151538 0.152022
0.173070 0.172725 0.172057
0.153080 0.154472 0.155026
0.165460 0.165161 0.159034
0.149419 0.149722 0.149590
0.144476 0.143119 0.142496
0.148135 0.148589 0.148080
0.175935 0.175680 0.178388
0.139878 0.140201 0.140092
0.162690 0.162655 0.163032
0.146029 0.145313 0.145010
0.151201 0.149197 0.149474
0.181100 0.181047 0.181153
0.138573 0.138691 0.139080
0.164952 0.168674 0.169384
0.160254 0.159868 0.160235
0.169253 0.162859 0.160823
0.128561 0.128955 0.129427
0.146555 0.146165 0.146200
0.178058 0.176938 0.177158
0.155168 0.154929 0.154851
0.158689 0.168250 0.169495
0.160757 0.166242 0.170928
0.177155 0.178004 0.179731
0.167498 0.168513 0.167925
0.174829 0.175508 0.175973
0.158770 0.158877 0.157914
0.177732 0.178129 0.177381
0.145678 0.145611 0.146156
0.149048 0.149444 0.148705
0.167072 0.167289 0.167506
0.168330 0.168350 0.168881
0.132958 0.134311 0.141311
0.173259 0.173083 0.167394
0.175625 0.175693 0.175688
0.164177 0.163921 0.163879
0.144886 0.144992 0.145119
0.141278 0.141584 0.141458
0.171998 0.171448 0.171194
0.176045 0.176154 0.176084
0.150618 0.149602 0.150179
0.158920 0.158760 0.158771
0.154575 0.145857 0.142647
0.145953 0.146414 0.146847
0.152822 0.150131 0.149251
0.171155 0.171831 0.171342
0.166411 0.157158 0.155276
0.163450 0.166856 0.168607
0.162065 0.160174 0.159768
0.144914 0.145085 0.144848
0.140976 0.141028 0.140844
0.166063 0.166054 0.165344
0.150748 0.150650 0.150873
0.155395 0.155334 0.155410
0.149510 0.153192 0.157601
0.141176 0.140914 0.140563
0.147598 0.147443 0.147377
0.147929 0.150382 0.150197
0.164275 0.156573 0.155545
0.162526 0.163165 0.164831
0.150208 0.149632 0.149195
0.183235 0.183271 0.178246
0.154693 0.155393 0.160195
0.149187 0.149129 0.149034
0.154215 0.154029 0.160372
0.157487 0.156999 0.157052
0.160530 0.165045 0.165483
0.181147 0.178872 0.175342
0.153318 0.148391 0.142834
0.149087 0.151124 0.150774
0.152296 0.152239 0.151933
0.166415 0.167422 0.168386
0.153971 0.158627 0.161502
0.151618 0.151476 0.151442
0.113209 0.113205 0.113721
0.147400 0.147735 0.147590
0.141210 0.141495 0.141473
0.152743 0.152433 0.152499
0.119271 0.120001 0.119614
0.171879 0.171998 0.171448
0.132066 0.131380 0.131298
0.141977 0.145731 0.146272
0.118823 0.119166 0.121742
0.154892 0.151499 0.150597
0.153057 0.153499 0.153559
0.167735 0.164765 0.162439
0.156432 0.156370 0.155851
0.152823 0.153457 0.154161
0.150898 0.150760 0.151120
0.147957 0.147961 0.147975
0.157108 0.157835 0.158363
0.158218 0.157665 0.156629
0.149099 0.149318 0.149295
0.161128 0.165682 0.168119
0.163727 0.163005 0.155932
0.152582 0.152309 0.152856
0.132943 0.132682 0.134695
0.146318 0.146509 0.146650
0.119473 0.118952 0.117030
0.185707 0.187070 0.188433
0.182113 0.182862 0.182169
0.154975 0.151508 0.151212
0.153511 0.153688 0.153821
0.166087 0.162022 0.161184
0.138616 0.138558 0.138017
0.158001 0.157888 0.157111
0.166041 0.169870 0.174166
0.162607 0.162263 0.162301
0.148284 0.148403 0.148646
0.149696 0.149261 0.149194
0.154355 0.154442 0.154549
0.136997 0.136830 0.138616
0.160705 0.161958 0.161314
0.138009 0.140403 0.143105
0.160480 0.161082 0.162101
0.142581 0.149559 0.151580
0.174864 0.174925 0.175094
0.154579 0.151997 0.154792
0.167904 0.167923 0.168081
0.153798 0.154208 0.154733
0.154647 0.152704 0.146025
0.158424 0.158265 0.153908
0.145068 0.144898 0.144901
0.109280 0.111177 0.110944
0.138085 0.147099 0.148373
0.154310 0.152281 0.151904
0.150118 0.150245 0.149870
0.140000 0.140083 0.140095
0.154083 0.154000 0.154047
0.148107 0.151535 0.153542
0.167473 0.167308 0.166950
0.145598 0.145796 0.145280
0.119849 0.119291 0.119052
0.150877 0.149218 0.148375
0.120056 0.120098 0.120589
0.144374 0.144100 0.144135
0.158886 0.159985 0.161106
0.119289 0.117733 0.117800
0.149745 0.149861 0.150161
0.155023 0.155049 0.155364
0.165325 0.166193 0.166237
0.159729 0.159798 0.159148
0.148962 0.147862 0.155593
0.149809 0.143275 0.139047
0.166830 0.167213 0.167386
0.154229 0.154108 0.154520
0.149836 0.146060 0.139010
0.155185 0.155103 0.155052
0.151808 0.159032 0.161698
0.158835 0.158766 0.158783
0.161567 0.163579 0.159460
0.149136 0.148616 0.148531
0.162047 0.162074 0.162077
0.179111 0.177215 0.171803
0.152773 0.157930 0.159815
0.182838 0.187590 0.189090
0.131740 0.131706 0.130324
0.131819 0.131304 0.131230
0.182926 0.174309 0.167987
0.160514 0.160437 0.160273
0.164363 0.164960 0.165396
0.169260 0.169576 0.169384
0.143977 0.143756 0.143716
0.165360 0.165261 0.166151
0.121910 0.122650 0.122337
0.149498 0.152620 0.156082
0.154956 0.154811 0.155263
0.178059 0.186044 0.188443
0.166747 0.166908 0.166589
0.152400 0.152305 0.152414
0.148824 0.148495 0.148933
0.181025 0.180793 0.180302
0.157359 0.158159 0.157359
0.155736 0.159981 0.156582
0.139790 0.140845 0.141791
0.160770 0.160778 0.161038
0.155215 0.156394 0.160700
0.174698 0.174667 0.174747
0.149313 0.148834 0.148701
0.171028 0.171311 0.170408
0.135887 0.151016 0.157359
0.133155 0.133245 0.133075
0.159646 0.159690 0.159775
0.150292 0.149898 0.149703
0.144491 0.140905 0.137005
0.167596 0.163694 0.157664
0.169843 0.169557 0.168140
0.151667 0.151888 0.151555
0.159328 0.152382 0.148851
0.168236 0.168651 0.168438
0.167277 0.167366 0.167486
0.147979 0.148041 0.148157
0.168697 0.168745 0.168631
0.159621 0.159209 0.159214
0.161243 0.161517 0.161443
0.167689 0.166730 0.163210
0.166633 0.165706 0.165509
0.154548 0.154702 0.155576
0.151493 0.150620 0.150860
0.140552 0.140624 0.140547
0.149675 0.149206 0.148262
0.127655 0.127655 0.128648
0.143985 0.144108 0.145347
0.156070 0.155580 0.156465
0.118841 0.119829 0.119693
0.167993 0.167924 0.166773
0.156423 0.155670 0.155511
0.151293 0.151247 0.151210
0.124724 0.124708 0.124693
0.175291 0.175294 0.175117
0.168692 0.169003 0.168605
0.160945 0.161719 0.161933
0.144378 0.144209 0.143764
0.154528 0.154624 0.154503
0.149148 0.147797 0.154040
0.154370 0.154755 0.154221
0.151875 0.152676 0.152999
0.172505 0.164714 0.162630
0.152527 0.152656 0.152711
0.151847 0.152329 0.153671
0.160311 0.160226 0.160172
0.152284 0.153860 0.153068
0.179456 0.179523 0.180013
0.166575 0.166766 0.166640
0.155324 0.156612 0.158495
0.165652 0.165605 0.165748
0.165081 0.164429 0.164504
0.113607 0.113257 0.112995
0.149929 0.145303 0.149159
0.159316 0.159859 0.160124
0.157513 0.158142 0.158306
0.159092 0.156936 0.149140
0.171359 0.167351 0.163806
0.150965 0.150602 0.150104
0.151021 0.151081 0.150999
0.141516 0.141066 0.140671
0.171720 0.171499 0.171605
0.173741 0.169981 0.169819
0.155213 0.154821 0.154640
0.154768 0.154821 0.155070
0.157154 0.160631 0.162537
0.159971 0.158927 0.158902
0.154832 0.154849 0.154476
0.168764 0.169027 0.168630
0.165836 0.165222 0.165103
0.149578 0.149671 0.149211
0.149029 0.142674 0.147250
0.168979 0.167750 0.160878
0.166406 0.165986 0.160634
0.146262 0.146290 0.146449
0.164572 0.164880 0.166582
0.104428 0.104690 0.109001
0.169068 0.169304 0.168847
0.164350 0.164307 0.164228
0.159568 0.159558 0.159294
0.151075 0.143010 0.140285
0.183097 0.183004 0.182497
0.154177 0.153792 0.153662
0.151802 0.151807 0.151851
0.157376 0.156909 0.156321
0.172025 0.172220 0.171810
0.147296 0.147308 0.147355
0.147296 0.153028 0.156587
0.152785 0.152095 0.152559
0.147769 0.147873 0.147911
0.159034 0.157882 0.157874
0.153638 0.153117 0.147533
0.147003 0.147306 0.147380
0.161930 0.162521 0.162478
0.160939 0.161990 0.161740
0.158012 0.158084 0.158147
0.147447 0.147455 0.147391
0.180631 0.180173 0.176829
0.148013 0.148607 0.148304
0.154188 0.154238 0.154037
0.165885 0.166229 0.166407
0.160533 0.159916 0.159949
0.147518 0.147921 0.148032
0.160557 0.155333 0.151756
0.162620 0.165830 0.164744
0.152724 0.153134 0.152885
0.155254 0.155750 0.155768
0.162424 0.162163 0.161989
0.145900 0.145388 0.145817
0.164002 0.164007 0.162916
0.167015 0.159148 0.157883
0.148235 0.148504 0.148504
0.161290 0.158996 0.158476
0.162789 0.162379 0.156223
0.154027 0.154299 0.154886
0.155579 0.155608 0.156148
0.175412 0.175291 0.175551
0.150836 0.145102 0.140510
0.147269 0.148182 0.153030
0.147178 0.147373 0.147775
0.155853 0.156335 0.155940
0.162094 0.161942 0.162040
0.156343 0.156020 0.155098
0.154575 0.152426 0.152609
0.156381 0.151775 0.148322
0.150196 0.150214 0.150458
0.176004 0.180057 0.182101
0.158854 0.158784 0.158688
0.162100 0.157998 0.158214
0.149162 0.149266 0.148452
0.163300 0.163190 0.161915
0.140539 0.140759 0.140389
0.144139 0.143876 0.144246
0.151127 0.151220 0.150789
0.149570 0.149671 0.150810
0.166934 0.167478 0.167252
0.143545 0.145499 0.145305
0.140683 0.141335 0.141554
0.117132 0.117441 0.117969
0.114552 0.114654 0.114767
0.143227 0.142719 0.142635
0.171329 0.165821 0.165456
0.150385 0.150556 0.150695
0.147414 0.147146 0.147189
0.161990 0.161740 0.162217
0.172898 0.172355 0.172259
0.154115 0.154427 0.150279
0.172903 0.173010 0.172661
0.164744 0.165602 0.165692
0.149657 0.149589 0.148373
0.128043 0.128525 0.128362
0.149347 0.149664 0.149402
0.166487 0.164987 0.164181
0.149067 0.149139 0.149111
0.156908 0.156898 0.157203
0.161061 0.157779 0.154799
0.156637 0.156688 0.153181
0.152688 0.153013 0.156964
0.147967 0.148569 0.149191
0.171728 0.172012 0.172167
0.168144 0.167965 0.168451
0.152630 0.150020 0.149052
0.172400 0.172535 0.172594
0.143043 0.128386 0.125047
0.155373 0.155084 0.154659
0.112937 0.111038 0.110766
0.159878 0.159666 0.159566
0.153962 0.153342 0.154683
0.151599 0.151054 0.149810
0.147955 0.147979 0.144645
0.180250 0.179713 0.179388
0.157471 0.155786 0.154936
0.149573 0.149624 0.149887
0.142221 0.142217 0.142232
0.146689 0.146765 0.147083
0.155627 0.160797 0.161129
0.168129 0.167993 0.167924
0.174628 0.174782 0.174828
0.146271 0.146577 0.146649
0.169755 0.170307 0.170246
0.171474 0.171053 0.171777
0.167986 0.175683 0.179072
0.147265 0.147279 0.147341
0.155975 0.154467 0.154573
0.148144 0.148290 0.148187
0.135375 0.129716 0.125964
0.145549 0.145681 0.146656
0.149688 0.153342 0.154555
0.140350 0.140442 0.140725
0.169661 0.166720 0.162804
0.136158 0.136254 0.136985
0.130582 0.126774 0.126490
0.146231 0.146516 0.146512
0.147231 0.147008 0.147132
0.140566 0.140656 0.140632
0.161129 0.160856 0.161614
0.180144 0.178913 0.174253
0.148438 0.147461 0.148250
0.140915 0.141013 0.140836
0.150584 0.147838 0.145750
0.164154 0.163804 0.163991
0.166477 0.166335 0.168696
0.113656 0.114006 0.114122
0.151057 0.148717 0.149131
0.113719 0.113117 0.113136
0.158378 0.154488 0.151333
0.171580 0.171685 0.171692
0.117996 0.126297 0.130983
0.157033 0.159540 0.160333
0.141345 0.141243 0.141351
0.149323 0.147465 0.145773
0.140323 0.140604 0.140616
0.169327 0.171525 0.172994
0.162402 0.158304 0.152902
0.154953 0.155266 0.155188
0.161332 0.161279 0.161107
0.151398 0.157970 0.162312
0.154054 0.154318 0.154554
0.159069 0.160327 0.160497
0.160646 0.154435 0.150470
0.149237 0.150348 0.155663
0.140381 0.139956 0.144973
0.163666 0.163373 0.162869
0.155299 0.153812 0.153750
0.161933 0.162089 0.167017
0.151989 0.152009 0.152425
0.161248 0.165516 0.164577
0.154578 0.154408 0.154094
0.152374 0.152309 0.152249
0.160193 0.155277 0.155420
0.153379 0.158779 0.161206
0.157924 0.157365 0.157544
0.148745 0.148721 0.149286
0.179298 0.177363 0.172060
0.162701 0.163039 0.162650
0.146260 0.146164 0.146135
0.142226 0.141602 0.141645
0.170442 0.170444 0.172666
0.178223 0.178445 0.178199
0.116643 0.123682 0.128414
0.159190 0.158906 0.158902
0.149443 0.150472 0.158179
0.171510 0.171658 0.171553
0.141646 0.141653 0.141549
0.143037 0.143135 0.143296
0.170296 0.170489 0.166198
0.113246 0.105880 0.103896
0.155192 0.153890 0.154119
0.161321 0.162019 0.162519
0.166338 0.166732 0.166483
0.158698 0.160774 0.161920
0.171648 0.168940 0.161816
0.152983 0.153098 0.153622
0.119817 0.127686 0.130153
0.157404 0.159218 0.161738
0.156439 0.153789 0.150979
0.153710 0.151535 0.151586
0.162597 0.162407 0.162164
0.146228 0.145637 0.144651
0.173285 0.172926 0.172863
0.148823 0.149367 0.151037
0.151543 0.151954 0.157855
0.158770 0.159252 0.159474
0.171976 0.171648 0.168940
0.143416 0.143376 0.142493
0.155106 0.155023 0.155132
0.156821 0.163861 0.167851
0.165364 0.165762 0.165691
0.152801 0.153593 0.153844
0.149077 0.142030 0.138573
0.158523 0.158726 0.158760
0.137304 0.137815 0.138173
0.148507 0.156153 0.158592
