0.152272 0.151990 0.153594
0.181842 0.181909 0.182952
0.146233 0.144425 0.144738
0.136557 0.138419 0.139985
0.163000 0.163849 0.163727
0.115941 0.116556 0.117319
0.133349 0.134330 0.134137
0.231332 0.234140 0.238219
0.150897 0.150633 0.146162
0.213552 0.216290 0.217829
0.139799 0.141015 0.140182
0.150559 0.151087 0.150548
0.146972 0.145569 0.145279
0.182791 0.197731 0.198648
0.125291 0.125533 0.125915
0.152179 0.153100 0.153302
0.178855 0.180201 0.180783
0.324258 0.322156 0.318555
0.186350 0.185287 0.186941
0.153804 0.154441 0.155435
0.152063 0.155150 0.154331
0.174460 0.171150 0.171255
0.218308 0.219541 0.223607
0.178171 0.177911 0.177045
0.150172 0.151887 0.151337
0.154730 0.155222 0.155265
0.147706 0.148345 0.148809
0.138341 0.138158 0.142357
0.139722 0.140115 0.140327
0.238536 0.237491 0.238782
0.144073 0.144233 0.142887
0.182173 0.181514 0.181314
0.171845 0.172165 0.172313
0.155004 0.152258 0.152120
0.168797 0.168896 0.168790
0.150457 0.150815 0.151603
0.147712 0.148123 0.147265
0.140734 0.140496 0.139835
0.221403 0.221398 0.223783
0.146914 0.146488 0.148069
0.148953 0.147747 0.145750
0.138724 0.138607 0.139786
0.155105 0.154718 0.154270
0.148375 0.149163 0.149948
0.371712 0.375459 0.375244
0.178543 0.178456 0.178983
0.139972 0.143149 0.142888
0.189362 0.188470 0.189614
0.145356 0.145382 0.147081
0.163998 0.165861 0.163503
0.140913 0.143073 0.143002
0.160347 0.160288 0.160554
0.130643 0.130540 0.131108
0.158795 0.159256 0.158998
0.246835 0.247472 0.246887
0.146840 0.145645 0.148371
0.149509 0.149394 0.147037
0.147442 0.147556 0.148542
0.351240 0.350620 0.349011
0.179860 0.179381 0.178765
0.147249 0.147960 0.147260
0.240463 0.240217 0.240731
0.144828 0.144529 0.144610
0.183651 0.183245 0.184638
0.195417 0.196253 0.196226
0.208249 0.208031 0.207109
0.144511 0.145067 0.146203
0.129324 0.129476 0.128966
0.144555 0.146125 0.146413
0.148262 0.148068 0.147092
0.134518 0.134285 0.133279
0.159233 0.159373 0.160339
0.153582 0.153117 0.153168
0.196042 0.197992 0.198006
0.168753 0.174544 0.177455
0.223684 0.223807 0.224872
0.231286 0.232262 0.232332
0.159302 0.159005 0.158511
0.148967 0.149066 0.149522
0.143832 0.143379 0.143385
0.157817 0.158508 0.156953
0.131339 0.133352 0.134172
0.207519 0.206536 0.201607
0.140268 0.141453 0.141818
0.154327 0.153740 0.152541
0.260844 0.260878 0.261784
0.160767 0.162404 0.161380
0.151693 0.151619 0.151976
0.176550 0.174378 0.174167
0.137884 0.137950 0.138284
0.193144 0.193932 0.194353
0.219233 0.217988 0.216171
0.229150 0.229220 0.229175
0.180635 0.180658 0.180794
0.136742 0.136914 0.138079
0.157549 0.156438 0.155934
0.158063 0.159851 0.160815
0.157147 0.157569 0.158881
0.222533 0.222608 0.223489
0.177049 0.177119 0.177479
0.158985 0.159268 0.159725
0.143373 0.142833 0.144005
0.188226 0.186330 0.183099
0.214841 0.217019 0.216747
0.133625 0.135131 0.134875
0.164258 0.162898 0.162462
0.121469 0.123642 0.124037
0.153444 0.153564 0.153845
0.173211 0.175403 0.175464
0.147500 0.148266 0.149269
0.158731 0.157407 0.157143
0.173229 0.172945 0.170045
0.115681 0.116039 0.116306
0.268967 0.268707 0.268884
0.140142 0.140332 0.138552
0.221818 0.221462 0.220254
0.120292 0.120360 0.120358
0.145651 0.145375 0.142857
0.139359 0.140078 0.140786
0.171480 0.170510 0.170632
0.217614 0.218826 0.221275
0.156269 0.157393 0.157413
0.180678 0.181253 0.180797
0.197681 0.198892 0.198796
0.157006 0.157721 0.157896
0.139126 0.138978 0.141529
0.139791 0.141112 0.140786
0.158255 0.159663 0.159520
0.189633 0.190235 0.190253
0.145209 0.145510 0.146074
0.135358 0.136788 0.137747
0.137500 0.136063 0.137050
0.180797 0.179958 0.179544
0.153584 0.153373 0.153734
0.127841 0.127504 0.127516
0.133414 0.132842 0.132059
0.146343 0.146265 0.146804
0.163326 0.163974 0.164373
0.262222 0.262830 0.266256
0.142192 0.141561 0.142657
0.168815 0.169819 0.176843
0.170955 0.172852 0.173686
0.229670 0.229502 0.230614
0.123276 0.121298 0.120744
0.222619 0.221664 0.221827
0.163338 0.162718 0.163849
0.158963 0.158421 0.156664
0.192199 0.192252 0.192203
0.145938 0.145850 0.146323
0.148341 0.149119 0.148668
0.165667 0.165258 0.165555
0.135696 0.136226 0.135035
0.179791 0.180334 0.180992
0.170074 0.172616 0.171986
0.193364 0.193226 0.193082
0.183933 0.184473 0.184919
0.427607 0.426635 0.426731
0.232620 0.233566 0.234215
0.113964 0.112752 0.114080
0.390979 0.390746 0.390940
0.150939 0.150833 0.150030
0.216562 0.217753 0.219141
0.246902 0.246484 0.247952
0.144940 0.144864 0.144991
0.226477 0.226857 0.226252
0.221945 0.217949 0.214340
0.197209 0.198983 0.198983
0.178947 0.178647 0.178705
0.145218 0.145497 0.145613
0.220669 0.220643 0.220853
0.167098 0.167948 0.167376
0.129248 0.129333 0.129208
0.156401 0.158277 0.158610
0.149004 0.149117 0.149854
0.144040 0.143479 0.143402
0.201164 0.201966 0.203981
0.204484 0.206504 0.208808
0.220979 0.220877 0.221121
0.153313 0.153079 0.152885
0.153900 0.154532 0.155938
0.263170 0.263758 0.263593
0.231129 0.229572 0.229980
0.225424 0.224573 0.222077
0.265273 0.263934 0.264317
0.171199 0.171964 0.171514
0.124165 0.124387 0.124357
0.227261 0.226505 0.226023
0.158882 0.159922 0.160333
0.166174 0.165545 0.165534
0.176667 0.177378 0.177638
0.180538 0.180719 0.176237
0.162544 0.161090 0.159333
0.139159 0.136952 0.137338
0.139101 0.139098 0.138802
0.141296 0.142874 0.140599
0.155536 0.156012 0.154959
0.172457 0.173588 0.174128
0.168499 0.168496 0.166788
0.140513 0.139338 0.141217
0.167318 0.168126 0.168519
0.242409 0.242461 0.242259
0.150769 0.151335 0.153528
0.136403 0.137061 0.137160
0.167685 0.169008 0.171075
0.132150 0.132208 0.132828
0.173096 0.173040 0.173270
0.162462 0.161209 0.161085
0.147607 0.148237 0.148431
0.127333 0.127772 0.128156
0.172853 0.172674 0.172673
0.139259 0.139297 0.141460
0.168786 0.169113 0.172419
0.199672 0.196814 0.192186
0.443001 0.444422 0.450621
0.225063 0.225156 0.225204
0.123680 0.123793 0.123752
0.169417 0.169717 0.169348
0.179722 0.179271 0.179375
0.281425 0.280604 0.277503
0.123919 0.123741 0.124242
0.149876 0.151931 0.151438
0.155999 0.155331 0.152235
0.156320 0.156108 0.155945
0.216472 0.215458 0.216258
0.198980 0.198494 0.198611
0.134244 0.134796 0.135774
0.132888 0.131796 0.130616
0.129390 0.129458 0.129861
0.176802 0.177691 0.179525
0.215677 0.215888 0.223379
0.175153 0.175155 0.173504
0.142721 0.142040 0.141652
0.148934 0.148358 0.145714
0.166950 0.165988 0.166092
0.220711 0.225245 0.224815
0.152072 0.151334 0.150939
0.197758 0.198201 0.198744
0.116452 0.116930 0.115681
0.139497 0.139083 0.139156
0.158356 0.157850 0.157264
0.180364 0.177153 0.177600
0.141181 0.141116 0.143189
0.155245 0.157779 0.158805
0.153748 0.155433 0.155151
0.159254 0.157768 0.155672
0.195729 0.195873 0.192438
0.126191 0.126333 0.127453
0.178469 0.177503 0.179276
0.189311 0.188598 0.188737
0.119513 0.120548 0.121079
0.148950 0.149009 0.148865
0.152340 0.152532 0.153228
0.112947 0.113893 0.114331
0.160221 0.161574 0.162728
0.178077 0.178428 0.178075
0.154745 0.156457 0.157291
0.148656 0.148638 0.149111
0.159676 0.159998 0.159906
0.173025 0.173228 0.173906
0.110735 0.111415 0.111144
0.153488 0.153206 0.153079
0.141143 0.141094 0.140456
0.142938 0.142123 0.141882
0.161980 0.160829 0.163285
0.177076 0.177452 0.174854
0.176054 0.174854 0.176061
0.264542 0.264778 0.265525
0.140858 0.141269 0.140538
0.187891 0.190907 0.191841
0.143979 0.142738 0.145005
0.139073 0.140375 0.140527
0.162876 0.162467 0.160710
0.152490 0.151879 0.151898
0.157668 0.158516 0.159515
0.145379 0.145218 0.144041
0.161073 0.161284 0.162345
0.126753 0.127805 0.127939
0.141987 0.141920 0.140455
0.151790 0.151912 0.152578
0.157887 0.157095 0.156981
0.153870 0.153596 0.152881
0.126335 0.126187 0.125660
0.145887 0.146081 0.145029
0.163006 0.161991 0.152170
0.179381 0.178765 0.178614
0.160310 0.155333 0.152225
0.224308 0.224431 0.225096
0.136131 0.136266 0.136334
0.189060 0.188993 0.187389
0.192267 0.192468 0.193632
0.140051 0.139497 0.141497
0.171268 0.170050 0.170462
0.221657 0.221279 0.220819
0.149525 0.150154 0.150180
0.119246 0.119421 0.119058
0.145706 0.145494 0.146068
0.158743 0.155710 0.155980
0.140325 0.140485 0.140533
0.146660 0.147447 0.147272
0.143032 0.143388 0.143928
0.189453 0.188173 0.188824
0.217069 0.216496 0.217043
0.188639 0.189035 0.189341
0.135790 0.135482 0.135743
0.189032 0.191052 0.189378
0.147143 0.147840 0.148933
0.166392 0.166526 0.165489
0.232693 0.231923 0.230851
0.143625 0.143521 0.141352
0.180759 0.178947 0.179984
0.134388 0.135156 0.139141
0.157719 0.158241 0.158915
0.158320 0.159577 0.160098
0.129780 0.130077 0.130512
0.131668 0.131673 0.131988
0.222243 0.221634 0.221874
0.232005 0.233305 0.233931
0.195321 0.196058 0.194733
0.151013 0.149102 0.149088
0.144328 0.144394 0.144086
0.184359 0.186764 0.186080
0.177617 0.180640 0.181237
0.126748 0.125897 0.123659
0.189604 0.188640 0.189111
0.146091 0.143901 0.144213
0.139606 0.140583 0.141000
0.146733 0.147020 0.147023
0.126349 0.126401 0.125744
0.155605 0.155049 0.155735
0.242853 0.243646 0.243738
0.139137 0.141762 0.138392
0.177207 0.178082 0.178969
0.135276 0.135266 0.135458
0.158448 0.157282 0.157987
0.204643 0.208203 0.210597
0.178549 0.177733 0.176642
0.177135 0.178051 0.178194
0.183369 0.183757 0.183928
0.209071 0.208460 0.207839
0.150926 0.148755 0.148298
0.229597 0.228686 0.229791
0.218133 0.217309 0.216519
0.179936 0.180349 0.185735
0.173499 0.173703 0.173297
0.160126 0.160157 0.161378
0.147724 0.147735 0.145551
0.171067 0.170432 0.170276
0.151152 0.150675 0.150178
0.200494 0.201823 0.199169
0.184760 0.184994 0.184888
0.144474 0.142142 0.141628
0.246259 0.247843 0.250568
0.178272 0.178383 0.178204
0.186469 0.188708 0.190035
0.151521 0.149834 0.149938
0.135127 0.135177 0.135895
0.185408 0.187657 0.187506
0.170675 0.171094 0.172771
0.188000 0.188342 0.188275
0.171073 0.171689 0.168827
0.192041 0.190673 0.188619
0.196791 0.197709 0.197681
0.238327 0.240237 0.241254
0.209018 0.210577 0.212717
0.154238 0.152738 0.152945
0.189076 0.188519 0.186339
0.160547 0.159208 0.157886
0.146008 0.144634 0.145196
0.173030 0.173709 0.174175
0.170449 0.170426 0.170103
0.131511 0.129860 0.129158
0.156478 0.155640 0.156824
0.181392 0.180950 0.184672
0.143038 0.143201 0.142293
0.460168 0.456414 0.452808
0.142814 0.130454 0.130933
0.157111 0.157192 0.157038
0.153880 0.153514 0.155100
0.141940 0.139546 0.138539
0.140138 0.139946 0.139479
0.206606 0.207691 0.207183
0.177860 0.170436 0.170520
0.121572 0.120658 0.119215
0.142771 0.144234 0.143960
0.148847 0.148758 0.150012
0.150190 0.149966 0.150647
0.132161 0.131636 0.130859
0.158315 0.159702 0.159486
0.140182 0.141899 0.142326
0.150409 0.150760 0.150063
0.186948 0.185700 0.186000
0.122225 0.122857 0.125131
0.149012 0.148995 0.148748
0.441019 0.432185 0.424644
0.133863 0.133535 0.134453
0.152031 0.151669 0.150029
0.154755 0.157262 0.155941
0.150167 0.151131 0.152632
0.136150 0.137382 0.136527
0.201776 0.200849 0.198081
0.175079 0.176992 0.176743
0.222133 0.222975 0.223218
0.143507 0.143823 0.145158
0.127934 0.125858 0.125854
0.153995 0.154231 0.153650
0.159239 0.158609 0.158456
0.172777 0.173262 0.173029
0.139012 0.138511 0.139051
0.149735 0.149989 0.150456
0.148450 0.148959 0.147703
0.135237 0.134839 0.136045
0.131018 0.131012 0.131703
0.173915 0.173768 0.173603
0.167324 0.163710 0.160667
0.138121 0.136386 0.137499
0.156268 0.154276 0.154372
0.147387 0.145689 0.145149
0.135714 0.136560 0.136761
0.222967 0.223171 0.223118
0.147804 0.153191 0.153227
0.141384 0.142683 0.143275
0.161556 0.162856 0.162060
0.157927 0.161000 0.162512
0.178266 0.174243 0.170876
0.143575 0.145053 0.144791
0.188441 0.187893 0.187766
0.122914 0.123143 0.119988
0.429867 0.429679 0.431776
0.123601 0.124179 0.123825
0.178880 0.178739 0.177079
0.144720 0.144834 0.143848
0.138755 0.139456 0.139828
0.151730 0.152730 0.152650
0.156912 0.157872 0.158466
0.184046 0.185398 0.184233
0.150754 0.150478 0.151258
0.214701 0.212698 0.211589
0.139074 0.140836 0.141042
0.155384 0.155360 0.155121
0.151602 0.150718 0.152063
0.181068 0.181756 0.182596
0.194088 0.194281 0.194263
0.133364 0.133675 0.133250
0.154114 0.153972 0.154746
0.141265 0.141307 0.146877
0.183273 0.182857 0.182184
0.143425 0.143665 0.141366
0.126428 0.128034 0.128533
0.163066 0.159302 0.154090
0.208019 0.208583 0.208682
0.216167 0.217035 0.215601
0.111403 0.112548 0.113412
0.143287 0.143808 0.141891
0.220560 0.218189 0.218702
0.125566 0.125489 0.125309
0.161283 0.161336 0.158328
0.154518 0.155427 0.154098
0.178010 0.176751 0.174886
0.111812 0.111333 0.111509
0.171233 0.170575 0.171274
0.153963 0.154848 0.154376
0.158432 0.158459 0.158668
0.134790 0.135052 0.135883
0.171792 0.170934 0.171928
0.218365 0.217351 0.216790
0.219750 0.220817 0.219549
0.168368 0.168269 0.168758
0.186434 0.186781 0.186517
0.150340 0.150830 0.154515
0.124415 0.124876 0.125871
0.178922 0.178605 0.172864
0.203854 0.200737 0.202322
0.134235 0.131770 0.130049
0.246331 0.244578 0.243987
0.167857 0.169417 0.170217
0.133768 0.134207 0.136098
0.171290 0.171381 0.171026
0.165001 0.167246 0.165954
0.181761 0.182126 0.182457
0.131032 0.135098 0.134874
0.168062 0.167226 0.167535
0.117535 0.117399 0.116913
0.147677 0.148010 0.149099
0.230679 0.234112 0.234624
0.152785 0.153748 0.155419
0.155574 0.155098 0.155377
0.119392 0.119201 0.119410
0.142556 0.143101 0.142900
0.139405 0.138122 0.138352
0.171174 0.172468 0.172867
0.149334 0.148956 0.149455
0.146848 0.146384 0.146218
0.122343 0.122603 0.123284
0.183832 0.183638 0.183874
0.172638 0.170048 0.169297
0.204137 0.202765 0.203136
0.179886 0.179077 0.178724
0.185798 0.186099 0.185763
0.148690 0.148698 0.148685
0.126131 0.127249 0.126461
0.153904 0.154108 0.154103
0.350963 0.350619 0.348994
0.142110 0.142745 0.141760
0.186632 0.186798 0.187180
0.241329 0.244175 0.244083
0.201554 0.202117 0.201030
0.187838 0.189102 0.187635
0.140143 0.140953 0.141538
0.223850 0.225532 0.226725
0.194290 0.193825 0.193315
0.145099 0.145793 0.147611
0.138432 0.137759 0.136785
0.150033 0.149630 0.149918
0.203239 0.200521 0.200589
0.144346 0.143661 0.143031
0.202691 0.202480 0.202804
0.159765 0.158625 0.157591
0.124073 0.123506 0.123889
0.182683 0.182729 0.182790
0.140890 0.138648 0.140192
0.166391 0.165973 0.167030
0.190389 0.189804 0.187838
0.153669 0.156115 0.155880
0.186069 0.187055 0.187678
0.147765 0.148240 0.147996
0.138160 0.138538 0.139029
0.193308 0.192446 0.207697
0.130806 0.131898 0.131963
0.180691 0.179232 0.179433
0.134800 0.136045 0.133965
0.197321 0.204866 0.202988
0.159458 0.160968 0.162496
0.176077 0.176526 0.176127
0.125761 0.125946 0.125409
0.151601 0.150718 0.147844
0.129443 0.129344 0.128841
0.176061 0.175135 0.176792
0.150619 0.150602 0.150922
0.179982 0.179989 0.180071
0.145652 0.146950 0.150529
0.127611 0.126728 0.126554
0.156725 0.157490 0.158129
0.166308 0.166494 0.163821
0.137056 0.136895 0.135382
0.410397 0.410724 0.410418
0.122817 0.122421 0.121566
0.184865 0.185155 0.185696
0.161011 0.161661 0.159748
0.162799 0.162710 0.162312
0.146215 0.145405 0.146318
0.179742 0.180121 0.184570
0.147207 0.145694 0.145584
0.262843 0.263882 0.266211
0.170922 0.168832 0.169279
0.140280 0.140066 0.139388
0.142285 0.141414 0.140725
0.188894 0.188478 0.187456
0.144837 0.144386 0.143355
0.188305 0.189008 0.191921
0.156857 0.158241 0.159162
0.144866 0.145203 0.145152
0.181031 0.181032 0.180874
0.150521 0.149279 0.150053
0.165583 0.165551 0.162747
0.157273 0.156094 0.155051
0.158885 0.159180 0.158732
0.197882 0.197773 0.197946
0.167474 0.167066 0.167361
0.144773 0.143838 0.143489
0.145337 0.142881 0.142791
0.174950 0.175381 0.176677
0.161816 0.161179 0.161860
0.174070 0.174526 0.175472
0.133125 0.133292 0.133650
0.211887 0.212415 0.213513
0.152948 0.152581 0.149152
0.128557 0.128648 0.127767
0.146286 0.148311 0.148150
0.126012 0.136565 0.136308
0.178270 0.177100 0.177105
0.116952 0.117578 0.117021
0.201393 0.201054 0.204919
0.179653 0.179349 0.179511
0.154426 0.154717 0.157317
0.266712 0.262066 0.260863
0.190898 0.191211 0.192327
0.129400 0.129337 0.129650
0.243724 0.243179 0.243036
0.239795 0.238691 0.238830
0.168368 0.168584 0.167896
0.175799 0.176002 0.175049
0.192181 0.192358 0.190512
0.150125 0.150276 0.150460
0.159197 0.159291 0.159111
0.191709 0.189576 0.188720
0.142415 0.141985 0.142017
0.280469 0.280496 0.281455
0.162898 0.162462 0.161352
0.148555 0.149932 0.149773
0.183245 0.184638 0.188646
0.375680 0.378252 0.379002
0.148596 0.148690 0.148698
0.425402 0.420220 0.416775
0.159844 0.159568 0.160154
0.148412 0.147550 0.147680
0.145506 0.145694 0.146027
0.147735 0.147068 0.144466
0.156352 0.156444 0.156113
0.305712 0.298593 0.283982
0.152002 0.152207 0.151671
0.237322 0.238179 0.239360
0.188724 0.187537 0.189090
0.214802 0.212654 0.212795
0.156451 0.155643 0.154681
0.152100 0.152537 0.153115
0.139851 0.140611 0.141770
0.188658 0.188638 0.187642
0.154003 0.152829 0.152826
0.184574 0.183993 0.183880
0.176237 0.174666 0.173183
0.152661 0.152827 0.152472
0.149620 0.149528 0.149748
0.178104 0.177745 0.179092
0.111157 0.111695 0.111730
0.136351 0.135448 0.135311
0.148035 0.148545 0.149572
0.179542 0.173050 0.169757
0.149763 0.148475 0.147417
0.187100 0.187728 0.187175
0.149098 0.149052 0.142814
0.141924 0.141661 0.141525
0.190033 0.190022 0.189589
0.139132 0.138427 0.140310
0.126773 0.126349 0.126401
0.416028 0.430354 0.438766
0.179146 0.180145 0.181225
0.185446 0.184433 0.180751
0.170950 0.171776 0.171780
0.143673 0.143613 0.143919
0.146468 0.146076 0.147181
0.146364 0.147538 0.146273
0.149413 0.151203 0.151873
0.150360 0.150887 0.150301
0.169221 0.168441 0.168741
0.146823 0.146498 0.148276
0.177908 0.178039 0.177138
0.143762 0.142991 0.143269
0.191343 0.189897 0.189768
0.165471 0.164223 0.161894
0.172289 0.172111 0.170709
0.152126 0.151483 0.148540
0.226527 0.228327 0.226452
0.110403 0.111053 0.111498
0.173159 0.172972 0.172638
0.159111 0.159232 0.159606
0.145595 0.145580 0.148222
0.157737 0.157027 0.157525
0.188622 0.186071 0.190045
0.156085 0.155956 0.157021
0.141225 0.142507 0.142043
0.144208 0.144050 0.142941
0.123646 0.124077 0.125285
0.140877 0.142891 0.143930
0.139945 0.140368 0.140899
0.160669 0.160423 0.161427
0.238482 0.236369 0.237500
0.147384 0.146867 0.146317
0.183762 0.184774 0.185292
0.171342 0.170623 0.170170
0.139837 0.140303 0.140954
0.141103 0.141251 0.142878
0.196472 0.195614 0.196809
0.129075 0.127593 0.127849
0.158858 0.160133 0.161784
0.240457 0.244277 0.244955
0.146122 0.145854 0.146310
0.164582 0.159440 0.157957
0.195366 0.195374 0.195320
0.152809 0.155309 0.158988
0.204951 0.204174 0.204917
0.149505 0.150177 0.150280
0.183927 0.182743 0.182877
0.144774 0.144453 0.143531
0.168890 0.167676 0.167182
0.136414 0.135746 0.134835
0.158297 0.157881 0.156715
0.219201 0.219113 0.219494
0.142215 0.142914 0.143312
0.116039 0.116306 0.118283
0.155391 0.155471 0.155272
0.140907 0.143212 0.143222
0.151683 0.152674 0.152081
0.138503 0.139655 0.138664
0.167533 0.165034 0.162948
0.146505 0.146480 0.146194
0.169844 0.169920 0.170470
0.149162 0.149173 0.149267
0.188800 0.187817 0.189287
0.144059 0.144391 0.144532
0.232014 0.232842 0.233205
0.145592 0.146895 0.147822
0.233250 0.232542 0.232965
0.143723 0.143758 0.143567
0.179406 0.179400 0.179135
0.140152 0.141063 0.140951
0.146839 0.147060 0.147489
0.208225 0.208564 0.206313
0.205714 0.204011 0.200916
0.147891 0.148288 0.147900
0.160474 0.161390 0.157974
0.128913 0.129067 0.128814
0.410336 0.411692 0.408666
0.147597 0.146227 0.145930
0.159147 0.160889 0.160221
0.125414 0.123904 0.123149
0.147879 0.147384 0.146867
0.149716 0.148360 0.148094
0.203577 0.203683 0.203418
0.131254 0.131185 0.131242
0.147551 0.147794 0.147050
0.207528 0.208633 0.209939
0.193141 0.192727 0.209129
0.139301 0.141429 0.141498
0.164569 0.161690 0.161723
0.185959 0.184823 0.184489
0.171162 0.172963 0.169429
0.178533 0.176619 0.178256
0.223323 0.223083 0.223236
0.180504 0.179691 0.178045
0.143772 0.144188 0.144067
0.160650 0.160673 0.158234
0.155248 0.158567 0.160349
0.197149 0.198553 0.198536
0.195675 0.192878 0.192128
0.241301 0.241430 0.242018
0.168576 0.167328 0.165845
0.126824 0.127018 0.129553
0.145363 0.146034 0.146598
0.243036 0.242621 0.242175
0.142036 0.141628 0.141866
0.191317 0.191596 0.191946
0.140645 0.142038 0.140001
0.123599 0.123859 0.124081
0.185140 0.183533 0.182444
0.137327 0.137438 0.138092
0.143259 0.143748 0.143114
0.216797 0.216597 0.217453
0.180086 0.181081 0.181826
0.175321 0.176799 0.174950
0.151946 0.153005 0.149406
0.147563 0.147192 0.147553
0.234351 0.235069 0.234621
0.157180 0.155105 0.154879
0.154052 0.154711 0.154773
0.159305 0.158441 0.159138
0.150230 0.150205 0.148642
0.144442 0.144473 0.145038
0.234663 0.245356 0.246110
0.220579 0.220783 0.221021
0.137214 0.137973 0.139326
0.158932 0.158593 0.158440
0.214786 0.214872 0.214665
0.138018 0.137924 0.138237
0.150853 0.147208 0.145730
0.186564 0.186767 0.188480
0.176673 0.175776 0.174532
0.151481 0.149158 0.149039
0.161599 0.161309 0.160177
0.214949 0.215746 0.216689
0.147343 0.147734 0.148257
0.200377 0.200679 0.201888
0.140558 0.140678 0.140889
0.146557 0.146454 0.146195
0.140641 0.139434 0.140055
0.136992 0.137409 0.137329
0.140044 0.139999 0.140214
0.156213 0.154532 0.155659
0.171902 0.171035 0.171340
0.158859 0.160655 0.169979
0.175550 0.176175 0.178260
0.152263 0.150963 0.150880
0.150235 0.150533 0.149930
0.172764 0.177026 0.177845
0.167436 0.167392 0.168514
0.202012 0.201942 0.202753
0.156814 0.156770 0.156222
0.375062 0.375091 0.375102
0.157610 0.157665 0.156299
0.155496 0.157670 0.158245
0.429603 0.425391 0.425208
0.181655 0.181797 0.182382
0.122881 0.122728 0.123249
0.214872 0.214665 0.212996
0.191807 0.190278 0.190415
0.181829 0.182473 0.182409
0.139434 0.139409 0.139209
0.138618 0.139013 0.138663
0.174305 0.174296 0.174152
0.146880 0.143649 0.143837
0.263044 0.262304 0.265783
0.129567 0.129489 0.129499
0.142807 0.142661 0.142176
0.144551 0.145118 0.143649
0.232363 0.232533 0.229910
0.220627 0.229860 0.237954
0.140456 0.141732 0.140229
0.145388 0.145600 0.145086
0.191881 0.193308 0.192446
0.137389 0.136019 0.136890
0.145588 0.145505 0.144940
0.131594 0.130870 0.130016
0.145289 0.145680 0.147855
0.135883 0.136817 0.136418
0.181307 0.180989 0.181356
0.225710 0.232857 0.245680
0.139897 0.139382 0.138704
0.195038 0.196273 0.196317
0.131396 0.131179 0.131441
0.156250 0.158263 0.155908
0.141585 0.141073 0.140769
0.218733 0.218902 0.220236
0.180361 0.181721 0.181054
0.143019 0.142505 0.142177
0.207821 0.207135 0.207291
0.229786 0.228242 0.226594
0.182043 0.183907 0.185002
0.175499 0.173360 0.175684
0.152173 0.152987 0.152031
0.166253 0.165958 0.165688
0.130394 0.129545 0.126815
0.149514 0.151811 0.152290
0.137585 0.136719 0.136663
0.182403 0.181857 0.179152
0.197721 0.196112 0.196160
0.222446 0.222888 0.221261
0.132071 0.133082 0.130885
0.150954 0.150927 0.150016
0.171630 0.165691 0.164825
0.130451 0.129944 0.131018
0.147801 0.148902 0.149102
0.377073 0.390298 0.400584
0.154678 0.154467 0.155762
0.123650 0.124019 0.123759
0.181007 0.181246 0.181251
0.167850 0.167848 0.168646
0.142417 0.141711 0.141100
0.142567 0.142517 0.144808
0.143062 0.142867 0.143643
0.212552 0.212836 0.213838
0.237259 0.235150 0.231980
0.151905 0.152174 0.151451
0.121805 0.122112 0.123214
0.141561 0.142665 0.143718
0.221610 0.221749 0.219977
0.153740 0.152541 0.148894
0.141981 0.142114 0.142005
0.146876 0.146992 0.146880
0.156669 0.157328 0.157337
0.143064 0.141163 0.140168
0.225356 0.224988 0.223153
0.184301 0.183177 0.185185
0.130823 0.130696 0.131150
0.129650 0.130200 0.130061
0.174185 0.174572 0.178185
0.243728 0.244842 0.242836
0.184612 0.184828 0.184092
0.137639 0.137745 0.140598
0.170823 0.171160 0.172977
0.168208 0.169872 0.170654
0.158691 0.158432 0.158459
0.140334 0.141972 0.143666
0.169156 0.168633 0.168778
0.143486 0.144122 0.144196
0.141636 0.141778 0.142483
0.119744 0.119946 0.118961
0.160729 0.162122 0.161557
0.149628 0.148367 0.148193
0.212552 0.213552 0.216290
0.133665 0.133914 0.133937
0.113043 0.115471 0.116042
0.150283 0.151404 0.152780
0.181850 0.183079 0.182920
0.157518 0.158194 0.158515
0.152619 0.152649 0.153130
0.133852 0.134496 0.134613
0.148157 0.149144 0.148904
0.206162 0.205852 0.205731
0.424237 0.424291 0.424562
0.231378 0.231686 0.234695
0.165359 0.165680 0.165134
0.140192 0.140040 0.140036
0.182430 0.180655 0.181285
0.205708 0.201932 0.203110
0.213735 0.212249 0.209363
0.165025 0.165264 0.166393
0.143157 0.144628 0.148820
0.173852 0.174378 0.173958
0.188448 0.188152 0.187854
0.134475 0.134892 0.137374
0.205072 0.207161 0.209094
0.149049 0.150985 0.146218
0.200603 0.202698 0.202864
0.173610 0.173049 0.173360
0.147005 0.148175 0.150997
0.154574 0.152245 0.153029
0.141762 0.138392 0.138302
0.138204 0.137464 0.137295
0.424548 0.424451 0.423793
0.234683 0.234709 0.233543
0.142122 0.142880 0.143066
0.343751 0.346300 0.347556
0.189684 0.188724 0.187537
0.158366 0.160914 0.162540
0.155297 0.156233 0.156284
0.139208 0.141647 0.142148
0.242627 0.242235 0.241182
0.203542 0.202270 0.199518
0.189493 0.189350 0.189580
0.128461 0.128493 0.126680
0.129253 0.129324 0.129476
0.174337 0.175539 0.176007
0.211054 0.211059 0.211738
0.146043 0.146385 0.147219
0.219249 0.220051 0.220208
0.140296 0.140291 0.140384
0.211456 0.214415 0.215773
0.158178 0.159191 0.158237
0.346173 0.346072 0.346584
0.243445 0.243478 0.244292
0.147460 0.147291 0.147284
0.186080 0.184329 0.182141
0.172668 0.169067 0.167553
0.142367 0.140566 0.140792
0.148873 0.150011 0.149478
0.199304 0.196569 0.195901
0.137880 0.138625 0.138085
0.142021 0.141080 0.141675
0.161579 0.161434 0.160011
0.438128 0.438657 0.439335
0.219632 0.219560 0.220573
0.173583 0.172800 0.173268
0.181067 0.181563 0.180570
0.177561 0.178838 0.180024
0.173587 0.172600 0.172553
0.176261 0.176769 0.176290
0.178814 0.179181 0.179141
0.213759 0.213414 0.215196
0.182138 0.182426 0.181584
0.132210 0.132456 0.133076
0.172527 0.171388 0.172000
0.132619 0.130839 0.130956
0.197802 0.197884 0.198205
0.118499 0.119122 0.118800
0.250423 0.250473 0.247939
0.184315 0.184433 0.183583
0.171219 0.171126 0.171580
0.151182 0.151245 0.153985
0.221445 0.224850 0.224432
0.146431 0.146393 0.146080
0.438771 0.439737 0.440349
0.170593 0.169608 0.168935
0.164536 0.164701 0.165347
0.150962 0.150760 0.150464
0.174424 0.176761 0.175861
0.130885 0.130927 0.130541
0.145008 0.143404 0.144167
0.121531 0.121949 0.122366
0.174013 0.174888 0.177065
0.159330 0.159249 0.159810
0.178253 0.178350 0.179678
0.183927 0.183983 0.184455
0.230648 0.231129 0.229572
0.164062 0.163923 0.166947
0.197014 0.196081 0.195412
0.148685 0.146856 0.145239
0.131951 0.132048 0.131191
0.231993 0.232634 0.232733
0.121572 0.121981 0.121774
0.201556 0.201404 0.203228
0.155885 0.159364 0.159335
0.163116 0.162873 0.161523
0.139206 0.139999 0.140007
0.143728 0.144040 0.143479
0.152428 0.151368 0.151582
0.169249 0.177228 0.177174
0.145706 0.146127 0.147621
0.124261 0.120178 0.120610
0.149101 0.149079 0.148709
0.160349 0.162524 0.162835
0.172070 0.171892 0.171885
0.141815 0.141689 0.141010
0.190914 0.190157 0.189993
0.148661 0.147981 0.148461
0.226666 0.219625 0.221818
0.183361 0.182832 0.181773
0.121867 0.121682 0.123207
0.143770 0.143663 0.142096
0.152653 0.151395 0.150680
0.198832 0.198868 0.199466
0.143528 0.141810 0.141057
