0.323499 0.323994 0.324719
0.275517 0.274862 0.274532
0.278949 0.274671 0.266970
0.372753 0.369238 0.370743
0.372490 0.372425 0.369984
0.324253 0.325428 0.324322
0.334348 0.333016 0.327671
0.361510 0.359493 0.359169
0.411560 0.404707 0.404877
0.275054 0.275547 0.275379
0.574759 0.565306 0.564186
0.274361 0.275207 0.276787
0.369332 0.368615 0.368335
0.376616 0.375873 0.374387
0.360678 0.361530 0.361147
0.345416 0.339245 0.334479
0.398677 0.396596 0.395716
0.364741 0.366230 0.366813
0.358375 0.357800 0.352380
0.391665 0.395002 0.396267
0.327056 0.323896 0.326390
0.375582 0.375082 0.373860
0.393584 0.391285 0.393493
0.370291 0.366668 0.365021
0.346492 0.354888 0.355257
0.377994 0.377104 0.375141
0.382960 0.379222 0.375502
0.351123 0.352780 0.352932
0.371549 0.369012 0.369074
0.345077 0.346093 0.348222
0.428675 0.439742 0.441506
0.392065 0.401103 0.402927
0.387075 0.387623 0.400004
0.365995 0.362851 0.365843
0.399810 0.399436 0.401526
0.361826 0.367510 0.368918
0.331432 0.334779 0.335044
0.449095 0.448286 0.447484
0.388352 0.387019 0.386894
0.323496 0.323849 0.325583
0.373086 0.371492 0.377181
0.440294 0.439547 0.438319
0.343080 0.351737 0.354777
0.385449 0.385577 0.384328
0.320206 0.319550 0.318672
0.330758 0.327413 0.320217
0.338236 0.337084 0.334204
0.354862 0.353900 0.353017
0.378035 0.377396 0.369013
0.347457 0.348188 0.349123
0.263285 0.263757 0.264703
0.403396 0.392885 0.391741
0.363320 0.363213 0.369957
0.355887 0.355807 0.355896
0.385489 0.387086 0.386965
0.401183 0.400364 0.395684
0.323963 0.323651 0.326860
0.396008 0.394653 0.392152
0.268257 0.264326 0.267137
0.381901 0.386877 0.387824
0.424710 0.414886 0.412335
0.338489 0.342413 0.344427
0.275351 0.276318 0.276502
0.404988 0.404613 0.394351
0.356713 0.356225 0.356472
0.419518 0.424756 0.437898
0.315512 0.316763 0.318087
0.358761 0.358054 0.357615
0.431759 0.430637 0.429359
0.384724 0.385837 0.386084
0.358199 0.358164 0.357163
0.437498 0.437089 0.437486
0.509155 0.508397 0.510176
0.499361 0.501482 0.513387
0.407712 0.407936 0.409066
0.326699 0.330539 0.333799
0.454759 0.455386 0.455888
0.313684 0.315837 0.317582
0.304827 0.296970 0.294817
0.350662 0.348783 0.352234
0.316541 0.315091 0.318118
0.324959 0.325031 0.329188
0.270176 0.270403 0.271021
0.452734 0.455649 0.455049
0.399059 0.394410 0.390486
0.400797 0.401224 0.403263
0.321627 0.320348 0.319833
0.322542 0.323101 0.326068
0.436957 0.439727 0.443700
0.398302 0.401940 0.401055
0.330883 0.332389 0.333074
0.302997 0.302980 0.304141
0.379577 0.382583 0.379919
0.292562 0.290751 0.289762
0.444326 0.443792 0.440526
0.321611 0.322259 0.322781
0.407773 0.408076 0.413514
0.385172 0.383895 0.374433
0.382933 0.385576 0.384833
0.342349 0.343476 0.343356
0.325726 0.324986 0.325867
0.297542 0.296211 0.296842
0.322644 0.326152 0.326792
0.369511 0.377008 0.378899
0.256643 0.252019 0.248806
0.435201 0.437548 0.438578
0.380895 0.379054 0.378853
0.382171 0.383982 0.385937
0.417775 0.419283 0.419334
0.306975 0.307549 0.307450
0.383300 0.382739 0.379438
0.286481 0.291778 0.290239
0.465540 0.461866 0.460479
0.296801 0.295650 0.296534
0.423774 0.424776 0.420925
0.407061 0.405075 0.404208
0.383005 0.384197 0.396004
0.329444 0.328907 0.329073
0.416498 0.416044 0.414353
0.421847 0.421254 0.417924
0.465160 0.452907 0.450341
0.440014 0.430915 0.429443
0.332691 0.328077 0.326242
0.353238 0.353175 0.355463
0.305148 0.305172 0.302384
0.414957 0.411369 0.410288
0.294349 0.296102 0.296992
0.370993 0.366257 0.366738
0.447273 0.444275 0.443283
0.377995 0.380560 0.381059
0.299817 0.304418 0.309873
0.398716 0.395164 0.393479
0.316718 0.315906 0.313953
0.372448 0.375109 0.374897
0.444765 0.443318 0.442073
0.372502 0.370936 0.379838
0.365785 0.370879 0.373060
0.453706 0.456871 0.460303
0.346954 0.350652 0.350986
0.341521 0.336942 0.331163
0.299765 0.297945 0.298954
0.356545 0.353811 0.354506
0.278893 0.279211 0.278885
0.276217 0.275192 0.271249
0.308083 0.297436 0.295864
0.434680 0.437256 0.430918
0.414402 0.412717 0.409577
0.432445 0.430800 0.431680
0.438999 0.432343 0.430356
0.334709 0.334726 0.336266
0.315273 0.315647 0.317882
0.393055 0.397603 0.402458
0.345467 0.345378 0.344091
0.301605 0.304191 0.304856
0.444902 0.444529 0.444311
0.481778 0.490339 0.491298
0.361490 0.363313 0.366242
0.349029 0.348988 0.354193
0.362183 0.362170 0.362656
0.454398 0.457560 0.460748
0.546979 0.545582 0.545333
0.456902 0.457262 0.459651
0.318973 0.317363 0.319525
0.451425 0.458715 0.460332
0.372497 0.370798 0.372323
0.330334 0.328610 0.326020
0.437578 0.437594 0.438585
0.361273 0.360986 0.359980
0.336108 0.340322 0.336611
0.336949 0.338569 0.341444
0.395282 0.393050 0.393153
0.304536 0.311321 0.312516
0.616910 0.614832 0.611651
0.311464 0.311362 0.314158
0.398389 0.399200 0.407432
0.376344 0.379203 0.379702
0.346496 0.339185 0.337980
0.377609 0.378378 0.382062
0.383596 0.380162 0.380757
0.430952 0.430931 0.432055
0.390842 0.389339 0.389451
0.654834 0.650868 0.647436
0.380528 0.378621 0.383624
0.480592 0.477500 0.478907
0.281603 0.278569 0.278027
0.479099 0.479308 0.478453
0.316873 0.315489 0.313631
0.329388 0.327238 0.319643
0.307918 0.306783 0.303697
0.457489 0.456466 0.459564
0.378290 0.377917 0.378514
0.287200 0.284018 0.283265
0.443869 0.443307 0.444311
0.382246 0.383728 0.383997
0.440472 0.441101 0.443585
0.384385 0.383868 0.381736
0.353411 0.352708 0.350973
0.621305 0.620231 0.618874
0.380708 0.380998 0.381026
0.628460 0.628590 0.622196
0.395819 0.397864 0.395641
0.380639 0.379982 0.378959
0.304631 0.306062 0.307691
0.414278 0.414280 0.414324
0.337055 0.340818 0.356805
0.364628 0.364059 0.359555
0.397231 0.398113 0.403541
0.384069 0.384248 0.382135
0.368780 0.367714 0.366773
0.381699 0.380771 0.379726
0.345939 0.346546 0.344595
0.390108 0.390650 0.386750
0.397713 0.401283 0.425751
0.488340 0.490159 0.491484
0.344198 0.343612 0.341948
0.626936 0.622905 0.620998
0.405148 0.404666 0.403295
0.348188 0.349123 0.350010
0.360497 0.360851 0.360915
0.302934 0.304634 0.302599
0.401828 0.403387 0.394459
0.479522 0.477809 0.478690
0.316545 0.317148 0.324670
0.385201 0.386640 0.385776
0.273828 0.274081 0.276502
0.364159 0.359738 0.363223
0.349930 0.353925 0.354405
0.437002 0.437532 0.436284
0.318703 0.318765 0.319219
0.335283 0.331593 0.331333
0.395195 0.396794 0.396189
0.408204 0.408684 0.404522
0.288656 0.288087 0.288474
0.400276 0.399937 0.391913
0.388862 0.389265 0.392942
0.423276 0.423656 0.422749
0.434226 0.431916 0.431024
0.468561 0.468460 0.467957
0.395330 0.393532 0.394003
0.359937 0.360909 0.361509
0.444609 0.445655 0.444303
0.320276 0.325598 0.328115
0.359104 0.352783 0.350808
0.353626 0.353922 0.353546
0.313319 0.318874 0.320849
0.531239 0.532041 0.531645
0.436053 0.436545 0.437750
0.364295 0.368257 0.361458
0.456709 0.450357 0.449422
0.318211 0.319300 0.319468
0.335680 0.333208 0.342177
0.351381 0.352559 0.352562
0.359142 0.365909 0.368451
0.399615 0.399355 0.398609
0.373900 0.373305 0.373747
0.397985 0.397547 0.397758
0.391238 0.389994 0.386392
0.283085 0.283750 0.283312
0.420913 0.419589 0.417913
0.339017 0.338440 0.339520
0.433229 0.432883 0.431615
0.400766 0.400256 0.402614
0.436114 0.435334 0.435188
0.330204 0.326213 0.324880
0.419886 0.419146 0.418645
0.400820 0.399734 0.394850
0.305822 0.305659 0.305041
0.327045 0.327533 0.328763
0.277865 0.278258 0.277726
0.497951 0.492222 0.488882
0.437339 0.437292 0.445502
0.294963 0.300554 0.300367
0.391098 0.392533 0.395074
0.452252 0.454394 0.455561
0.359918 0.359531 0.359233
0.405410 0.405467 0.403916
0.404757 0.404399 0.413913
0.347815 0.347000 0.346368
0.420328 0.420573 0.418080
0.385949 0.387075 0.387623
0.400910 0.399977 0.394265
0.336974 0.335206 0.334915
0.397675 0.394991 0.395640
0.258474 0.257523 0.258703
0.324832 0.324182 0.323983
0.375261 0.373859 0.369609
0.485673 0.486295 0.487257
0.297894 0.295486 0.296831
0.263234 0.263352 0.263185
0.246509 0.247843 0.247019
0.449258 0.450669 0.439669
0.297907 0.295491 0.296874
0.421245 0.421954 0.423015
0.400967 0.403898 0.405872
0.286254 0.284959 0.285275
0.418667 0.417590 0.417673
0.644230 0.643180 0.642947
0.381763 0.386981 0.391675
0.347608 0.347308 0.347558
0.381302 0.380675 0.379308
0.366296 0.366691 0.368545
0.423955 0.419755 0.412946
0.352286 0.350387 0.349064
0.414921 0.413381 0.407239
0.390131 0.385544 0.381482
0.416802 0.423505 0.423640
0.344977 0.346826 0.348751
0.485868 0.486198 0.484901
0.307596 0.304170 0.302295
0.380132 0.385742 0.388624
0.275818 0.273335 0.271181
0.347652 0.348110 0.348993
0.398949 0.399997 0.398385
0.371553 0.371911 0.374622
0.348481 0.347918 0.352913
0.416687 0.418748 0.423438
0.407043 0.404682 0.406170
0.408551 0.409281 0.405832
0.416401 0.417077 0.415983
0.314146 0.315040 0.315389
0.371442 0.372707 0.372723
0.368651 0.370577 0.370467
0.619663 0.620255 0.621305
0.395375 0.394924 0.395077
0.399937 0.391913 0.391398
0.277440 0.278857 0.282147
0.338462 0.338467 0.337972
0.299479 0.300040 0.300953
0.532068 0.528163 0.524481
0.483052 0.481900 0.482045
0.399170 0.398949 0.399997
0.324443 0.325512 0.331169
0.388511 0.388353 0.387547
0.397273 0.397086 0.396761
0.339621 0.347791 0.351632
0.325819 0.328235 0.328720
0.260712 0.263789 0.268406
0.315379 0.322020 0.322849
0.339399 0.339922 0.341024
0.401872 0.404125 0.403255
0.315239 0.320987 0.326601
0.307456 0.307721 0.308047
0.245762 0.246821 0.248165
0.315815 0.336416 0.337198
0.356189 0.356484 0.356674
0.345218 0.343827 0.342967
0.354476 0.353411 0.352708
0.274601 0.274453 0.277584
0.377332 0.376435 0.375960
0.390485 0.385661 0.377858
0.347918 0.352913 0.358397
0.352315 0.351202 0.346155
0.347151 0.346728 0.347161
0.353000 0.351393 0.351883
0.431532 0.430711 0.430096
0.416589 0.417030 0.417395
0.322696 0.323410 0.323709
0.421963 0.422084 0.422000
0.406227 0.408388 0.409828
0.398979 0.388528 0.388057
0.383944 0.383413 0.380956
0.399694 0.400569 0.400010
0.304526 0.303131 0.301701
0.492456 0.487009 0.479419
0.300249 0.300143 0.299986
0.341448 0.337871 0.330487
0.393940 0.379849 0.379505
0.375745 0.378521 0.380497
0.318140 0.321654 0.323677
0.383266 0.375095 0.373900
0.402800 0.396378 0.398312
0.397466 0.396865 0.395773
0.553832 0.555445 0.555479
0.372796 0.379843 0.380912
0.391413 0.391328 0.391585
0.355762 0.357836 0.358323
0.278946 0.280378 0.281771
0.283759 0.286108 0.291836
0.447022 0.449567 0.450049
0.387964 0.387885 0.387207
0.333216 0.332534 0.331044
0.355948 0.355661 0.355330
0.413429 0.413401 0.413559
0.352802 0.348920 0.349081
0.429687 0.429762 0.428601
0.384351 0.383965 0.386056
0.397403 0.399974 0.406330
0.377270 0.377301 0.376279
0.284451 0.278974 0.276371
0.399229 0.400839 0.400651
0.386296 0.387713 0.389505
0.528615 0.531715 0.536862
0.497081 0.502716 0.502793
0.355839 0.356486 0.357875
0.297488 0.296974 0.296736
0.251442 0.251769 0.252895
0.391092 0.391643 0.391041
0.319503 0.322341 0.322325
0.296125 0.292801 0.291731
0.279818 0.277369 0.276244
0.366385 0.366822 0.367244
0.340542 0.334675 0.328292
0.401348 0.400922 0.398990
0.328857 0.333616 0.334455
0.314597 0.312620 0.313226
0.248305 0.247721 0.247445
0.280135 0.287376 0.287005
0.497012 0.503506 0.504140
0.322673 0.322741 0.326084
0.404628 0.402914 0.402743
0.379894 0.394093 0.397589
0.351714 0.351500 0.351509
0.392131 0.392774 0.394868
0.387652 0.390367 0.392668
0.308095 0.309849 0.310860
0.653821 0.647417 0.647690
0.391309 0.389477 0.389104
0.367488 0.364361 0.364067
0.344029 0.345515 0.342720
0.408695 0.402292 0.396899
0.340645 0.338620 0.341945
0.312602 0.311982 0.312749
0.484656 0.488274 0.489671
0.384174 0.380308 0.380814
0.397471 0.396366 0.391743
0.288872 0.288314 0.285729
0.367376 0.367297 0.367024
0.379018 0.377739 0.376997
0.313073 0.317849 0.320171
0.353221 0.352162 0.353803
0.479260 0.476183 0.478540
0.465731 0.466280 0.464365
0.355566 0.362922 0.363283
0.290845 0.292338 0.296189
0.619366 0.619907 0.619771
0.416613 0.431598 0.435707
0.379425 0.378473 0.377085
0.360611 0.359911 0.360021
0.426083 0.426653 0.434733
0.355810 0.355703 0.359963
0.338474 0.337997 0.339228
0.352519 0.357303 0.356684
0.348563 0.352759 0.352329
0.319614 0.320117 0.320175
0.355717 0.355149 0.353047
0.465800 0.461037 0.455715
0.459339 0.459513 0.457845
0.384139 0.381507 0.373483
0.363373 0.358389 0.358592
0.292713 0.294531 0.295566
0.277617 0.280165 0.281038
0.441175 0.443849 0.443997
0.358690 0.355250 0.354976
0.280276 0.282506 0.282211
0.382770 0.390433 0.389935
0.668999 0.672919 0.672597
0.326974 0.327290 0.331442
0.340133 0.343170 0.341562
0.282398 0.282406 0.283693
0.396372 0.391792 0.389182
0.335324 0.337343 0.337447
0.386284 0.387631 0.389404
0.280404 0.278916 0.278450
0.443009 0.441784 0.442168
0.309786 0.309253 0.308659
0.359180 0.359760 0.363086
0.326849 0.326381 0.325626
0.443792 0.444106 0.442766
0.317052 0.317219 0.316859
0.445318 0.440371 0.437560
0.282236 0.283212 0.281271
0.622196 0.620815 0.621682
0.421049 0.417976 0.417674
0.265972 0.271370 0.276321
0.394130 0.392156 0.384139
0.292025 0.294168 0.292562
0.402586 0.403467 0.402052
0.248646 0.245311 0.242947
0.446526 0.453424 0.460500
0.351955 0.350305 0.351872
0.534716 0.532054 0.529677
0.283285 0.281789 0.282966
0.277229 0.270400 0.264687
0.360452 0.365161 0.366649
0.300475 0.300614 0.300986
0.414073 0.415403 0.414526
0.341944 0.342428 0.342265
0.376846 0.380950 0.391389
0.454879 0.453133 0.453082
0.392596 0.393414 0.394596
0.408812 0.415797 0.416700
0.340994 0.340861 0.341467
0.515295 0.515537 0.518987
0.345394 0.343258 0.339230
0.434071 0.435263 0.437422
0.403866 0.403300 0.395568
0.378474 0.377864 0.382994
0.276825 0.279436 0.277566
0.352975 0.351426 0.353580
0.443163 0.442104 0.442193
0.439212 0.439023 0.440800
0.417463 0.422638 0.424054
0.373604 0.372533 0.371306
0.381043 0.381526 0.384362
0.400258 0.399323 0.400006
0.426739 0.425633 0.426364
0.490156 0.491990 0.492779
0.456987 0.453270 0.450823
0.385619 0.388706 0.389243
0.382179 0.382541 0.384121
0.459682 0.452160 0.450864
0.427794 0.426665 0.423889
0.394371 0.394534 0.393091
0.439500 0.439639 0.442532
0.410351 0.410575 0.410996
0.337092 0.333468 0.333353
0.388614 0.384228 0.384161
0.361350 0.363606 0.363594
0.376722 0.376717 0.376600
0.320807 0.321732 0.320901
0.365769 0.362110 0.356032
0.383167 0.383214 0.383420
0.455694 0.455877 0.453231
0.387993 0.377993 0.378267
0.482151 0.483674 0.483616
0.417413 0.425109 0.429287
0.484632 0.486381 0.487201
0.460148 0.456606 0.456368
0.337017 0.336356 0.331816
0.318474 0.324582 0.325602
0.324277 0.315768 0.316912
0.415994 0.407223 0.405782
0.434404 0.441080 0.442148
0.275207 0.275260 0.272622
0.606566 0.611668 0.615279
0.383977 0.383627 0.383594
0.325320 0.322989 0.319133
0.394063 0.394165 0.395571
0.353551 0.353675 0.353202
0.342607 0.344101 0.343652
0.456249 0.454314 0.452598
0.440075 0.431329 0.424936
0.393271 0.391307 0.391749
0.423907 0.422324 0.424346
0.326354 0.328224 0.332899
0.270235 0.272435 0.267122
0.355222 0.354698 0.352650
0.357318 0.354027 0.353380
0.375213 0.378089 0.378136
0.309766 0.307114 0.311197
0.338935 0.339636 0.340206
0.329809 0.328003 0.327581
0.265850 0.266146 0.268454
0.367793 0.365219 0.364472
0.339724 0.343387 0.352551
0.376172 0.371549 0.369012
0.383324 0.384888 0.384818
0.245826 0.247956 0.245418
0.401616 0.400167 0.398549
0.490331 0.488021 0.484740
0.437411 0.437587 0.438751
0.292076 0.293804 0.293605
0.398580 0.403799 0.405684
0.362442 0.361124 0.359992
0.376290 0.376074 0.377303
0.488531 0.480669 0.481384
0.307466 0.303614 0.292509
0.415512 0.416878 0.419094
0.371713 0.373063 0.374007
0.403041 0.401662 0.399979
0.401146 0.400141 0.382721
0.339080 0.337944 0.337741
0.414964 0.415341 0.418154
0.350597 0.351314 0.352868
0.324719 0.324720 0.323994
0.452368 0.453763 0.457334
0.305688 0.308271 0.309786
0.458411 0.459129 0.451676
0.408596 0.402751 0.419278
0.353799 0.354991 0.357125
0.499849 0.499607 0.497991
0.347674 0.347022 0.347698
0.334262 0.334917 0.338845
0.377125 0.378100 0.378388
0.324268 0.325603 0.325761
0.338107 0.335143 0.331897
0.352640 0.351531 0.350458
0.357295 0.356557 0.356132
0.381313 0.385103 0.393406
0.323477 0.321431 0.319926
0.410731 0.406036 0.403847
0.317721 0.318137 0.318995
0.393249 0.392653 0.392633
0.391396 0.391177 0.390032
0.384838 0.386569 0.401310
0.342131 0.341603 0.341639
0.391471 0.393400 0.392996
0.447368 0.441819 0.440255
0.374520 0.378608 0.378576
0.349686 0.348413 0.347497
0.362016 0.365678 0.367776
0.374425 0.371305 0.373776
0.413451 0.412664 0.412538
0.324993 0.325100 0.328555
0.359827 0.359576 0.357820
0.342534 0.340805 0.337026
0.513573 0.511791 0.511380
0.317169 0.316714 0.315958
0.303697 0.292508 0.287969
0.351783 0.354273 0.356694
0.263712 0.264668 0.266230
0.366420 0.364559 0.363908
0.355539 0.353023 0.353812
0.362484 0.371963 0.389537
0.426386 0.425621 0.426238
0.341079 0.339362 0.339565
0.366662 0.365785 0.370879
0.391307 0.390591 0.389963
0.408927 0.409503 0.408970
0.303806 0.302974 0.300753
0.327534 0.329145 0.343223
0.274454 0.274779 0.277471
0.381147 0.382182 0.383609
0.346830 0.346889 0.346531
0.442302 0.443344 0.443306
0.383892 0.385450 0.388156
0.508905 0.509330 0.498470
0.369542 0.376616 0.375873
0.258105 0.258388 0.257839
0.344808 0.346092 0.345654
0.363335 0.362413 0.358693
0.319457 0.319271 0.316714
0.376885 0.375414 0.374001
0.395265 0.391974 0.392399
0.368969 0.369367 0.363977
0.375386 0.372647 0.376770
0.323079 0.323692 0.325505
0.316771 0.318014 0.328171
0.464616 0.468942 0.471300
0.308984 0.308201 0.307566
0.401868 0.400383 0.397005
0.275064 0.275551 0.274520
0.372512 0.372656 0.371805
0.394443 0.398215 0.395769
0.376957 0.377870 0.376655
0.438850 0.444867 0.444226
0.344786 0.347215 0.346061
0.331952 0.331042 0.328540
0.332079 0.332530 0.333949
0.422128 0.421450 0.421767
0.295858 0.297643 0.308303
0.441546 0.442322 0.441463
0.381685 0.381982 0.383388
0.453351 0.449848 0.449995
0.482582 0.477979 0.478529
0.405561 0.403920 0.398721
0.403759 0.401620 0.398507
0.306542 0.307259 0.309248
0.354688 0.352351 0.351257
0.387731 0.385168 0.384500
0.382989 0.382706 0.382863
0.355489 0.356731 0.358310
0.441097 0.440861 0.441772
0.378519 0.379575 0.383214
0.399470 0.399178 0.401703
0.335388 0.335799 0.334964
0.393608 0.386926 0.378837
0.344013 0.347080 0.346438
0.370456 0.370973 0.372732
0.413377 0.421622 0.423407
0.282966 0.281603 0.278569
0.440438 0.447123 0.446573
0.542915 0.541375 0.528147
0.630273 0.630653 0.630494
0.653048 0.652057 0.644779
0.428675 0.430661 0.432861
0.336666 0.338687 0.348812
0.371856 0.371416 0.374271
0.402813 0.402367 0.395045
0.394496 0.392974 0.392497
0.342304 0.339599 0.342771
0.378247 0.378087 0.380851
0.372169 0.371856 0.371416
0.440342 0.441129 0.440922
0.412892 0.410478 0.410326
0.379767 0.373678 0.368042
0.383798 0.381618 0.381779
0.434461 0.432910 0.432788
0.281737 0.283336 0.288766
0.446282 0.445480 0.430579
0.389746 0.389336 0.390040
0.376386 0.374867 0.375610
0.447772 0.446471 0.429582
0.444964 0.445144 0.442486
0.341198 0.338836 0.338252
0.433808 0.431634 0.431832
0.290974 0.291985 0.291697
0.491990 0.492779 0.494622
0.291204 0.291853 0.292645
0.386638 0.391204 0.391309
0.424214 0.428119 0.431014
0.396284 0.402582 0.402597
0.278466 0.278265 0.276728
0.394666 0.390328 0.389571
0.274897 0.276076 0.278006
0.363074 0.366713 0.366171
0.399161 0.407726 0.420161
0.457444 0.456673 0.457647
0.410738 0.411546 0.413247
0.324184 0.320307 0.318451
0.357391 0.358667 0.360623
0.341592 0.344290 0.360237
0.395248 0.399602 0.396681
0.465577 0.460826 0.448769
0.428722 0.426017 0.408573
0.348045 0.349718 0.354477
0.364996 0.361448 0.360416
0.311059 0.311325 0.309762
0.366842 0.369760 0.367059
0.446482 0.432369 0.427263
0.353760 0.355444 0.355195
0.489983 0.497063 0.496895
0.319213 0.317306 0.314752
0.371399 0.374890 0.376921
0.305218 0.305408 0.307046
0.396326 0.394909 0.403652
0.450232 0.454587 0.455930
0.338336 0.336590 0.331278
0.365897 0.364497 0.366268
0.325229 0.323148 0.323583
0.320406 0.320485 0.320289
0.447047 0.447772 0.446471
0.417785 0.413144 0.411049
0.302869 0.304332 0.306977
0.368416 0.368961 0.371666
0.300882 0.301204 0.303891
0.394174 0.394344 0.390278
0.368110 0.368993 0.380173
0.402200 0.400253 0.398510
0.374863 0.375946 0.377172
0.499955 0.498895 0.498145
0.319019 0.318335 0.320472
0.350355 0.354413 0.362700
0.315283 0.314036 0.313064
0.458961 0.456849 0.445630
0.387103 0.384917 0.384758
0.320373 0.320656 0.320358
0.349989 0.350127 0.353644
0.330953 0.330789 0.330186
0.331522 0.331338 0.331908
0.571511 0.570069 0.570564
0.289252 0.288666 0.286803
0.378174 0.375396 0.376526
0.294655 0.297717 0.316884
0.336411 0.341676 0.344119
0.369337 0.367859 0.369593
0.352982 0.353160 0.356688
0.536231 0.537842 0.531147
0.384747 0.383773 0.385460
0.371754 0.372073 0.371622
0.381425 0.379581 0.379845
0.377033 0.375970 0.375006
0.372457 0.374097 0.373545
0.380547 0.376916 0.372378
0.239099 0.247668 0.257576
0.292490 0.294199 0.300299
0.352996 0.351427 0.343660
0.303929 0.303226 0.303805
0.446501 0.444373 0.446770
0.368919 0.370624 0.370560
0.396156 0.399765 0.402277
0.369756 0.374610 0.376344
0.328213 0.330690 0.332424
0.322950 0.324465 0.324591
0.399965 0.400797 0.401224
0.325415 0.321872 0.322190
0.376050 0.376003 0.363747
0.351489 0.351584 0.346052
0.401185 0.401766 0.395397
0.374686 0.371144 0.373630
0.357526 0.349807 0.348723
0.469948 0.465646 0.464215
0.406083 0.404615 0.403434
0.316914 0.320799 0.321562
0.425481 0.423390 0.421714
0.358500 0.359356 0.359731
0.370836 0.373863 0.379884
0.375559 0.375277 0.376013
0.410138 0.410254 0.412457
0.319301 0.321291 0.317889
0.297168 0.296426 0.294303
0.449914 0.449733 0.449998
0.368615 0.379405 0.381211
0.384356 0.385701 0.386767
0.335206 0.334915 0.335731
0.293220 0.280968 0.279300
0.413423 0.414324 0.422460
0.351661 0.353399 0.352432
0.306377 0.304108 0.302824
0.357183 0.356927 0.356898
0.332113 0.332804 0.327865
0.391777 0.391799 0.392005
0.367689 0.347340 0.342469
0.318144 0.311772 0.315116
0.400528 0.400945 0.400764
0.380548 0.384418 0.385090
0.384433 0.384111 0.382956
0.317651 0.316415 0.318925
0.331218 0.330206 0.327114
0.356842 0.357393 0.357138
0.384608 0.379967 0.378352
0.373425 0.376106 0.375009
0.315286 0.310416 0.309545
0.278691 0.278263 0.277379
0.253892 0.255155 0.256575
0.294516 0.294680 0.296039
0.370687 0.364072 0.365750
0.352555 0.350845 0.351452
0.392478 0.375352 0.375796
0.313134 0.314652 0.309973
0.412419 0.421861 0.437542
0.400272 0.401348 0.400922
0.482824 0.484396 0.481273
0.319604 0.319582 0.318138
0.463766 0.464219 0.460191
0.349235 0.348325 0.351329
0.438817 0.439354 0.442454
0.281320 0.278103 0.275539
0.305272 0.303597 0.301816
0.368466 0.367426 0.355644
0.328849 0.327702 0.327736
0.335788 0.335860 0.332152
0.455349 0.451130 0.448231
0.400256 0.402614 0.406556
0.343114 0.342198 0.341778
0.411603 0.410732 0.411927
0.372886 0.374068 0.376082
0.399833 0.401008 0.401477
0.360416 0.362008 0.363078
0.375849 0.374596 0.374590
0.313398 0.311694 0.311789
0.312023 0.312900 0.314226
0.463629 0.459916 0.451797
0.316862 0.315812 0.314800
0.496467 0.496152 0.497711
0.385989 0.388419 0.388233
0.382203 0.381471 0.385016
0.386103 0.384631 0.384679
0.310209 0.307533 0.306272
0.388888 0.389038 0.389527
0.421917 0.421598 0.422043
0.430217 0.433894 0.433985
0.372980 0.370957 0.371708
0.407601 0.406387 0.404031
0.406023 0.408549 0.408302
0.314731 0.313412 0.310674
0.380139 0.380191 0.376434
0.333889 0.321358 0.318788
0.316422 0.315599 0.312391
0.365469 0.361803 0.362100
0.391301 0.385902 0.386489
0.456757 0.457529 0.456018
0.383131 0.384724 0.385837
0.344652 0.346067 0.347766
0.440912 0.442411 0.448666
0.357233 0.356168 0.354764
0.352578 0.359098 0.359951
0.359814 0.365532 0.368728
0.446730 0.431500 0.427643
0.269635 0.276450 0.284725
0.386448 0.385408 0.383617
0.339853 0.336882 0.335530
0.356613 0.366990 0.368096
0.466557 0.463656 0.465134
0.373235 0.376409 0.382018
0.302560 0.300680 0.300414
0.443191 0.442284 0.445208
0.520858 0.522915 0.526812
0.414290 0.414899 0.414319
0.398276 0.397271 0.397258
0.350175 0.349448 0.349390
0.399372 0.401992 0.403075
0.301136 0.302295 0.304766
0.319944 0.318534 0.318504
0.283788 0.283204 0.283573
0.408387 0.409282 0.411312
0.354739 0.352985 0.350303
0.353233 0.355124 0.355762
0.287451 0.288657 0.288643
0.655083 0.658175 0.659117
0.399424 0.401771 0.402071
0.432082 0.430102 0.424626
0.347279 0.349528 0.359090
0.283237 0.283759 0.286108
0.402449 0.404097 0.404013
0.355523 0.356106 0.357390
0.400024 0.403389 0.398888
0.374736 0.382645 0.382115
0.375687 0.376708 0.376696
0.283336 0.288766 0.290280
0.469946 0.471192 0.472126
0.284274 0.285298 0.284914
0.317439 0.317601 0.315897
0.329145 0.343223 0.346616
0.443420 0.445654 0.444118
0.381412 0.381160 0.381048
0.386103 0.384270 0.382262
0.367309 0.367624 0.367498
0.674106 0.662981 0.665782
0.318741 0.315749 0.313193
0.247543 0.247547 0.246877
0.335020 0.334140 0.333537
0.529317 0.529703 0.534837
0.372635 0.356116 0.352495
0.340105 0.339753 0.335401
0.624681 0.646101 0.646303
0.443494 0.444902 0.444529
0.626396 0.629763 0.630313
0.295970 0.303062 0.318548
0.370435 0.369498 0.368252
0.327015 0.326572 0.325933
0.319502 0.320120 0.318396
0.617056 0.614714 0.612104
0.343172 0.343570 0.346897
0.380688 0.380610 0.380723
0.310743 0.309788 0.311453
0.338674 0.338448 0.336019
0.275018 0.270181 0.269551
0.391685 0.390279 0.382567
0.413017 0.410037 0.408067
0.385421 0.389265 0.390561
0.455027 0.457460 0.461180
0.419073 0.421693 0.422996
0.378091 0.382598 0.385345
0.299948 0.300353 0.299851
0.295149 0.294381 0.294944
0.347498 0.349028 0.351530
0.402530 0.403081 0.403797
0.361928 0.362253 0.364607
0.300458 0.299159 0.299487
0.417909 0.417632 0.413523
0.324088 0.326190 0.327225
0.386388 0.387656 0.389577
0.319924 0.320872 0.321251
0.368839 0.367629 0.371150
0.448503 0.464594 0.467652
0.359728 0.362247 0.364210
0.259127 0.258772 0.257700
0.378206 0.378035 0.377396
0.417019 0.412260 0.406286
0.438626 0.438038 0.433933
0.319951 0.319713 0.320457
0.391916 0.389772 0.389301
0.418279 0.417999 0.419262
0.375365 0.374221 0.373903
0.374174 0.375461 0.374062
0.340291 0.339890 0.339400
0.417549 0.414486 0.404649
0.346542 0.342684 0.342032
0.375267 0.376344 0.379203
0.470017 0.477538 0.488277
0.388294 0.382203 0.381471
0.365088 0.363628 0.363373
0.271952 0.269984 0.270344
0.449045 0.455069 0.458358
0.404136 0.404988 0.416186
0.412045 0.415499 0.418086
0.337715 0.338979 0.337749
0.436725 0.434995 0.433600
0.301684 0.300458 0.299159
0.390820 0.384760 0.381535
0.413233 0.413381 0.412499
0.482045 0.486371 0.488711
0.293436 0.293337 0.293373
0.351914 0.350873 0.351543
0.494985 0.497045 0.496455
0.364057 0.363612 0.363472
0.395722 0.395210 0.393696
0.324431 0.323499 0.323738
0.407009 0.407028 0.406847
0.356876 0.359012 0.361598
0.372427 0.372610 0.373516
0.377059 0.365886 0.365876
0.367974 0.369189 0.369878
0.564761 0.566031 0.568291
0.337404 0.331364 0.330499
0.472067 0.468548 0.468431
0.378932 0.378434 0.375778
0.291674 0.291781 0.291777
0.317864 0.318736 0.318789
0.400535 0.400295 0.400558
0.341706 0.340247 0.337269
0.356035 0.356497 0.356842
0.366074 0.367628 0.367818
0.411250 0.413536 0.415583
0.334742 0.334504 0.335413
0.424268 0.424700 0.429303
0.410729 0.409643 0.410643
0.357070 0.357608 0.360778
0.444625 0.445348 0.446334
