0.131228 0.132538 0.130967
0.122585 0.123180 0.123442
0.134440 0.134207 0.133951
0.127483 0.128074 0.127208
0.122836 0.122989 0.122746
0.140553 0.140601 0.139371
0.124282 0.124153 0.123904
0.124277 0.124791 0.123303
0.101100 0.102173 0.102628
0.143366 0.141742 0.143637
0.135855 0.135516 0.134321
0.115874 0.115712 0.114627
0.131993 0.132609 0.132352
0.130508 0.130380 0.130737
0.122084 0.122435 0.123159
0.119584 0.120860 0.121449
0.106333 0.106045 0.106348
0.119843 0.120273 0.120061
0.146163 0.147858 0.148895
0.120956 0.120744 0.120056
0.124009 0.124522 0.124886
0.122444 0.122389 0.120701
0.123439 0.123852 0.123213
0.122308 0.122196 0.122048
0.118563 0.117585 0.117390
0.136701 0.136475 0.135552
0.121839 0.121966 0.121413
0.116721 0.117849 0.118147
0.108697 0.108764 0.109639
0.113136 0.114661 0.115455
0.113961 0.114032 0.114014
0.138231 0.137923 0.136830
0.114942 0.115645 0.116723
0.159671 0.160158 0.160487
0.132602 0.132456 0.134650
0.162433 0.163584 0.163594
0.117155 0.116886 0.115100
0.127573 0.127649 0.127795
0.109549 0.108788 0.109499
0.127202 0.124069 0.123442
0.129102 0.131083 0.130437
0.118821 0.118035 0.117909
0.112512 0.112120 0.111656
0.131549 0.132137 0.131465
0.151853 0.152366 0.150347
0.125342 0.126139 0.126507
0.123365 0.122681 0.122838
0.124925 0.124185 0.124278
0.123518 0.123254 0.123195
0.116804 0.117072 0.115843
0.098524 0.100192 0.100326
0.139430 0.138647 0.138125
0.122069 0.121553 0.121237
0.116566 0.116414 0.115874
0.116473 0.117232 0.117429
0.133431 0.135897 0.136255
0.119698 0.122965 0.123449
0.143786 0.143381 0.141993
0.141234 0.141670 0.141926
0.125326 0.125676 0.125570
0.116917 0.116597 0.116409
0.129605 0.129320 0.128067
0.118325 0.119610 0.119099
0.122346 0.122521 0.122958
0.130033 0.129954 0.129661
0.143042 0.143216 0.145292
0.120081 0.120123 0.118608
0.175318 0.174176 0.173060
0.124931 0.125835 0.126432
0.117492 0.117150 0.117286
0.219017 0.219109 0.218806
0.109191 0.108075 0.107310
0.139843 0.138906 0.137200
0.125506 0.124680 0.124441
0.122615 0.122680 0.123104
0.123059 0.123855 0.123761
0.125686 0.126289 0.127460
0.133077 0.133320 0.133572
0.144458 0.146813 0.147931
0.125636 0.123665 0.125699
0.154260 0.155455 0.155431
0.112097 0.113062 0.113670
0.122745 0.122437 0.121773
0.125449 0.125814 0.125120
0.214262 0.212277 0.211190
0.127045 0.126632 0.124163
0.121176 0.121242 0.121133
0.132476 0.133023 0.132522
0.134476 0.134640 0.135262
0.146828 0.146348 0.144699
0.149344 0.150147 0.149824
0.128405 0.128113 0.130300
0.125043 0.124579 0.124271
0.114042 0.113818 0.113561
0.113611 0.114286 0.114262
0.112213 0.110228 0.109334
0.113271 0.113335 0.113838
0.110094 0.108192 0.108808
0.191450 0.191243 0.191401
0.125832 0.126085 0.126013
0.117228 0.118001 0.117434
0.125901 0.123308 0.122563
0.117346 0.119723 0.120583
0.142501 0.144273 0.144869
0.170276 0.170310 0.170105
0.115719 0.115603 0.115404
0.116947 0.117042 0.117105
0.126408 0.125648 0.123085
0.128936 0.128485 0.127954
0.213934 0.215527 0.216551
0.124360 0.126271 0.126745
0.112843 0.113292 0.113827
0.141064 0.141105 0.142784
0.136536 0.138498 0.139223
0.131336 0.131702 0.131449
0.142834 0.142713 0.144508
0.122257 0.122798 0.122713
0.127543 0.127393 0.127313
0.118868 0.118576 0.118495
0.121255 0.120623 0.121091
0.124596 0.125265 0.125664
0.113633 0.114244 0.114690
0.116812 0.117143 0.117439
0.139098 0.138911 0.140103
0.118052 0.117924 0.117011
0.115658 0.115818 0.116703
0.124852 0.124585 0.125579
0.118580 0.118310 0.117297
0.115257 0.114840 0.114491
0.123638 0.123664 0.123705
0.125402 0.124812 0.124028
0.135435 0.135058 0.134933
0.124258 0.125243 0.125404
0.111178 0.109256 0.110290
0.136951 0.136740 0.135815
0.123759 0.124031 0.123659
0.113254 0.113358 0.113769
0.135536 0.135187 0.134836
0.128127 0.127114 0.126400
0.145332 0.145163 0.142973
0.126679 0.127126 0.126931
0.134654 0.135541 0.135534
0.143208 0.142752 0.144567
0.134883 0.134768 0.135290
0.118362 0.118420 0.118644
0.129475 0.131189 0.131439
0.116483 0.116309 0.115945
0.160285 0.158686 0.158752
0.130352 0.129919 0.129526
0.149064 0.149307 0.148145
0.116233 0.115438 0.113718
0.124450 0.126614 0.127125
0.118858 0.118485 0.117950
0.120707 0.120404 0.119917
0.216678 0.217481 0.217603
0.126138 0.126841 0.127570
0.116314 0.114816 0.114906
0.116661 0.116088 0.115852
0.113780 0.113479 0.113509
0.116843 0.116279 0.115502
0.109139 0.108592 0.108265
0.114630 0.115033 0.114977
0.135332 0.135474 0.135016
0.127640 0.127871 0.128924
0.116932 0.116391 0.114275
0.150239 0.150440 0.150903
0.128711 0.129533 0.130276
0.123372 0.122828 0.122474
0.137792 0.137057 0.136216
0.141932 0.141349 0.140720
0.118591 0.121151 0.120806
0.128717 0.127926 0.127527
0.123221 0.125001 0.125861
0.126784 0.126871 0.126681
0.125582 0.125126 0.126343
0.118441 0.117651 0.118360
0.115960 0.116204 0.115748
0.122656 0.122554 0.122333
0.123038 0.125084 0.125395
0.127652 0.125766 0.125721
0.121851 0.121934 0.122072
0.115582 0.115944 0.116100
0.129645 0.129652 0.129449
0.132848 0.132658 0.132690
0.135426 0.135631 0.135521
0.129403 0.131070 0.133685
0.212753 0.214050 0.214613
0.120840 0.122614 0.119945
0.159264 0.159498 0.157503
0.114218 0.113912 0.114712
0.119235 0.118921 0.118498
0.115752 0.116932 0.117305
0.167210 0.166686 0.167279
0.105073 0.105555 0.105772
0.125883 0.125015 0.125214
0.150464 0.150544 0.151042
0.107784 0.107344 0.108003
0.146402 0.146039 0.143491
0.121466 0.123932 0.122022
0.140669 0.142277 0.143123
0.136382 0.136438 0.136202
0.117572 0.118166 0.120224
0.164944 0.164187 0.164245
0.166638 0.164477 0.163543
0.114244 0.114202 0.114775
0.114766 0.114961 0.115517
0.133948 0.134580 0.135920
0.145883 0.146851 0.147040
0.119635 0.120838 0.122270
0.118249 0.118365 0.118348
0.137151 0.137973 0.138317
0.189960 0.189892 0.188786
0.113423 0.113448 0.112563
0.118564 0.118073 0.117867
0.120546 0.118462 0.118025
0.118703 0.119569 0.119607
0.123254 0.123182 0.122919
0.113925 0.114303 0.114389
0.124835 0.125493 0.124982
0.111204 0.111067 0.108950
0.115742 0.114734 0.114180
0.115597 0.115831 0.116028
0.183901 0.189853 0.190927
0.133407 0.135233 0.135669
0.123351 0.122234 0.121393
0.114937 0.114340 0.114140
0.119529 0.119704 0.118048
0.149949 0.149449 0.148277
0.127865 0.127694 0.127634
0.126522 0.127262 0.127291
0.111815 0.111690 0.111724
0.126425 0.126561 0.126863
0.209452 0.210269 0.211443
0.119437 0.119744 0.121487
0.121828 0.121964 0.122584
0.111140 0.112582 0.111062
0.149482 0.148493 0.147504
0.119099 0.119049 0.119882
0.115049 0.113302 0.110509
0.142947 0.142100 0.142390
0.124032 0.122274 0.119833
0.115691 0.115509 0.114966
0.172604 0.174222 0.173722
0.135755 0.135560 0.135628
0.118685 0.119465 0.119525
0.133337 0.133334 0.134748
0.131972 0.131929 0.131037
0.134650 0.137468 0.137747
0.122444 0.122205 0.122074
0.116279 0.114502 0.114084
0.164130 0.163942 0.164540
0.109810 0.110437 0.110000
0.122685 0.122588 0.123240
0.134530 0.135110 0.134572
0.117642 0.117604 0.114676
0.129586 0.129066 0.129522
0.151626 0.151247 0.150920
0.115595 0.114410 0.113821
0.159325 0.159583 0.160814
0.167433 0.166817 0.167117
0.114023 0.113729 0.114216
0.117325 0.117573 0.118962
0.108662 0.108692 0.109113
0.130751 0.130882 0.131009
0.119582 0.119889 0.122044
0.128286 0.129028 0.129321
0.125230 0.125445 0.126384
0.143964 0.144014 0.144676
0.121974 0.121167 0.120908
0.127041 0.126419 0.126486
0.191138 0.191443 0.191570
0.163865 0.165258 0.166432
0.142147 0.141976 0.142345
0.148357 0.147421 0.148339
0.122466 0.122330 0.121954
0.133546 0.133015 0.134186
0.125053 0.125219 0.124179
0.110752 0.110965 0.111463
0.123721 0.122365 0.122569
0.120777 0.121251 0.121240
0.130385 0.130651 0.130465
0.122571 0.123127 0.124023
0.158021 0.158286 0.158511
0.119144 0.121694 0.122320
0.115404 0.115614 0.115118
0.131374 0.132026 0.133063
0.130760 0.130933 0.130093
0.131318 0.132738 0.132908
0.145254 0.145295 0.145863
0.100018 0.100341 0.099586
0.154190 0.154115 0.153051
0.130508 0.131775 0.132314
0.117876 0.117587 0.117391
0.116988 0.117175 0.117306
0.106730 0.107971 0.107923
0.134304 0.135276 0.137958
0.136257 0.136988 0.136857
0.122329 0.122216 0.122662
0.126173 0.126573 0.126607
0.121321 0.120820 0.121377
0.116052 0.116495 0.115125
0.136634 0.137041 0.137210
0.125152 0.125114 0.125588
0.132867 0.133525 0.133325
0.148700 0.150817 0.147333
0.123024 0.123507 0.123337
0.125794 0.125616 0.125534
0.146155 0.146979 0.147073
0.121880 0.121993 0.119795
0.127471 0.128607 0.127663
0.114886 0.114508 0.114123
0.135097 0.135176 0.135053
0.152681 0.151978 0.151592
0.156251 0.153266 0.151785
0.126509 0.126392 0.126390
0.118507 0.119037 0.118759
0.117857 0.118114 0.117709
0.166056 0.173661 0.174012
0.103355 0.102801 0.102359
0.118950 0.120691 0.121105
0.117396 0.118029 0.117646
0.169527 0.170643 0.170878
0.145681 0.145591 0.145109
0.109392 0.107605 0.106835
0.167947 0.167542 0.167606
0.121052 0.121372 0.121411
0.119986 0.120397 0.120874
0.119597 0.120356 0.118672
0.129987 0.129849 0.130860
0.127782 0.128079 0.126761
0.120618 0.120673 0.119515
0.114385 0.113643 0.113953
0.149079 0.149212 0.148933
0.127840 0.127936 0.127899
0.126460 0.126905 0.126728
0.168525 0.168753 0.168665
0.124322 0.124651 0.124613
0.135547 0.135651 0.137171
0.127345 0.128871 0.129043
0.125559 0.126897 0.126451
0.138139 0.138050 0.138292
0.125262 0.125770 0.128451
0.123858 0.122851 0.121036
0.135455 0.135419 0.135997
0.131734 0.131977 0.133963
0.132177 0.132317 0.132009
0.117794 0.117972 0.116515
0.157606 0.155071 0.153879
0.138784 0.139257 0.139871
0.116126 0.115353 0.113394
0.126012 0.122889 0.122724
0.125148 0.125525 0.125948
0.128412 0.128776 0.128737
0.120067 0.119738 0.119741
0.132476 0.132301 0.131395
0.110888 0.110667 0.112296
0.116060 0.115291 0.114416
0.134369 0.134500 0.134549
0.127454 0.127755 0.129550
0.125301 0.125306 0.124586
0.133013 0.133627 0.133862
0.144835 0.145693 0.146050
0.136640 0.136697 0.137247
0.204544 0.203159 0.203310
0.123491 0.120843 0.120927
0.098281 0.098200 0.098741
0.127546 0.127724 0.127424
0.113524 0.112743 0.110613
0.141376 0.141539 0.141740
0.113397 0.112286 0.113020
0.134023 0.134386 0.134505
0.119171 0.120714 0.121873
0.107837 0.107362 0.107342
0.126349 0.126498 0.125255
0.121525 0.120900 0.122677
0.125499 0.125156 0.125580
0.114366 0.115187 0.115500
0.111880 0.111433 0.110949
0.114264 0.114568 0.115473
0.113704 0.113365 0.114474
0.138509 0.138797 0.141401
0.119383 0.120995 0.121963
0.159049 0.157754 0.158007
0.119654 0.120048 0.120123
0.124159 0.126047 0.125702
0.109169 0.109128 0.108409
0.132616 0.132314 0.131767
0.117409 0.117900 0.117591
0.135644 0.135184 0.136530
0.128276 0.128568 0.127453
0.137100 0.136359 0.135897
0.134431 0.134540 0.135385
0.110254 0.112309 0.113363
0.134593 0.132751 0.131530
0.128553 0.128313 0.128544
0.135002 0.135078 0.136640
0.149699 0.148989 0.148434
0.119046 0.117398 0.118296
0.134263 0.133842 0.134071
0.132016 0.132453 0.131042
0.134095 0.134136 0.134902
0.125326 0.125302 0.125878
0.127706 0.128445 0.127341
0.168800 0.168382 0.168876
0.116851 0.117247 0.115771
0.127158 0.126815 0.128919
0.163104 0.162641 0.160147
0.115514 0.115967 0.116874
0.112256 0.112219 0.111865
0.122566 0.122565 0.121469
0.113434 0.113447 0.114515
0.119269 0.117922 0.117686
0.116136 0.115714 0.115492
0.137642 0.137433 0.136867
0.119222 0.119128 0.118881
0.122425 0.123023 0.123223
0.110878 0.111009 0.111516
0.128751 0.128750 0.128322
0.129807 0.129512 0.128898
0.115913 0.116819 0.117729
0.215505 0.219084 0.219850
0.127482 0.127310 0.127655
0.119856 0.119317 0.119152
0.118034 0.118031 0.117718
0.126369 0.125986 0.125539
0.124709 0.124424 0.125342
0.147175 0.149484 0.152800
0.114807 0.115093 0.115656
0.123312 0.122994 0.123155
0.132761 0.133998 0.134593
0.115900 0.119367 0.118888
0.144416 0.145012 0.146109
0.129197 0.129328 0.129801
0.127617 0.128256 0.127032
0.134437 0.133756 0.133100
0.118367 0.118992 0.119212
0.125028 0.124009 0.124109
0.115157 0.114377 0.114485
0.204559 0.203312 0.203063
0.122801 0.122264 0.122536
0.146699 0.147222 0.149011
0.125757 0.125715 0.125121
0.135697 0.136595 0.136095
0.118813 0.118370 0.118377
0.144534 0.141806 0.143284
0.122549 0.122232 0.122023
0.105988 0.106058 0.105941
0.174679 0.174319 0.173179
0.143194 0.143242 0.144664
0.151018 0.151285 0.151745
0.116268 0.116494 0.117148
0.117521 0.117898 0.117687
0.129270 0.129288 0.129574
0.146386 0.145884 0.145222
0.130563 0.129410 0.133514
0.167552 0.168951 0.171221
0.127062 0.125512 0.125271
0.116700 0.117530 0.119542
0.123233 0.123842 0.124515
0.100425 0.101357 0.101829
0.121317 0.121173 0.121077
0.120391 0.120489 0.120261
0.122754 0.122867 0.122795
0.145239 0.145576 0.145695
0.108100 0.107180 0.107993
0.118878 0.117972 0.117044
0.122096 0.122553 0.123057
0.129500 0.129456 0.129824
0.113495 0.113307 0.113294
0.114775 0.114635 0.115801
0.113328 0.113598 0.114349
0.121599 0.121830 0.121495
0.134265 0.134381 0.132668
0.128076 0.129124 0.128729
0.125718 0.124596 0.124364
0.124300 0.124697 0.124055
0.148932 0.149587 0.148987
0.124689 0.124892 0.125132
0.137842 0.140375 0.144689
0.128122 0.127548 0.126432
0.130086 0.129056 0.130290
0.123776 0.124331 0.123601
0.113231 0.111919 0.111074
0.145775 0.145221 0.144091
0.133087 0.132977 0.133189
0.127141 0.126744 0.127066
0.127386 0.127140 0.128037
0.124330 0.124392 0.125018
0.122112 0.120677 0.119729
0.122054 0.122524 0.122477
0.128312 0.127701 0.127223
0.139903 0.140303 0.140502
0.121672 0.122945 0.122503
0.126958 0.126827 0.127366
0.121531 0.123248 0.123486
0.191406 0.190434 0.191619
0.130606 0.130681 0.128609
0.107453 0.107993 0.108054
0.123238 0.123432 0.123329
0.113654 0.114151 0.115061
0.128414 0.128578 0.127084
0.128492 0.128001 0.127304
0.147021 0.147908 0.149205
0.138379 0.138357 0.138753
0.109155 0.108881 0.108596
0.157980 0.156868 0.157052
0.116204 0.117065 0.116169
0.115576 0.115892 0.115067
0.139932 0.139545 0.140408
0.126393 0.126524 0.126482
0.122035 0.122646 0.122982
0.145800 0.145740 0.144665
0.132321 0.130147 0.129734
0.112408 0.111690 0.112623
0.130742 0.131047 0.130738
0.142209 0.141100 0.139657
0.119984 0.119866 0.120662
0.108075 0.107310 0.106328
0.121329 0.120569 0.120624
0.118169 0.119523 0.120224
0.125461 0.126995 0.126141
0.134194 0.134020 0.133582
0.126392 0.126390 0.126015
0.165445 0.164630 0.164400
0.120687 0.120492 0.120514
0.121284 0.120714 0.120369
0.117603 0.117054 0.116067
0.138549 0.139044 0.137273
0.110713 0.110890 0.111074
0.127676 0.127212 0.126687
0.114086 0.113631 0.111691
0.125719 0.126127 0.126343
0.166412 0.165357 0.166150
0.144743 0.144127 0.143543
0.121000 0.121323 0.121125
0.167225 0.166149 0.167669
0.125210 0.126072 0.123048
0.119465 0.119525 0.118789
0.141476 0.141523 0.141213
0.136561 0.137014 0.137620
0.117427 0.116035 0.115719
0.112324 0.111914 0.110677
0.103751 0.104398 0.106746
0.110979 0.110559 0.110486
0.120660 0.120657 0.119983
0.121156 0.121816 0.121335
0.146862 0.146820 0.146552
0.114485 0.115255 0.115591
0.170177 0.168759 0.168474
0.144447 0.142677 0.142550
0.118379 0.118578 0.119015
0.132863 0.133597 0.133847
0.135780 0.136689 0.135077
0.132395 0.131970 0.132230
0.128247 0.128479 0.127363
0.170610 0.170336 0.169128
0.124631 0.123993 0.123428
0.125305 0.126444 0.125813
0.133905 0.134016 0.133913
0.123011 0.123193 0.122632
0.128143 0.127661 0.127125
0.119723 0.120583 0.120419
0.116020 0.116110 0.116405
0.109585 0.109128 0.110309
0.133192 0.133535 0.133458
0.109559 0.109402 0.110362
0.138274 0.137653 0.137897
0.114487 0.114873 0.115818
0.115699 0.114547 0.112373
0.137403 0.136903 0.138749
0.128166 0.127768 0.127977
0.112988 0.113647 0.114188
0.119604 0.118963 0.117796
0.165551 0.165504 0.164287
0.126925 0.127428 0.127308
0.152461 0.152598 0.153007
0.124129 0.123925 0.123576
0.122209 0.122561 0.122517
0.130823 0.131087 0.131586
0.121244 0.122765 0.123561
0.121213 0.122028 0.123288
0.158932 0.161576 0.164867
0.174754 0.173547 0.173046
0.116886 0.117038 0.117699
0.123720 0.125041 0.124778
0.115677 0.115951 0.114482
0.128067 0.128254 0.128594
0.147031 0.147724 0.147088
0.120674 0.121582 0.122124
0.116888 0.118106 0.119045
0.128476 0.128253 0.128371
0.126337 0.125462 0.124349
0.134199 0.131831 0.131399
0.112908 0.114976 0.114980
0.138963 0.138897 0.139068
0.161041 0.158686 0.159071
0.161091 0.161354 0.160902
0.125966 0.126126 0.123780
0.160392 0.161174 0.162268
0.114410 0.113821 0.114443
0.137185 0.137042 0.136709
0.165848 0.167127 0.166624
0.172755 0.171853 0.169797
0.165355 0.166673 0.168328
0.163393 0.162703 0.162446
0.123390 0.123524 0.125576
0.126171 0.124953 0.124565
0.142277 0.143123 0.143423
0.166105 0.165300 0.166399
0.131928 0.132264 0.132541
0.156782 0.158223 0.158220
0.118561 0.117750 0.118352
0.131037 0.130327 0.130592
0.116865 0.116804 0.117292
0.115894 0.115185 0.114481
0.130743 0.131385 0.132438
0.127090 0.126806 0.127212
0.115888 0.115924 0.115458
0.126821 0.126897 0.127133
0.119452 0.118894 0.120100
0.128794 0.128272 0.127868
0.164942 0.164349 0.164550
0.114644 0.113961 0.114328
0.118575 0.118528 0.118620
0.122980 0.121738 0.121555
0.125427 0.122723 0.121670
0.137314 0.137442 0.137354
0.126617 0.127107 0.127044
0.131501 0.131207 0.131104
0.165501 0.164666 0.164426
0.136239 0.136152 0.135130
0.120516 0.119456 0.119008
0.124886 0.123416 0.122893
0.157486 0.158771 0.158666
0.123485 0.123751 0.123933
0.166368 0.166040 0.165979
0.130706 0.130997 0.130729
0.127941 0.126683 0.127679
0.111255 0.111341 0.112245
0.134794 0.134215 0.132696
0.128357 0.128392 0.128137
0.127657 0.127707 0.129203
0.140134 0.140350 0.141503
0.137183 0.138692 0.138062
0.189714 0.185458 0.182205
0.114351 0.115131 0.115936
0.135219 0.135453 0.135385
0.132915 0.133318 0.137219
0.117194 0.115565 0.114886
0.116703 0.117500 0.117046
0.105841 0.103263 0.103338
0.128377 0.128378 0.128328
0.127378 0.128016 0.127947
0.126766 0.126895 0.126649
0.145389 0.145432 0.145178
0.117901 0.119093 0.118102
0.129462 0.129612 0.129354
0.120902 0.123019 0.122733
0.120134 0.118311 0.117162
0.119785 0.119761 0.120015
0.136676 0.137056 0.140006
0.130587 0.129811 0.129510
0.107147 0.107932 0.108347
0.170445 0.169140 0.166447
0.139013 0.139897 0.139574
0.128016 0.128252 0.127529
0.218734 0.215979 0.207358
0.133483 0.132900 0.132227
0.118247 0.118345 0.118636
0.138069 0.138662 0.138231
0.138196 0.138055 0.136779
0.106397 0.106374 0.106327
0.137107 0.137705 0.139029
0.126577 0.126263 0.125874
0.136725 0.136548 0.135429
0.132436 0.129590 0.129179
0.116409 0.115625 0.117422
0.120535 0.120488 0.120560
0.141579 0.139511 0.139642
0.119533 0.119501 0.119687
0.130555 0.132311 0.132511
0.140573 0.141161 0.140745
0.116517 0.117319 0.117120
0.120028 0.119607 0.119824
0.119941 0.120150 0.120896
0.116157 0.116550 0.118121
0.113342 0.113691 0.113232
0.117642 0.117991 0.118177
0.101382 0.100465 0.100467
0.141806 0.140385 0.140602
0.126116 0.126224 0.126973
0.117756 0.117527 0.117125
0.111134 0.111516 0.111912
0.126200 0.126285 0.126040
0.126317 0.126130 0.125665
0.129738 0.129254 0.129197
0.117750 0.115482 0.114911
0.126494 0.124714 0.124842
0.151240 0.152042 0.152042
0.121688 0.119598 0.118429
0.137834 0.138051 0.137934
0.141366 0.139160 0.138967
0.112229 0.112587 0.111692
0.122762 0.122551 0.123990
0.114138 0.114561 0.115141
0.150433 0.149754 0.149571
0.128217 0.127535 0.127499
0.134276 0.134818 0.135283
0.127510 0.127899 0.127898
0.143201 0.143527 0.141911
0.110212 0.109298 0.109544
0.112432 0.113134 0.112420
0.123777 0.122069 0.121543
0.115487 0.115788 0.116780
0.116898 0.118735 0.118917
0.121795 0.122903 0.123200
0.119272 0.121180 0.120684
0.119036 0.116606 0.118888
0.141882 0.141828 0.141592
0.133133 0.134085 0.133910
0.149235 0.150322 0.149797
0.113896 0.113436 0.113673
0.152265 0.152756 0.154787
0.125081 0.125404 0.124140
0.134525 0.134750 0.134417
0.142832 0.143018 0.143657
0.114085 0.114644 0.113961
0.115362 0.115889 0.115769
0.121852 0.122131 0.122493
0.139730 0.140111 0.140058
0.132732 0.132799 0.132848
0.123994 0.124871 0.126054
0.138637 0.137866 0.139764
0.117583 0.117305 0.117730
0.130577 0.130592 0.131816
0.143405 0.143131 0.141700
0.118645 0.117943 0.119755
0.115259 0.116344 0.117352
0.122148 0.122497 0.122106
0.132489 0.132709 0.132737
0.155015 0.155319 0.155300
0.128527 0.127807 0.127715
0.214435 0.215847 0.216942
0.132538 0.130967 0.130892
0.158021 0.158665 0.159395
0.124858 0.124826 0.124342
0.112675 0.113567 0.115216
0.129133 0.129452 0.128978
0.109172 0.110402 0.110843
0.116820 0.116051 0.115430
0.125259 0.125071 0.124686
0.125386 0.126620 0.126482
0.116822 0.116843 0.116279
0.125821 0.125201 0.125069
0.120789 0.120591 0.119844
0.112471 0.112097 0.112767
0.141822 0.141532 0.141370
0.122891 0.123301 0.124377
0.117560 0.117376 0.116275
0.127164 0.126050 0.124433
0.125470 0.125444 0.125405
0.120197 0.121201 0.121802
0.111830 0.110680 0.111153
0.145833 0.145883 0.146851
0.137369 0.137508 0.137297
0.137372 0.139329 0.136497
0.114332 0.115421 0.117048
0.132090 0.132754 0.133641
0.109585 0.110137 0.110138
0.122979 0.124219 0.123940
0.128256 0.126531 0.125545
0.145949 0.145966 0.146288
0.124149 0.124261 0.124499
0.142294 0.144548 0.144851
0.145244 0.145474 0.147735
0.127740 0.127538 0.127357
0.117006 0.118367 0.118992
0.167542 0.167606 0.169022
0.126729 0.126752 0.125377
0.118802 0.119625 0.120372
0.141422 0.141373 0.141018
0.150502 0.150569 0.150126
0.116952 0.117215 0.116279
0.120302 0.120681 0.120677
0.120617 0.120214 0.120159
0.130304 0.127969 0.127934
0.118671 0.119891 0.119574
0.117376 0.116275 0.116424
0.125641 0.126296 0.127080
0.159528 0.158372 0.159191
0.123014 0.124502 0.124405
0.135606 0.135457 0.135190
0.122606 0.122041 0.122467
0.120848 0.120673 0.121817
0.159641 0.159685 0.160885
0.130801 0.130662 0.131784
0.118325 0.118526 0.119247
0.106348 0.106502 0.106246
0.114508 0.114367 0.114316
0.148331 0.149066 0.151588
0.130729 0.130603 0.130782
0.125545 0.125718 0.125823
0.113536 0.114003 0.112991
0.120920 0.120944 0.120299
0.143175 0.143051 0.143198
0.136931 0.137377 0.137442
0.128495 0.127997 0.128082
0.152608 0.152472 0.152208
0.126471 0.126327 0.126530
0.126182 0.126156 0.126571
0.145966 0.146288 0.146313
0.119796 0.120090 0.120850
0.113698 0.113654 0.114737
0.104281 0.105624 0.105916
0.116825 0.116389 0.116099
0.138968 0.139563 0.138165
0.119186 0.117748 0.117379
0.127821 0.127855 0.126509
0.126216 0.125403 0.125499
0.166136 0.164741 0.165687
0.146791 0.146768 0.147079
0.123106 0.122823 0.123308
0.119835 0.118446 0.117908
0.122143 0.121123 0.123520
0.128914 0.128759 0.128591
0.123300 0.122545 0.122525
0.139964 0.140788 0.140595
0.129954 0.129661 0.130117
0.172200 0.172437 0.172610
0.110945 0.111197 0.112439
0.145612 0.144238 0.143632
0.124572 0.123559 0.122305
0.151259 0.152617 0.152457
0.122239 0.122204 0.122132
0.113681 0.113539 0.113021
0.126497 0.126193 0.126079
0.125198 0.126269 0.127946
0.126568 0.127078 0.127616
0.132750 0.132482 0.134251
0.129282 0.128598 0.128423
0.122740 0.122286 0.122934
0.122094 0.122505 0.122566
0.129269 0.129041 0.129650
0.117296 0.116587 0.116514
0.139933 0.139955 0.140795
0.133001 0.133059 0.133595
0.164740 0.167061 0.167298
0.128679 0.128705 0.129683
0.162612 0.162781 0.162287
0.134862 0.134700 0.134555
0.125535 0.125934 0.126284
0.119884 0.119543 0.121375
0.127823 0.126953 0.125639
0.123171 0.122885 0.122855
0.118402 0.117760 0.118028
0.132829 0.131287 0.131382
0.154284 0.154234 0.153405
0.114403 0.113572 0.114745
0.124049 0.123459 0.122399
0.160408 0.161639 0.161696
0.138180 0.138516 0.138669
0.124037 0.123710 0.124324
0.127158 0.126088 0.125110
0.115190 0.116073 0.116077
0.123002 0.123040 0.123011
0.116238 0.116281 0.115633
0.127471 0.125307 0.124490
0.114835 0.114706 0.115552
0.163260 0.163494 0.164315
0.128307 0.128136 0.127972
0.127910 0.127289 0.126836
0.133662 0.134467 0.132655
0.111007 0.111017 0.110383
0.108313 0.108454 0.108334
0.112709 0.112862 0.114146
0.125204 0.125361 0.127349
0.138640 0.135732 0.135744
0.123837 0.124340 0.124274
0.125101 0.125550 0.125099
0.135928 0.135603 0.134871
0.117881 0.118487 0.118009
0.125514 0.126032 0.127326
0.114423 0.112834 0.112648
0.149260 0.150409 0.151539
0.115183 0.114300 0.114954
0.134507 0.136381 0.136375
0.114917 0.113637 0.112534
0.165234 0.166740 0.170030
0.135663 0.135457 0.135082
0.116199 0.115973 0.116660
0.123236 0.122370 0.121508
0.206276 0.205929 0.204559
0.118985 0.120972 0.120870
0.125653 0.124914 0.124891
0.109485 0.110299 0.110126
0.123165 0.124123 0.124616
0.107691 0.106521 0.107500
0.119835 0.119599 0.120436
0.126311 0.127194 0.127186
0.107960 0.107002 0.106757
0.136236 0.136391 0.136746
0.153237 0.153554 0.154579
0.127502 0.127927 0.127860
0.135053 0.134970 0.136172
0.125139 0.126144 0.127367
0.104259 0.105419 0.105891
0.130078 0.129515 0.128388
0.131044 0.130485 0.130627
0.120862 0.121076 0.122222
0.116725 0.118239 0.118807
0.124789 0.124600 0.124798
0.129201 0.131039 0.133214
0.114596 0.115797 0.115416
0.121963 0.121256 0.120793
0.144846 0.145183 0.146162
0.118497 0.117111 0.117994
0.117286 0.116942 0.118782
0.121161 0.120764 0.121006
0.115248 0.115460 0.115171
0.159629 0.160039 0.159911
0.120555 0.119633 0.118466
0.119837 0.119537 0.120733
0.141213 0.138486 0.138766
0.129449 0.129590 0.130042
0.123925 0.123576 0.123203
0.172966 0.173078 0.172938
0.160651 0.160944 0.160667
0.129042 0.129445 0.129462
0.134150 0.134366 0.134563
0.117241 0.118053 0.119407
0.124756 0.126649 0.126953
0.129860 0.129798 0.129408
0.133565 0.133291 0.132424
0.136268 0.138056 0.141481
0.141311 0.141228 0.138556
0.130793 0.131309 0.133222
0.137902 0.137565 0.138264
0.143011 0.142868 0.145314
0.124556 0.124958 0.125666
0.138916 0.138848 0.138820
0.128381 0.128412 0.128776
0.121760 0.121277 0.122467
0.116934 0.116883 0.115792
0.123901 0.124196 0.127284
0.125606 0.125506 0.125305
0.138080 0.138718 0.138207
0.121054 0.121646 0.121543
0.117260 0.118563 0.117585
0.145396 0.145129 0.143206
0.127558 0.127531 0.126202
0.138299 0.138320 0.139247
0.162193 0.160824 0.159668
0.128607 0.127663 0.126665
0.112495 0.112736 0.112594
0.129319 0.129051 0.127276
0.130046 0.130405 0.129887
0.143205 0.143277 0.144389
0.152579 0.155344 0.160050
0.132913 0.133013 0.133627
0.158659 0.160968 0.164630
0.119330 0.119087 0.119370
0.135416 0.135407 0.134383
0.163720 0.164050 0.161924
0.116434 0.116342 0.115962
0.123792 0.123713 0.124664
0.122877 0.122736 0.122755
0.149498 0.149903 0.150210
0.137410 0.137671 0.137173
0.122357 0.122883 0.121828
0.132317 0.132563 0.130927
0.132971 0.131815 0.132089
0.164964 0.165294 0.165861
0.148863 0.149477 0.146952
0.116956 0.116829 0.116100
0.126031 0.124568 0.125924
0.098529 0.100242 0.100383
0.118898 0.118861 0.118646
0.121061 0.119567 0.117834
0.132672 0.132093 0.131868
0.156006 0.156163 0.156340
0.129698 0.129006 0.129734
0.128736 0.128396 0.128884
0.166691 0.167937 0.167639
0.130120 0.130722 0.130783
0.118287 0.116365 0.115276
0.126261 0.126906 0.127716
0.148150 0.148389 0.148503
0.130408 0.130483 0.130176
0.108147 0.108529 0.108306
0.123472 0.123453 0.124047
0.121484 0.121173 0.121132
0.122007 0.123018 0.123477
0.116544 0.116063 0.115228
0.124299 0.124360 0.126271
0.112605 0.112187 0.111579
0.149545 0.149392 0.147635
0.146029 0.144996 0.144360
0.129520 0.129215 0.129218
0.120719 0.120106 0.120572
0.123286 0.125261 0.127143
