0.314277 0.313000 0.317344
0.093011 0.092233 0.092163
0.427481 0.425621 0.430221
0.110744 0.110759 0.110508
0.109562 0.108920 0.108658
0.307128 0.303504 0.302480
0.454990 0.451158 0.444325
0.096280 0.094323 0.093547
0.400513 0.405675 0.405972
0.166687 0.175024 0.172686
0.255374 0.254682 0.258615
0.101404 0.100796 0.101155
0.093884 0.093971 0.094025
0.278713 0.283739 0.284435
0.322986 0.324621 0.325543
0.525877 0.522622 0.522096
0.259516 0.269070 0.270240
0.229557 0.229035 0.226446
0.094166 0.094278 0.094306
0.696033 0.697157 0.697369
0.097954 0.098093 0.098190
0.154319 0.163118 0.163686
0.114010 0.113924 0.113795
0.284215 0.284429 0.287987
0.436272 0.434859 0.434446
0.295744 0.299103 0.297825
0.101044 0.101751 0.100731
0.277465 0.273040 0.266429
0.371079 0.370957 0.372979
0.330895 0.330135 0.328175
0.098562 0.098622 0.098962
0.468206 0.464743 0.423613
0.289711 0.289789 0.289865
0.296700 0.296397 0.296065
0.284036 0.284510 0.285239
0.216694 0.217182 0.218491
0.115571 0.116218 0.113277
0.280201 0.280416 0.281858
0.435846 0.451105 0.452986
0.292718 0.292354 0.292238
0.211938 0.212494 0.210192
0.094900 0.094513 0.094917
0.316710 0.316631 0.317660
0.388924 0.388567 0.386299
0.109368 0.109270 0.109406
0.082293 0.081072 0.081033
0.137002 0.136531 0.136177
0.090996 0.090309 0.090610
0.159510 0.155766 0.157406
0.748355 0.750154 0.751794
0.228980 0.228193 0.229189
0.291210 0.286828 0.285769
0.291550 0.290893 0.288694
0.153874 0.153230 0.153603
0.154247 0.153944 0.154341
0.094589 0.093095 0.092907
0.113973 0.113841 0.113393
0.324870 0.328326 0.333077
0.115332 0.114479 0.114685
0.106117 0.105822 0.105943
0.112768 0.112923 0.113199
0.092834 0.093457 0.094107
0.425756 0.427448 0.429806
0.320299 0.314835 0.296460
0.151450 0.146085 0.140227
0.297773 0.295499 0.295609
0.100352 0.100964 0.102678
0.303213 0.300753 0.300618
0.280166 0.280240 0.280059
0.287905 0.287472 0.284700
0.107268 0.107119 0.106641
0.292960 0.292363 0.291971
0.234255 0.233760 0.233810
0.414423 0.417305 0.417900
0.097553 0.097114 0.097743
0.194316 0.195185 0.196054
0.287166 0.300856 0.301512
0.250446 0.250394 0.251583
0.116936 0.116724 0.114734
0.082885 0.082290 0.081921
0.332865 0.332833 0.334249
0.084898 0.085165 0.085575
0.361506 0.361791 0.360909
0.366783 0.366072 0.365474
0.113665 0.114571 0.116428
0.223885 0.222381 0.222580
0.133783 0.134021 0.135284
0.132330 0.141368 0.142309
0.498277 0.510120 0.539476
0.088099 0.087826 0.087407
0.356358 0.345258 0.350110
0.114786 0.114236 0.113671
0.093971 0.094636 0.094769
0.086636 0.086884 0.087357
0.102751 0.102582 0.102603
0.484973 0.486217 0.485126
0.128812 0.129163 0.128921
0.662804 0.668572 0.668276
0.320715 0.321104 0.321258
0.173981 0.174189 0.174416
0.445799 0.446793 0.448350
0.286560 0.289306 0.293089
0.148714 0.148209 0.147625
0.120577 0.120138 0.119591
0.087956 0.087472 0.086619
0.160007 0.160055 0.159890
0.411672 0.410951 0.411659
0.209125 0.209948 0.212700
0.177660 0.177668 0.177880
0.119698 0.119888 0.120180
0.140990 0.141038 0.141195
0.273004 0.262136 0.259962
0.541562 0.542799 0.545110
0.500765 0.503209 0.498703
0.317773 0.318379 0.318915
0.077028 0.077279 0.078650
0.123673 0.123273 0.122762
0.371349 0.371073 0.371306
0.102184 0.097958 0.096981
0.079564 0.079530 0.080431
0.154579 0.153426 0.153622
0.303692 0.304500 0.304868
0.269246 0.269631 0.270762
0.078373 0.078493 0.078375
0.334132 0.343351 0.348766
0.244493 0.247874 0.259455
0.249163 0.250335 0.253348
0.263709 0.262368 0.258150
0.281205 0.279690 0.279158
0.102555 0.114734 0.127106
0.165744 0.164784 0.156657
0.287376 0.287218 0.284996
0.133836 0.133816 0.133980
0.172811 0.173143 0.172545
0.122637 0.122238 0.121665
0.384764 0.382487 0.385038
0.101724 0.101890 0.101734
0.702705 0.695601 0.693144
0.365160 0.382180 0.383787
0.130781 0.130780 0.130946
0.304859 0.304301 0.302895
0.226254 0.225335 0.215651
0.294523 0.289981 0.289840
0.092902 0.093169 0.093886
0.744831 0.745274 0.745575
0.085778 0.085758 0.085827
0.342970 0.346254 0.345868
0.290811 0.290812 0.290539
0.205196 0.204830 0.204845
0.272094 0.272085 0.272141
0.207142 0.207716 0.207983
0.359960 0.360104 0.359784
0.629083 0.622283 0.634719
0.080282 0.080227 0.078862
0.288738 0.290200 0.290946
0.098617 0.100081 0.099569
0.103908 0.103861 0.104489
0.113341 0.116435 0.116176
0.317495 0.314428 0.300316
0.293699 0.296532 0.295729
0.102627 0.102317 0.101392
0.096251 0.095842 0.095815
0.098698 0.099049 0.098797
0.496307 0.493871 0.492065
0.209682 0.209695 0.210857
0.289268 0.293236 0.299090
0.095500 0.095483 0.095115
0.462582 0.456654 0.456107
0.117331 0.118643 0.121126
0.347064 0.341926 0.341317
0.319335 0.319704 0.319783
0.222167 0.212611 0.211074
0.097507 0.097605 0.097529
0.428007 0.427575 0.426206
0.312847 0.314330 0.317925
0.147469 0.150740 0.150735
0.366922 0.366484 0.366312
0.665131 0.661365 0.659794
0.296348 0.296444 0.296665
0.093963 0.093575 0.094069
0.079177 0.082487 0.083642
0.216969 0.229667 0.235213
0.082288 0.082311 0.081054
0.193391 0.194305 0.195758
0.116917 0.119238 0.121501
0.311210 0.299192 0.298518
0.115156 0.114726 0.114361
0.352819 0.354226 0.352747
0.299525 0.292955 0.283635
0.086803 0.086042 0.086171
0.109835 0.109926 0.112848
0.089870 0.089312 0.088954
0.096031 0.095809 0.095578
0.185286 0.179059 0.170886
0.200456 0.200497 0.200819
0.388115 0.394578 0.395225
0.516668 0.524028 0.539827
0.085998 0.086184 0.086254
0.177328 0.177160 0.177246
0.281144 0.279446 0.279190
0.393207 0.394425 0.386967
0.091845 0.091634 0.090741
0.185829 0.185950 0.186529
0.163687 0.161827 0.162133
0.357419 0.359879 0.385952
0.361603 0.362367 0.362840
0.091881 0.092069 0.091260
0.111815 0.111443 0.110258
0.106241 0.106014 0.106168
0.354528 0.353719 0.353690
0.741702 0.744938 0.745498
0.254443 0.253104 0.253096
0.288172 0.289334 0.291216
0.097293 0.097531 0.097581
0.088305 0.088254 0.088137
0.099015 0.098014 0.096947
0.364880 0.365025 0.365641
0.238239 0.238892 0.239324
0.086289 0.089483 0.090944
0.101378 0.101132 0.099959
0.343554 0.321094 0.322052
0.268435 0.270365 0.280438
0.093995 0.093547 0.093960
0.291945 0.291716 0.290956
0.137578 0.137749 0.137587
0.395623 0.396328 0.395355
0.077841 0.077804 0.077627
0.178863 0.184459 0.185687
0.248521 0.258552 0.259581
0.257424 0.258373 0.259146
0.424669 0.424366 0.423599
0.119731 0.119839 0.120075
0.174327 0.175950 0.175932
0.726894 0.726640 0.726376
0.224589 0.224493 0.223891
0.104865 0.105038 0.105152
0.098970 0.099065 0.099237
0.283376 0.283358 0.283458
0.158103 0.158078 0.155780
0.326072 0.326607 0.327089
0.096848 0.096814 0.097158
0.243923 0.246088 0.247378
0.272762 0.267023 0.266710
0.322825 0.320944 0.321142
0.267762 0.290621 0.301206
0.215232 0.214823 0.215060
0.174726 0.175232 0.175017
0.110356 0.110183 0.110761
0.095296 0.095321 0.095427
0.262630 0.257659 0.257094
0.325389 0.327459 0.327945
0.314595 0.327573 0.301233
0.492082 0.486993 0.485527
0.456728 0.456642 0.456502
0.135302 0.136504 0.136881
0.093068 0.093183 0.093165
0.266333 0.268989 0.278597
0.293771 0.292921 0.291521
0.277728 0.278885 0.280016
0.108656 0.108862 0.109493
0.204815 0.205797 0.208591
0.243699 0.243080 0.243373
0.104489 0.105383 0.106056
0.110950 0.110501 0.110518
0.100512 0.100846 0.100911
0.117893 0.117859 0.117733
0.334138 0.338554 0.337177
0.269730 0.271809 0.288695
0.292357 0.287701 0.287190
0.095424 0.095809 0.096215
0.098082 0.098028 0.096403
0.137581 0.137702 0.137189
0.311282 0.312151 0.310628
0.110945 0.110603 0.108006
0.318368 0.318048 0.317953
0.103415 0.103851 0.103792
0.365780 0.366014 0.366470
0.097621 0.096029 0.095051
0.288535 0.287812 0.287338
0.086696 0.087352 0.087358
0.098322 0.092315 0.091142
0.083653 0.083001 0.083377
0.290085 0.289576 0.289553
0.232698 0.234066 0.236427
0.387185 0.387654 0.387518
0.110435 0.110245 0.110179
0.099212 0.098769 0.098760
0.154756 0.154581 0.154215
0.291431 0.290800 0.289176
0.712966 0.710662 0.709335
0.107474 0.106715 0.106162
0.368045 0.368319 0.369284
0.267694 0.267131 0.263105
0.200122 0.217810 0.218761
0.127967 0.121780 0.120784
0.111443 0.110258 0.101929
0.551638 0.551085 0.552529
0.086622 0.085318 0.084979
0.268729 0.267568 0.268344
0.113505 0.117697 0.118747
0.265529 0.265515 0.265386
0.200515 0.197782 0.197674
0.355393 0.353390 0.351376
0.115644 0.118691 0.119076
0.462701 0.463291 0.462973
0.246179 0.244116 0.246270
0.079533 0.079816 0.079573
0.373466 0.372072 0.370329
0.204546 0.204651 0.204743
0.311122 0.312531 0.313017
0.480607 0.480879 0.481122
0.077569 0.077409 0.077024
0.084085 0.083895 0.083001
0.376454 0.375563 0.370077
0.289217 0.288807 0.286664
0.269152 0.289653 0.288247
0.164926 0.166743 0.170019
0.235433 0.243771 0.244971
0.259790 0.262199 0.269258
0.320008 0.318825 0.316626
0.115776 0.115992 0.116266
0.100152 0.100546 0.100674
0.325365 0.321790 0.321360
0.100680 0.100465 0.099983
0.317287 0.314657 0.301886
0.133734 0.129067 0.128996
0.421873 0.444641 0.458623
0.077572 0.078131 0.077748
0.112239 0.112385 0.112936
0.313409 0.317901 0.321155
0.332960 0.336161 0.336842
0.088803 0.088797 0.088282
0.114056 0.114272 0.114285
0.095695 0.095054 0.094632
0.077279 0.077647 0.077663
0.506044 0.502397 0.499796
0.119390 0.118487 0.114804
0.113410 0.113303 0.113806
0.097607 0.098041 0.098194
0.093043 0.093091 0.093021
0.223602 0.222091 0.221387
0.293825 0.292336 0.291345
0.115708 0.115746 0.117011
0.101077 0.099511 0.099923
0.270190 0.268095 0.260110
0.079181 0.078502 0.077902
0.135670 0.133843 0.133836
0.301547 0.302118 0.302337
0.401645 0.406861 0.407381
0.317378 0.317699 0.321259
0.187626 0.185487 0.185377
0.105440 0.105988 0.105654
0.265005 0.268774 0.291534
0.092754 0.092741 0.092400
0.303362 0.310044 0.311438
0.118806 0.119306 0.119662
0.319552 0.319119 0.323140
0.121054 0.120391 0.120560
0.279163 0.278514 0.267594
0.095614 0.095505 0.095665
0.158350 0.158878 0.159264
0.098111 0.097866 0.098080
0.100880 0.101032 0.101749
0.145393 0.144778 0.142946
0.210558 0.212028 0.211915
0.295817 0.295485 0.295416
0.244398 0.243362 0.241899
0.077618 0.077290 0.076858
0.091885 0.091907 0.091863
0.093329 0.092143 0.093060
0.168279 0.169086 0.169865
0.092233 0.092163 0.093400
0.147926 0.149704 0.150570
0.175496 0.174954 0.174863
0.138920 0.139328 0.139855
0.289593 0.288352 0.285658
0.286741 0.282193 0.281913
0.262808 0.263793 0.262365
0.099584 0.099426 0.099632
0.320211 0.319643 0.319637
0.098919 0.098874 0.099170
0.164689 0.156853 0.155944
0.097199 0.097671 0.097982
0.116857 0.118136 0.118824
0.101266 0.101239 0.101267
0.114047 0.113936 0.112077
0.195244 0.195335 0.194445
0.139946 0.139497 0.139720
0.490949 0.490687 0.481576
0.488050 0.490875 0.490670
0.120177 0.120585 0.120339
0.106663 0.105935 0.105123
0.293221 0.293903 0.304272
0.125422 0.124591 0.125417
0.243707 0.243015 0.243390
0.375301 0.376523 0.377882
0.377339 0.377442 0.370657
0.305085 0.305152 0.305047
0.498381 0.495733 0.497471
0.329246 0.329294 0.328928
0.151850 0.150551 0.141792
0.110747 0.110758 0.110643
0.175092 0.176146 0.176272
0.267816 0.274707 0.274903
0.456618 0.456975 0.459716
0.303230 0.300196 0.300533
0.298717 0.299732 0.301064
0.085675 0.085651 0.086263
0.278564 0.276476 0.276206
0.379541 0.374799 0.372711
0.103856 0.104412 0.105014
0.288910 0.290475 0.290689
0.164424 0.165224 0.167187
0.229996 0.245220 0.247122
0.156935 0.156850 0.157436
0.111330 0.111456 0.112050
0.104984 0.104158 0.103502
0.319288 0.319788 0.319767
0.244859 0.243474 0.242531
0.087470 0.087899 0.087992
0.178782 0.177843 0.178243
0.363207 0.363162 0.361779
0.317986 0.319921 0.320388
0.267442 0.265663 0.261185
0.093753 0.093797 0.093791
0.170019 0.171490 0.172724
0.093896 0.093984 0.094046
0.164462 0.164537 0.166025
0.163811 0.163602 0.164926
0.104821 0.104770 0.105968
0.297092 0.294762 0.293156
0.095942 0.096157 0.095955
0.098663 0.099498 0.100151
0.504653 0.502118 0.501540
0.364028 0.361898 0.355361
0.388434 0.388538 0.384764
0.303205 0.302628 0.300520
0.090512 0.090768 0.090099
0.176454 0.175622 0.175693
0.694879 0.693688 0.691189
0.099354 0.099690 0.099746
0.218801 0.216002 0.213439
0.288135 0.288491 0.289957
0.287414 0.287462 0.285427
0.122519 0.130398 0.136906
0.122648 0.122751 0.122474
0.106884 0.107905 0.108306
0.243433 0.243404 0.243417
0.121500 0.121473 0.121103
0.185854 0.193999 0.196334
0.286786 0.286467 0.291336
0.196274 0.195778 0.195023
0.087723 0.087534 0.087146
0.117841 0.117785 0.117546
0.252165 0.245738 0.241710
0.108155 0.108876 0.108824
0.117733 0.118787 0.119261
0.095509 0.095720 0.096997
0.215334 0.214142 0.209820
0.169055 0.168768 0.168692
0.149918 0.147356 0.147251
0.290940 0.289617 0.306124
0.332032 0.331950 0.331940
0.171509 0.172199 0.174093
0.483792 0.486969 0.490898
0.163804 0.164374 0.163762
0.111282 0.112108 0.110693
0.370630 0.371045 0.370947
0.165601 0.172698 0.176666
0.225448 0.226155 0.226318
0.325506 0.323633 0.324205
0.252368 0.262767 0.266356
0.289476 0.289529 0.289676
0.319981 0.320420 0.320295
0.135880 0.136753 0.137013
0.260056 0.252067 0.251042
0.173121 0.173667 0.173955
0.346391 0.347141 0.346477
0.355846 0.355429 0.352661
0.266305 0.259449 0.256974
0.303182 0.302770 0.303399
0.097952 0.097919 0.096366
0.094556 0.093715 0.094084
0.110827 0.110769 0.110065
0.093896 0.094180 0.095459
0.091541 0.092714 0.093576
0.158652 0.159355 0.159394
0.279828 0.279654 0.279759
0.303238 0.303838 0.306284
0.323477 0.321352 0.319358
0.087900 0.085874 0.086175
0.100977 0.101214 0.102681
0.113097 0.113342 0.113163
0.283667 0.282232 0.276679
0.091625 0.092392 0.091082
0.432196 0.416523 0.405213
0.126143 0.111107 0.105684
0.100855 0.101039 0.100319
0.115721 0.115617 0.115213
0.329234 0.329798 0.329176
0.104602 0.105164 0.105075
0.121293 0.121225 0.121061
0.300351 0.299156 0.297973
0.302191 0.302677 0.304120
0.314531 0.318310 0.319760
0.300409 0.301609 0.299194
0.236069 0.235261 0.226559
0.118500 0.121297 0.121360
0.211750 0.211640 0.210893
0.124181 0.122855 0.104190
0.110919 0.110763 0.110808
0.172092 0.171762 0.171321
0.315322 0.317676 0.301464
0.097809 0.097652 0.098179
0.097464 0.091253 0.090635
0.163795 0.163965 0.163687
0.241002 0.240553 0.237913
0.247688 0.247557 0.247668
0.083059 0.083489 0.083840
0.259553 0.269046 0.278424
0.419911 0.421336 0.422410
0.117500 0.117216 0.117106
0.628455 0.631070 0.631127
0.121294 0.121525 0.121500
0.188905 0.189056 0.189642
0.381988 0.386497 0.391759
0.097231 0.097507 0.097605
0.157570 0.157597 0.158079
0.221058 0.221215 0.221602
0.120205 0.117759 0.115648
0.117504 0.117916 0.118288
0.115389 0.115777 0.115295
0.266372 0.270716 0.270482
0.087529 0.087455 0.087437
0.082341 0.082250 0.081937
0.221605 0.209474 0.206054
0.109424 0.110048 0.109768
0.304817 0.304969 0.305159
0.281672 0.282708 0.285684
0.093215 0.093199 0.093192
0.176988 0.176992 0.177077
0.183866 0.183664 0.183739
0.149926 0.149655 0.149544
0.353125 0.350940 0.351194
0.291933 0.288257 0.305992
0.328522 0.329308 0.329736
0.206982 0.212405 0.214517
0.089553 0.089574 0.090512
0.200923 0.199088 0.198116
0.183951 0.184142 0.184923
0.120593 0.120098 0.120369
0.341474 0.341478 0.341275
0.100416 0.098867 0.099139
0.097142 0.096999 0.096840
0.286766 0.286094 0.286677
0.094661 0.093818 0.095164
0.104569 0.103968 0.103120
0.260690 0.260377 0.260396
0.138293 0.137627 0.137501
0.246216 0.255219 0.282172
0.090697 0.090338 0.090445
0.154439 0.153423 0.153624
0.317145 0.313748 0.314323
0.088430 0.088369 0.088267
0.181616 0.180367 0.173993
0.088185 0.087988 0.087908
0.093681 0.094063 0.093969
0.172913 0.173366 0.174972
0.121552 0.121747 0.122153
0.171313 0.171129 0.165427
0.705468 0.696366 0.693872
0.255613 0.255250 0.255180
0.240231 0.236558 0.235743
0.557478 0.557445 0.557523
0.077030 0.077237 0.077398
0.181736 0.181931 0.181761
0.325589 0.325909 0.325843
0.138174 0.138293 0.137627
0.293580 0.293520 0.292694
0.307006 0.307133 0.307009
0.096542 0.097129 0.097033
0.181910 0.182090 0.178782
0.311701 0.311737 0.312718
0.116254 0.113250 0.112853
0.096447 0.096117 0.095991
0.332217 0.331525 0.331274
0.286376 0.287375 0.286218
0.110603 0.108006 0.107429
0.283794 0.289867 0.292788
0.154263 0.157224 0.158165
0.114106 0.114633 0.114822
0.290475 0.282059 0.264813
0.308411 0.292358 0.290143
0.092607 0.092439 0.091930
0.099333 0.099162 0.098514
0.286703 0.283276 0.276370
0.304275 0.305766 0.305823
0.091059 0.091400 0.091461
0.329026 0.329673 0.331027
0.296594 0.295292 0.298548
0.272495 0.272625 0.272941
0.259199 0.260422 0.264775
0.099493 0.099721 0.100170
0.287594 0.288038 0.290843
0.310757 0.317172 0.319375
0.296058 0.295438 0.295737
0.098234 0.097160 0.097454
0.260517 0.260659 0.264545
0.198019 0.197489 0.196708
0.315616 0.310422 0.298388
0.121792 0.121161 0.120766
0.129417 0.129144 0.128220
0.114461 0.114783 0.117636
0.329070 0.328121 0.326416
0.439413 0.437856 0.437916
0.151091 0.156872 0.156458
0.088214 0.088225 0.087991
0.344335 0.344960 0.345097
0.158151 0.155841 0.155139
0.246334 0.240263 0.238279
0.295070 0.304847 0.305965
0.317142 0.313594 0.314342
0.085610 0.085670 0.085328
0.744626 0.745130 0.745560
0.406746 0.402549 0.399210
0.425536 0.424863 0.424681
0.096173 0.096037 0.094694
0.097905 0.097532 0.095422
0.094173 0.093917 0.094094
0.204921 0.201328 0.199699
0.122503 0.121520 0.118574
0.489276 0.489428 0.488684
0.195862 0.193415 0.189805
0.328840 0.329002 0.328408
0.091818 0.091877 0.092075
0.120576 0.121013 0.121787
0.285781 0.284817 0.292328
0.097982 0.097820 0.098102
0.103677 0.103380 0.103024
0.092692 0.093660 0.093648
0.112823 0.112829 0.112226
0.258475 0.256113 0.256128
0.480539 0.479800 0.479381
0.467132 0.461909 0.459086
0.093937 0.094021 0.094127
0.227508 0.227441 0.227786
0.100321 0.100745 0.102608
0.264967 0.259405 0.259813
0.098563 0.098591 0.096902
0.224236 0.224021 0.223720
0.086071 0.086061 0.085987
0.327116 0.327476 0.326446
0.224089 0.223584 0.222271
0.094897 0.094656 0.094573
0.156212 0.154013 0.153483
0.195715 0.195013 0.195721
0.085531 0.085346 0.085320
0.125598 0.125893 0.127089
0.083950 0.085697 0.088071
0.095118 0.095350 0.096113
0.243263 0.242962 0.241794
0.308200 0.310226 0.319822
0.116215 0.116519 0.116573
0.116457 0.116820 0.117700
0.089398 0.090086 0.090356
0.367754 0.352178 0.348715
0.260663 0.261807 0.262198
0.087901 0.087668 0.087685
0.355537 0.350066 0.326000
0.260179 0.260784 0.260693
0.108186 0.107672 0.107329
0.093363 0.092655 0.089454
0.460482 0.462719 0.467483
0.502213 0.500351 0.497363
0.215245 0.209975 0.210813
0.284495 0.285572 0.289175
0.171608 0.171080 0.170673
0.190377 0.190187 0.190383
0.286184 0.287287 0.286786
0.365975 0.366378 0.359264
0.391897 0.391684 0.389343
0.272783 0.272094 0.272085
0.274144 0.275095 0.277604
0.428257 0.427555 0.426521
0.169897 0.165067 0.163932
0.116773 0.117637 0.117924
0.090642 0.091094 0.091384
0.077627 0.078986 0.083084
0.117821 0.117453 0.117310
0.075334 0.075787 0.078568
0.564418 0.566164 0.564971
0.102567 0.101018 0.100006
0.240897 0.240930 0.240840
0.257231 0.256445 0.256037
0.280062 0.280109 0.278984
0.173173 0.173657 0.173547
0.271364 0.281452 0.288283
0.372274 0.370349 0.370057
0.095775 0.096040 0.097086
0.097715 0.097228 0.097285
0.282555 0.279768 0.276408
0.266315 0.266232 0.263090
0.100157 0.102836 0.108159
0.301864 0.299358 0.298240
0.084158 0.084044 0.082449
0.286489 0.289643 0.289656
0.289842 0.291344 0.293834
0.289181 0.289009 0.287043
0.089645 0.089665 0.090217
0.172315 0.171495 0.170893
0.357911 0.359323 0.386216
0.282259 0.280695 0.278564
0.277313 0.286459 0.285833
0.102876 0.102012 0.101725
0.165959 0.142340 0.138168
0.150479 0.149665 0.149606
0.091688 0.092715 0.092903
0.138546 0.138304 0.139415
0.095601 0.095403 0.095431
0.337529 0.336958 0.338453
0.151506 0.153708 0.155903
0.087774 0.088010 0.087653
0.119667 0.118661 0.118791
0.095812 0.095633 0.096598
0.173387 0.173430 0.173421
0.099880 0.099550 0.099777
0.092208 0.092817 0.091669
0.251290 0.249966 0.249167
0.221447 0.221313 0.221354
0.108294 0.108586 0.109117
0.278089 0.279384 0.280166
0.195948 0.196189 0.196607
0.087396 0.086960 0.087653
0.080417 0.079264 0.078396
0.473266 0.471027 0.460584
0.194862 0.195413 0.198110
0.292787 0.291808 0.290235
0.489093 0.489391 0.488723
0.271214 0.271955 0.277490
0.078608 0.079533 0.079816
0.209408 0.207818 0.202996
0.109243 0.110058 0.110057
0.117964 0.119959 0.120612
0.376216 0.376655 0.377755
0.346308 0.344236 0.343029
0.091859 0.090817 0.090308
0.092890 0.092764 0.092863
0.129453 0.129286 0.129359
0.149187 0.148919 0.149179
0.101054 0.101115 0.101615
0.166886 0.177394 0.186566
0.277641 0.280944 0.283583
0.426400 0.429528 0.431752
0.173247 0.169756 0.168090
0.287885 0.287550 0.288184
0.285204 0.277311 0.276065
0.099354 0.099062 0.093902
0.113719 0.113480 0.113313
0.203855 0.205436 0.205576
0.327202 0.326739 0.324170
0.267803 0.270216 0.294920
0.090768 0.090348 0.090503
0.117539 0.117631 0.117651
0.408945 0.406304 0.394562
0.109702 0.109591 0.109316
0.240508 0.240768 0.242513
0.325178 0.321579 0.329867
0.267225 0.266832 0.266097
0.258160 0.259834 0.260591
0.107626 0.107173 0.106993
0.115616 0.116150 0.117027
0.139418 0.139972 0.139171
0.184584 0.184451 0.184442
0.120936 0.120564 0.120652
0.093746 0.093953 0.094103
0.208569 0.208943 0.209895
0.391175 0.388447 0.388043
0.097551 0.091210 0.090798
0.098219 0.097965 0.097670
0.159663 0.160046 0.160569
0.082803 0.083066 0.084058
0.151712 0.151082 0.151087
0.087437 0.086324 0.085451
0.355775 0.354650 0.351816
0.105759 0.106005 0.106023
0.099697 0.101500 0.101315
0.112765 0.112392 0.111104
0.172168 0.171204 0.171003
0.262365 0.258314 0.257509
0.299277 0.305253 0.306874
0.264950 0.260359 0.259831
0.115924 0.117115 0.116606
0.358309 0.362699 0.386175
0.096527 0.094961 0.094173
0.140584 0.141649 0.141816
0.289397 0.290091 0.290086
0.095367 0.095421 0.095404
0.086615 0.086585 0.086385
0.083462 0.084049 0.084453
0.327279 0.326778 0.326179
0.291547 0.291162 0.286741
0.100641 0.100449 0.099318
0.087860 0.088674 0.088967
0.383823 0.390360 0.391648
0.097648 0.097304 0.098228
0.298524 0.294469 0.288669
0.366448 0.367390 0.367452
0.218793 0.219729 0.220306
0.083732 0.083260 0.082396
0.080948 0.080341 0.079698
0.116262 0.116674 0.117105
0.093389 0.092437 0.092234
0.089432 0.089677 0.089870
0.377750 0.387811 0.390853
0.086699 0.086619 0.086438
0.259640 0.257386 0.252165
0.562068 0.563598 0.564701
0.076886 0.077107 0.078469
0.460050 0.460467 0.462532
0.216722 0.216777 0.216846
0.114362 0.114153 0.114194
0.109768 0.109241 0.108966
0.137172 0.137412 0.137930
0.318736 0.317724 0.315890
0.119928 0.119449 0.119308
0.444641 0.458623 0.467947
0.278195 0.277377 0.277432
0.089545 0.089732 0.088800
0.267525 0.267738 0.268073
0.308910 0.293962 0.290459
0.123063 0.138798 0.139650
0.192645 0.197292 0.198138
0.119881 0.118851 0.118824
0.097737 0.097149 0.097400
0.316459 0.316027 0.318296
0.445792 0.445763 0.445799
0.127666 0.121698 0.120766
0.131659 0.130530 0.131049
0.328243 0.330711 0.337711
0.481237 0.481651 0.481518
0.310745 0.308924 0.305223
0.263557 0.263368 0.263661
0.174910 0.174991 0.174310
0.242621 0.240897 0.240930
0.181648 0.177367 0.174648
0.493486 0.491201 0.488557
0.091370 0.092032 0.092442
0.279557 0.280323 0.279197
0.318550 0.317392 0.313763
0.385952 0.387269 0.389679
0.116326 0.116456 0.116548
0.304484 0.303747 0.301581
0.496568 0.497424 0.502529
0.317945 0.315784 0.308579
0.383918 0.382426 0.385139
0.254773 0.256018 0.257211
0.290243 0.289689 0.289112
0.239647 0.236556 0.235333
0.097051 0.097117 0.097082
0.102232 0.103465 0.103955
0.367760 0.352169 0.348763
0.372059 0.362496 0.358035
0.098835 0.098956 0.100006
0.298981 0.296050 0.292307
0.234226 0.234255 0.233760
0.137628 0.137592 0.129797
0.240489 0.241412 0.241614
0.078487 0.078060 0.077607
0.117101 0.116906 0.117174
0.105213 0.105057 0.103911
0.272362 0.273170 0.273036
0.226938 0.226115 0.223968
0.375548 0.370400 0.360236
0.084281 0.084281 0.086082
0.191612 0.178558 0.177747
0.125090 0.125259 0.125644
0.196054 0.195986 0.190889
0.098014 0.096947 0.095152
0.164601 0.163965 0.163660
0.223941 0.226159 0.227070
0.280409 0.279564 0.278973
0.139731 0.136821 0.136850
0.304629 0.303834 0.302899
0.287164 0.287033 0.286809
0.093938 0.094054 0.094094
0.090891 0.090716 0.090327
0.103648 0.104127 0.103866
0.298527 0.298229 0.297675
0.101104 0.099966 0.099698
0.303673 0.304519 0.304819
0.390425 0.394929 0.395481
0.185485 0.185295 0.184301
0.098480 0.098068 0.097772
0.216792 0.216849 0.216886
0.361984 0.362688 0.358160
0.098631 0.095817 0.093889
0.165943 0.164689 0.156853
0.108563 0.111232 0.111668
0.289178 0.287790 0.288153
0.096630 0.097097 0.097131
0.080808 0.080982 0.080460
0.307486 0.311229 0.313140
0.269260 0.269416 0.270535
0.115125 0.115214 0.114505
0.273170 0.273036 0.272948
0.534993 0.536525 0.539134
0.144540 0.131540 0.130190
0.557487 0.557774 0.559710
0.268111 0.268136 0.268157
0.097847 0.095294 0.094975
0.302654 0.302667 0.302387
0.289366 0.293575 0.294243
0.090544 0.091992 0.092418
0.195194 0.195236 0.194493
0.156491 0.156708 0.156813
0.296673 0.294669 0.292314
0.142030 0.153211 0.161909
0.082621 0.082295 0.082259
0.278143 0.277197 0.276910
0.104479 0.104706 0.104423
0.211146 0.211451 0.215646
0.104418 0.103805 0.102943
0.128081 0.127351 0.127021
0.175017 0.174220 0.174386
0.177132 0.174177 0.174129
0.183338 0.183657 0.184951
0.185275 0.185307 0.185438
0.276689 0.269857 0.263303
0.076506 0.076876 0.077006
0.085213 0.086490 0.086242
0.284834 0.288521 0.289020
0.286105 0.280191 0.277733
0.096672 0.096757 0.096437
0.265307 0.261715 0.257246
0.102253 0.102064 0.101699
0.126056 0.127740 0.127761
0.240776 0.240732 0.242505
0.088561 0.088441 0.088617
0.289737 0.289673 0.287808
0.086011 0.085808 0.086209
0.129619 0.122956 0.122542
0.262447 0.263749 0.263031
0.240787 0.237895 0.236501
0.133621 0.133613 0.133409
0.338349 0.337313 0.335926
0.248881 0.258934 0.259470
0.094296 0.094057 0.094030
0.094854 0.094794 0.094348
0.117855 0.119071 0.117098
0.092359 0.089810 0.090487
0.358066 0.345671 0.345066
0.084275 0.083984 0.082781
0.164104 0.164015 0.163960
0.209907 0.211323 0.206254
0.089674 0.089645 0.088803
0.248620 0.245274 0.243999
0.080060 0.076562 0.076813
0.087862 0.087931 0.087916
0.169819 0.169921 0.169602
0.084056 0.084426 0.085767
0.096719 0.097499 0.097379
0.235871 0.238155 0.238855
0.149965 0.149923 0.150035
0.285454 0.282695 0.283003
0.114045 0.113332 0.113838
0.261265 0.260112 0.256470
0.093791 0.093461 0.093286
0.107862 0.107675 0.111439
0.094161 0.093808 0.093606
0.445274 0.454377 0.453623
0.359832 0.360754 0.362987
0.092115 0.090750 0.090875
0.102515 0.101971 0.101592
0.362852 0.364116 0.359735
0.113527 0.113416 0.113847
0.172735 0.172694 0.172184
0.078304 0.078563 0.078670
0.365176 0.365355 0.361643
0.296992 0.299564 0.299365
0.282082 0.281509 0.284137
0.118925 0.121305 0.121556
0.405983 0.405564 0.404074
0.118681 0.117825 0.117703
0.286774 0.287754 0.288965
0.627750 0.628217 0.630955
0.263143 0.261795 0.260056
0.283768 0.283667 0.282232
0.100404 0.101362 0.101630
0.090010 0.089909 0.090155
0.121210 0.121980 0.122027
0.280589 0.280418 0.281858
0.118068 0.117492 0.117557
0.274955 0.275434 0.276001
0.278657 0.278173 0.288378
0.241703 0.241696 0.241748
0.149093 0.149158 0.148877
0.351052 0.347004 0.345133
0.178932 0.177151 0.176297
0.404973 0.403542 0.401744
0.137232 0.137189 0.137554
