0.566623 0.566669 0.575215
0.523879 0.519757 0.515481
0.360170 0.359794 0.356477
0.525245 0.525535 0.526366
0.520026 0.517060 0.521435
0.484438 0.484934 0.485574
0.341077 0.340519 0.340149
0.349181 0.346017 0.340037
0.475620 0.479567 0.491259
0.409334 0.409929 0.407688
0.412329 0.412639 0.412935
0.357738 0.357566 0.357490
0.489730 0.499395 0.494620
0.372711 0.372671 0.371593
0.360850 0.358437 0.358003
0.450054 0.450085 0.451075
0.424896 0.424556 0.425057
0.390363 0.388471 0.378300
0.410227 0.415871 0.420392
0.575563 0.557865 0.555065
0.436258 0.442416 0.446054
0.522307 0.528673 0.527355
0.435086 0.434339 0.437791
0.344245 0.348391 0.353223
0.370974 0.367601 0.367019
0.338544 0.334519 0.332946
0.419435 0.418616 0.414925
0.356245 0.355793 0.357117
0.472875 0.469905 0.457152
0.411316 0.410386 0.410753
0.590526 0.587909 0.591118
0.364853 0.363349 0.364964
0.488317 0.489204 0.485420
0.512141 0.518270 0.523645
0.364710 0.366065 0.364603
0.439037 0.438556 0.438351
0.410126 0.408070 0.409888
0.503211 0.498859 0.499143
0.376236 0.380199 0.385983
0.517550 0.518570 0.523297
0.366769 0.365740 0.365299
0.436306 0.433979 0.432268
0.396458 0.398718 0.398397
0.471116 0.470017 0.464926
0.388833 0.397426 0.399997
0.340742 0.341918 0.344210
0.528916 0.510775 0.510434
0.402191 0.402987 0.403196
0.362605 0.363390 0.368225
0.515980 0.497744 0.495000
0.370767 0.371879 0.371585
0.462424 0.470696 0.475986
0.426123 0.426370 0.426062
0.386253 0.386175 0.388398
0.521814 0.520145 0.518938
0.373239 0.376187 0.377582
0.338799 0.340836 0.343912
0.422492 0.421246 0.418632
0.498500 0.499124 0.500908
0.401765 0.399104 0.398887
0.446553 0.443586 0.443455
0.545001 0.545054 0.535017
0.369363 0.368603 0.370314
0.498185 0.497719 0.496601
0.399335 0.399262 0.398115
0.471407 0.474192 0.475527
0.369460 0.369988 0.367411
0.411834 0.412921 0.413125
0.504049 0.507013 0.505517
0.591412 0.590437 0.583746
0.481579 0.484001 0.483958
0.393030 0.395590 0.392340
0.479277 0.470441 0.464959
0.393025 0.392110 0.387388
0.368118 0.365391 0.364056
0.341023 0.347676 0.347447
0.449669 0.461764 0.465299
0.406540 0.406744 0.406877
0.428249 0.427319 0.425035
0.445927 0.453671 0.454109
0.390359 0.390831 0.390209
0.541146 0.537901 0.536129
0.372569 0.368165 0.371031
0.412837 0.411845 0.412977
0.334783 0.334106 0.333162
0.405057 0.408804 0.409325
0.537080 0.533977 0.532985
0.654771 0.660496 0.663756
0.413514 0.410737 0.409671
0.488937 0.492468 0.493571
0.352311 0.344625 0.338645
0.356231 0.356371 0.358547
0.435768 0.426127 0.424428
0.417204 0.417251 0.419256
0.351617 0.350055 0.350633
0.372580 0.378077 0.379477
0.531520 0.529815 0.534207
0.347329 0.348280 0.347639
0.478698 0.486403 0.492085
0.529627 0.529607 0.532057
0.426504 0.426512 0.428131
0.377193 0.375357 0.374506
0.587109 0.591095 0.593949
0.462935 0.464769 0.464436
0.460629 0.460816 0.468921
0.356352 0.355204 0.355714
0.398670 0.398370 0.399304
0.482750 0.483215 0.482317
0.465973 0.465555 0.467194
0.451442 0.452116 0.454415
0.433928 0.432944 0.432471
0.548771 0.544563 0.540481
0.437454 0.438402 0.441353
0.421720 0.417681 0.413872
0.489363 0.493522 0.500674
0.517953 0.518700 0.521570
0.527576 0.527432 0.522258
0.463184 0.462851 0.462956
0.448580 0.450960 0.452324
0.581321 0.582734 0.579927
0.517223 0.516607 0.518789
0.436166 0.436173 0.437162
0.471532 0.469135 0.466310
0.351697 0.355838 0.358340
0.390508 0.387198 0.383724
0.412225 0.411387 0.411521
0.401702 0.401602 0.401561
0.432523 0.437535 0.437447
0.404947 0.406204 0.409297
0.545369 0.542480 0.543011
0.476713 0.475237 0.474761
0.482538 0.486341 0.489656
0.580977 0.579678 0.578431
0.493527 0.493887 0.494655
0.359308 0.357023 0.351341
0.488686 0.488958 0.492365
0.362692 0.364219 0.368038
0.420407 0.419743 0.417975
0.329943 0.330005 0.333014
0.511625 0.514368 0.513827
0.351879 0.354559 0.356204
0.536581 0.539395 0.538833
0.404624 0.393978 0.386433
0.526133 0.519705 0.519801
0.486790 0.477402 0.477567
0.572961 0.572990 0.578259
0.509708 0.509146 0.508319
0.489063 0.488174 0.487603
0.459337 0.462918 0.458522
0.602658 0.604810 0.608311
0.417078 0.416651 0.410723
0.527031 0.523989 0.524731
0.458070 0.459656 0.457485
0.559417 0.553201 0.552242
0.425153 0.424273 0.426968
0.518578 0.519578 0.519454
0.405591 0.407435 0.411448
0.387842 0.388640 0.388822
0.460016 0.462317 0.464838
0.355554 0.353424 0.360913
0.495958 0.493482 0.493723
0.470713 0.469944 0.469389
0.399488 0.398994 0.396392
0.484892 0.483684 0.485986
0.452331 0.456292 0.458675
0.381331 0.373618 0.370050
0.519444 0.529060 0.528348
0.519270 0.516845 0.512016
0.391125 0.392235 0.393448
0.409004 0.409381 0.410016
0.473057 0.468827 0.467106
0.492274 0.489063 0.488174
0.353783 0.358421 0.359822
0.595525 0.552764 0.537915
0.396529 0.396372 0.395251
0.438897 0.447655 0.446952
0.413074 0.412410 0.410115
0.459493 0.463053 0.461627
0.517216 0.516945 0.515022
0.400135 0.398941 0.392181
0.426340 0.427735 0.426982
0.392355 0.393269 0.394883
0.412022 0.412572 0.410245
0.392973 0.397022 0.396950
0.404296 0.405309 0.409707
0.529138 0.528114 0.530891
0.354880 0.354639 0.358226
0.462387 0.463169 0.460084
0.406697 0.406679 0.402298
0.479672 0.479021 0.481188
0.417006 0.416859 0.423430
0.337290 0.333077 0.332022
0.367761 0.370362 0.364065
0.575629 0.577073 0.575855
0.369445 0.370368 0.371344
0.505274 0.508193 0.510608
0.367077 0.367087 0.374233
0.429118 0.430781 0.430373
0.398288 0.395586 0.391916
0.420849 0.422214 0.424179
0.364518 0.358033 0.357111
0.360578 0.363171 0.365318
0.409632 0.406411 0.407196
0.349266 0.354058 0.355864
0.375359 0.375558 0.374209
0.543215 0.540144 0.533745
0.408617 0.410901 0.416036
0.331932 0.336561 0.338954
0.398551 0.401187 0.404428
0.418023 0.417303 0.417320
0.417926 0.418007 0.418799
0.410911 0.410606 0.409601
0.440971 0.440369 0.438644
0.358221 0.358147 0.357079
0.355182 0.358428 0.360647
0.403036 0.405853 0.406416
0.350923 0.350802 0.348126
0.411134 0.409105 0.409850
0.567444 0.560798 0.558472
0.417051 0.413971 0.412118
0.387355 0.386375 0.384473
0.370949 0.371653 0.370019
0.355826 0.357671 0.361232
0.454960 0.455440 0.456783
0.456042 0.459805 0.456486
0.383198 0.383986 0.380477
0.480352 0.479156 0.472377
0.437759 0.437885 0.435151
0.395593 0.395312 0.393808
0.414975 0.417326 0.417676
0.391925 0.392707 0.389906
0.460901 0.458489 0.461111
0.376126 0.374948 0.374484
0.542889 0.544723 0.557570
0.440903 0.442498 0.440314
0.515833 0.524896 0.525513
0.457612 0.457186 0.456530
0.499341 0.499226 0.499067
0.458058 0.459672 0.464060
0.385529 0.382150 0.379348
0.412858 0.410611 0.411618
0.497414 0.496081 0.495091
0.531219 0.528856 0.529668
0.573029 0.578218 0.579627
0.400538 0.396162 0.393946
0.440508 0.440637 0.441007
0.394475 0.389655 0.388097
0.452663 0.443998 0.443022
0.455654 0.456405 0.455162
0.386375 0.384473 0.384784
0.543025 0.542116 0.541081
0.401330 0.402135 0.401158
0.620834 0.629863 0.632941
0.397188 0.390433 0.385974
0.353925 0.354386 0.353409
0.575862 0.575940 0.576405
0.393012 0.392108 0.388609
0.376062 0.377222 0.381274
0.536451 0.541114 0.541796
0.539999 0.542300 0.546145
0.509732 0.505189 0.506065
0.365125 0.371246 0.367877
0.491428 0.492832 0.493194
0.545918 0.545079 0.553374
0.532561 0.536066 0.542788
0.531331 0.525286 0.525895
0.441376 0.443471 0.442983
0.346267 0.346212 0.346202
0.483205 0.480731 0.479622
0.405253 0.408644 0.414810
0.423619 0.422860 0.418095
0.429240 0.429531 0.432100
0.546396 0.537779 0.516399
0.416848 0.418328 0.418322
0.344713 0.346944 0.348551
0.525029 0.523075 0.525724
0.472214 0.469984 0.468693
0.502656 0.499719 0.495595
0.550583 0.545804 0.548182
0.386010 0.381913 0.380491
0.328211 0.326299 0.325373
0.370295 0.372862 0.376490
0.419148 0.417890 0.417811
0.404177 0.405068 0.403996
0.545470 0.542426 0.536829
0.421004 0.419944 0.421857
0.374554 0.374376 0.373288
0.393786 0.394950 0.394844
0.463781 0.466179 0.465327
0.341575 0.343668 0.344786
0.425479 0.425121 0.424864
0.488547 0.483146 0.482865
0.431015 0.430859 0.430817
0.528062 0.527332 0.526281
0.368005 0.367920 0.367957
0.373047 0.372959 0.370727
0.409237 0.408190 0.405899
0.365613 0.363918 0.364815
0.496979 0.495722 0.496274
0.371793 0.375246 0.377060
0.535005 0.532954 0.533481
0.484808 0.494297 0.497712
0.363448 0.366736 0.367163
0.414863 0.414829 0.418815
0.510822 0.512321 0.513488
0.430742 0.430063 0.430685
0.507868 0.506156 0.510741
0.366990 0.373766 0.376142
0.373662 0.372099 0.371300
0.389183 0.389823 0.389597
0.589668 0.595317 0.594930
0.486732 0.487010 0.487750
0.519561 0.523612 0.521567
0.521752 0.523199 0.525267
0.347853 0.344668 0.345969
0.378578 0.379862 0.377110
0.423093 0.426642 0.431147
0.339977 0.338922 0.339293
0.481837 0.481436 0.480027
0.603520 0.593637 0.592435
0.439682 0.446334 0.445726
0.520685 0.532512 0.536969
0.376933 0.376885 0.376143
0.319525 0.319865 0.320283
0.348173 0.334942 0.320875
0.525582 0.526613 0.528124
0.458944 0.458384 0.456354
0.388776 0.387240 0.383996
0.524315 0.522750 0.519586
0.377412 0.379405 0.378000
0.421210 0.421713 0.421881
0.528403 0.530012 0.532110
0.525895 0.524808 0.531845
0.514674 0.512735 0.513176
0.681317 0.680083 0.675552
0.534427 0.534171 0.535250
0.416011 0.414351 0.416083
0.427283 0.425901 0.430281
0.363734 0.367797 0.372922
0.418363 0.416100 0.407880
0.433934 0.431673 0.427842
0.438998 0.435077 0.426656
0.412620 0.406824 0.404031
0.483833 0.479774 0.480702
0.489736 0.491449 0.490464
0.412131 0.414584 0.416460
0.394121 0.394763 0.393590
0.538977 0.538399 0.536199
0.390217 0.396121 0.403608
0.567629 0.584685 0.588657
0.420486 0.417302 0.418127
0.394994 0.394602 0.395722
0.496299 0.497994 0.499714
0.391347 0.390420 0.388681
0.390650 0.390254 0.390301
0.412159 0.416503 0.415797
0.568367 0.564075 0.559813
0.489319 0.486028 0.480502
0.433976 0.437758 0.439265
0.503672 0.498262 0.491174
0.574209 0.572845 0.572890
0.573445 0.575663 0.576930
0.333503 0.337214 0.339330
0.417417 0.416701 0.420555
0.392026 0.394211 0.391455
0.466152 0.468664 0.470695
0.325959 0.326119 0.327154
0.436912 0.433957 0.430911
0.538262 0.540309 0.541976
0.426568 0.426011 0.425231
0.514362 0.512183 0.511142
0.461344 0.452238 0.449620
0.567961 0.559342 0.555905
0.420430 0.424846 0.425428
0.424924 0.426272 0.420680
0.356508 0.356780 0.356508
0.355780 0.351702 0.351582
0.463497 0.460493 0.458477
0.461557 0.465868 0.467348
0.419949 0.423620 0.424978
0.532230 0.518229 0.517401
0.430809 0.435780 0.437480
0.408426 0.396146 0.378814
0.393695 0.396025 0.396886
0.405241 0.408276 0.409873
0.365248 0.364000 0.365132
0.410061 0.410335 0.411093
0.358756 0.358870 0.357119
0.417047 0.418908 0.417739
0.369889 0.369076 0.364909
0.356587 0.352104 0.353181
0.474584 0.479838 0.481683
0.365843 0.361921 0.359248
0.466390 0.469313 0.469716
0.429241 0.431665 0.431153
0.503709 0.503716 0.501183
0.434679 0.435497 0.435231
0.424713 0.425690 0.423891
0.458900 0.456383 0.454479
0.393448 0.393779 0.394634
0.590287 0.590396 0.595216
0.438309 0.437162 0.441185
0.438394 0.437631 0.437100
0.358015 0.358205 0.356799
0.529157 0.531913 0.529497
0.464407 0.464477 0.464601
0.362783 0.363614 0.364512
0.545286 0.551972 0.549763
0.442771 0.440933 0.437341
0.496977 0.495566 0.490888
0.560758 0.558548 0.561941
0.405264 0.412791 0.414567
0.430658 0.432058 0.426466
0.411983 0.414264 0.414257
0.563311 0.565256 0.565525
0.360465 0.360818 0.361809
0.413407 0.420906 0.420435
0.329817 0.332887 0.335271
0.381289 0.384513 0.382952
0.351809 0.352619 0.352387
0.354622 0.354408 0.355164
0.349114 0.349824 0.350400
0.541536 0.536146 0.538347
0.469439 0.463624 0.460227
0.418319 0.417898 0.417375
0.412186 0.410788 0.411885
0.342583 0.342443 0.338326
0.396046 0.389394 0.387755
0.340657 0.342789 0.342662
0.486372 0.497868 0.498754
0.365297 0.366194 0.373286
0.417820 0.417521 0.418108
0.468306 0.470748 0.495028
0.483750 0.485241 0.485461
0.497868 0.498754 0.497543
0.394390 0.394810 0.397042
0.444996 0.442958 0.443309
0.395426 0.396406 0.396247
0.529909 0.532529 0.534608
0.536950 0.538706 0.539219
0.364936 0.364355 0.364903
0.417091 0.415972 0.414245
0.509544 0.509975 0.511389
0.346845 0.347583 0.349401
0.408548 0.410387 0.408326
0.366583 0.367943 0.368484
0.411970 0.418095 0.421699
0.374268 0.378003 0.377172
0.392443 0.389724 0.385952
0.450609 0.453198 0.457027
0.470779 0.470991 0.474017
0.597066 0.596223 0.599022
0.483422 0.483833 0.479774
0.612688 0.609016 0.609140
0.349967 0.349235 0.349511
0.601248 0.592424 0.542819
0.494819 0.496979 0.495722
0.593856 0.599427 0.598305
0.544316 0.538732 0.541470
0.428307 0.427670 0.427420
0.405620 0.407225 0.407426
0.332665 0.332062 0.333560
0.426369 0.431429 0.437225
0.496990 0.495896 0.496650
0.379105 0.376721 0.375522
0.381585 0.379838 0.380243
0.365927 0.365471 0.365650
0.394030 0.393432 0.392905
0.469716 0.468471 0.468993
0.625238 0.625518 0.624439
0.524194 0.529785 0.532581
0.481387 0.484682 0.483025
0.496190 0.500682 0.502446
0.390776 0.389759 0.384779
0.569837 0.568890 0.570769
0.346998 0.344545 0.345080
0.498365 0.498634 0.496416
0.397391 0.406802 0.411735
0.541629 0.538977 0.538399
0.356219 0.358604 0.361056
0.509583 0.509901 0.510096
0.531271 0.531197 0.530944
0.568852 0.572044 0.574050
0.488369 0.493797 0.497498
0.419988 0.418959 0.419118
0.355704 0.355213 0.355450
0.425340 0.424120 0.427337
0.570589 0.567345 0.565090
0.460307 0.454270 0.451508
0.384926 0.387228 0.386468
0.404551 0.405241 0.408276
0.396297 0.395791 0.395174
0.502268 0.496914 0.491239
0.336596 0.333188 0.331277
0.487086 0.487309 0.488421
0.545342 0.551305 0.561990
0.394320 0.402191 0.402987
0.422861 0.419703 0.416251
0.351553 0.355254 0.355568
0.406944 0.408296 0.407120
0.463907 0.469086 0.478201
0.431936 0.432278 0.437769
0.338645 0.341779 0.349639
0.537602 0.479098 0.474699
0.434191 0.438468 0.440336
0.554210 0.555194 0.553325
0.401373 0.398158 0.396395
0.606376 0.604522 0.609172
0.490662 0.499341 0.499226
0.363731 0.366505 0.370515
0.564205 0.565870 0.563677
0.580982 0.580523 0.585772
0.404604 0.405561 0.411231
0.359427 0.364086 0.366592
0.452601 0.449826 0.454476
0.460875 0.463815 0.465332
0.542542 0.542269 0.543643
0.378957 0.378359 0.380196
0.480943 0.483052 0.484334
0.435875 0.436581 0.434913
0.396070 0.396060 0.396738
0.335928 0.338252 0.348239
0.458831 0.459912 0.466238
0.481060 0.480305 0.481202
0.365909 0.367490 0.370194
0.359151 0.357714 0.358632
0.404789 0.404447 0.405540
0.451534 0.449330 0.450610
0.440305 0.439051 0.439757
0.397730 0.393054 0.387805
0.435237 0.436240 0.436566
0.447751 0.451537 0.453726
0.466183 0.465245 0.465032
0.419334 0.416897 0.414604
0.507100 0.511160 0.517914
0.512771 0.520937 0.530190
0.411861 0.412279 0.412382
0.555692 0.557278 0.559021
0.515358 0.515615 0.507689
0.558620 0.556510 0.554232
0.602698 0.602335 0.605925
0.419490 0.416645 0.415498
0.549830 0.550392 0.552078
0.580024 0.575543 0.569413
0.382965 0.390616 0.392710
0.441333 0.432182 0.422454
0.393601 0.392465 0.391353
0.412125 0.409551 0.407936
0.545482 0.554812 0.573823
0.396356 0.394849 0.394459
0.442554 0.443533 0.448507
0.520429 0.518191 0.519027
0.329375 0.331168 0.332501
0.506671 0.504353 0.496345
0.438389 0.428896 0.435837
0.530818 0.528852 0.526998
0.464930 0.462693 0.464105
0.346821 0.350488 0.351116
0.354602 0.354581 0.355958
0.541295 0.544846 0.545107
0.519732 0.519084 0.516777
0.415067 0.418350 0.418217
0.548223 0.549745 0.554149
0.396011 0.397568 0.396952
0.482892 0.484568 0.483964
0.384577 0.383533 0.381126
0.454020 0.454720 0.456595
0.421237 0.421155 0.421096
0.468707 0.467896 0.467159
0.551360 0.545766 0.549503
0.440387 0.439691 0.441382
0.460218 0.460570 0.462705
0.361705 0.372451 0.373267
0.538732 0.538409 0.540120
0.375385 0.379413 0.375597
0.371371 0.372458 0.376383
0.396998 0.396669 0.396933
0.378061 0.380727 0.380717
0.414254 0.409333 0.407543
0.465511 0.466481 0.464176
0.408017 0.409863 0.409417
0.380188 0.381542 0.384601
0.658351 0.660707 0.662547
0.483296 0.485457 0.489863
0.451193 0.450736 0.458835
0.591031 0.585576 0.580573
0.435813 0.436157 0.428473
0.452654 0.452595 0.454413
0.583807 0.584123 0.582833
0.378773 0.381546 0.387271
0.401899 0.398075 0.394844
0.533732 0.531257 0.524422
0.395053 0.393861 0.395637
0.385058 0.378200 0.378687
0.428394 0.430333 0.426369
0.482443 0.487960 0.488728
0.428200 0.427106 0.430224
0.544587 0.539133 0.536208
0.351325 0.350556 0.353027
0.464456 0.472826 0.482427
0.520715 0.526153 0.527976
0.441072 0.441762 0.443527
0.428016 0.427066 0.442441
0.400728 0.406733 0.407291
0.385557 0.382367 0.392337
0.466747 0.465391 0.464954
0.489769 0.492632 0.491057
0.347023 0.342220 0.342404
0.409583 0.406276 0.406345
0.531524 0.544513 0.549805
0.424261 0.427352 0.421994
0.557994 0.555691 0.551723
0.606234 0.608500 0.607612
0.370491 0.368113 0.364025
0.421482 0.429179 0.437442
0.357228 0.355347 0.356384
0.439080 0.439381 0.437520
0.458607 0.457700 0.458731
0.428938 0.428176 0.428352
0.454946 0.455041 0.455501
0.475781 0.473850 0.474277
0.391697 0.390048 0.386682
0.497766 0.500682 0.498743
0.332128 0.360225 0.373118
0.474783 0.471030 0.470248
0.386974 0.390548 0.397761
0.396746 0.397375 0.397711
0.434534 0.437209 0.441378
0.425441 0.425479 0.426120
0.450695 0.451543 0.451377
0.459724 0.455767 0.454529
0.479630 0.494608 0.497300
0.530133 0.532494 0.532669
0.525283 0.528064 0.539399
0.433455 0.435041 0.433974
0.375834 0.377901 0.380138
0.370224 0.369503 0.368988
0.340449 0.341690 0.343272
0.473086 0.473653 0.469136
0.426344 0.423209 0.409338
0.458807 0.457614 0.457886
0.606019 0.612981 0.616750
0.477829 0.480466 0.480805
0.371550 0.373165 0.373154
0.415405 0.414178 0.413564
0.335174 0.333978 0.335392
0.483507 0.480772 0.479712
0.350822 0.350541 0.350906
0.526628 0.528721 0.525127
0.446164 0.443175 0.445434
0.418690 0.418874 0.415537
0.439153 0.435980 0.431270
0.547901 0.549198 0.551700
0.419755 0.419292 0.421779
0.497680 0.499687 0.499856
0.441373 0.440377 0.449061
0.344343 0.345184 0.345594
0.450138 0.451479 0.454604
0.397145 0.384348 0.378556
0.338326 0.336468 0.337745
0.427784 0.428872 0.429767
0.415298 0.414238 0.412170
0.547290 0.547206 0.546101
0.547906 0.546479 0.548080
0.396025 0.396886 0.398048
0.476564 0.479239 0.480908
0.544885 0.543142 0.542180
0.421659 0.419698 0.422280
0.418034 0.420910 0.418951
0.432636 0.432379 0.435813
0.371218 0.366739 0.364342
0.335690 0.327467 0.324271
0.382064 0.377785 0.373358
0.469591 0.469594 0.470026
0.475749 0.470860 0.467406
0.433363 0.435635 0.438357
0.408819 0.402626 0.393567
0.399692 0.397935 0.396372
0.496935 0.501153 0.508774
0.434154 0.434138 0.434401
0.368106 0.367849 0.368976
0.527423 0.527275 0.526478
0.429522 0.425984 0.426405
0.363756 0.364697 0.365117
0.358866 0.358223 0.356377
0.348568 0.348717 0.346738
0.440010 0.436609 0.429593
0.544226 0.539201 0.541238
0.454180 0.450578 0.450088
0.483702 0.485447 0.480613
0.348325 0.347635 0.347204
0.532749 0.532417 0.528702
0.437758 0.439265 0.440251
0.405026 0.402341 0.402102
0.450590 0.445180 0.444359
0.484417 0.484666 0.486953
0.545569 0.541182 0.537040
0.613324 0.607802 0.598860
0.513424 0.512992 0.513322
0.497630 0.492818 0.488502
0.477435 0.469695 0.463841
0.542732 0.543092 0.547000
0.404862 0.408086 0.412495
0.423261 0.421944 0.422630
0.512154 0.515013 0.509473
0.501035 0.498263 0.501102
0.461378 0.458028 0.460519
0.375787 0.368429 0.363737
0.460617 0.462498 0.462049
0.363679 0.360095 0.360444
0.558832 0.556266 0.554117
0.475261 0.471824 0.469171
0.485043 0.493090 0.495967
0.492267 0.493047 0.493589
0.335696 0.333322 0.334388
0.429562 0.428185 0.427651
0.335431 0.332638 0.335421
0.417495 0.430529 0.431282
0.408322 0.410812 0.412339
0.502659 0.504271 0.510947
0.374782 0.380495 0.382358
0.461023 0.459351 0.460846
0.380907 0.380679 0.380872
0.380717 0.381097 0.380859
0.503868 0.496554 0.490272
0.506560 0.508893 0.506627
0.579562 0.576568 0.565898
0.471662 0.472696 0.472010
0.571952 0.572823 0.577083
0.559546 0.571222 0.571228
0.355164 0.355071 0.355844
0.459312 0.462970 0.463836
0.576189 0.579032 0.580426
0.363034 0.362810 0.363035
0.494703 0.493121 0.491850
0.455580 0.455521 0.456793
0.402962 0.404789 0.418221
0.606489 0.610120 0.610232
0.474820 0.467259 0.461854
0.441007 0.441917 0.443455
0.517997 0.517252 0.513613
0.507083 0.512671 0.525354
0.482080 0.485565 0.486829
0.402341 0.402102 0.403898
0.410545 0.409970 0.408642
0.388117 0.385529 0.386822
0.492537 0.490261 0.494815
0.394153 0.393652 0.392607
0.453569 0.452640 0.456310
0.408856 0.409999 0.408753
0.499758 0.498690 0.496406
0.395788 0.392460 0.391347
0.370763 0.371162 0.370099
0.411148 0.407546 0.403198
0.547867 0.541165 0.541616
0.332904 0.333563 0.330979
0.383593 0.381412 0.378176
0.399338 0.400106 0.399827
0.482466 0.479454 0.485043
0.514610 0.517987 0.523219
0.461053 0.460561 0.459012
0.416383 0.421670 0.422193
0.395583 0.394827 0.396154
0.365560 0.373726 0.382282
0.381441 0.382148 0.381643
0.534899 0.535676 0.535648
0.441200 0.439397 0.435503
0.463365 0.461357 0.459267
0.379972 0.380371 0.380643
0.354048 0.360552 0.360139
0.536866 0.539970 0.526925
0.482816 0.483558 0.486732
0.500335 0.499022 0.497572
0.580837 0.582456 0.582344
0.414300 0.412512 0.412587
0.363234 0.363123 0.362950
0.473610 0.480126 0.483656
0.366922 0.366061 0.367587
0.552348 0.548036 0.542398
0.520461 0.530133 0.532494
0.440284 0.438933 0.437498
0.451346 0.451898 0.449573
0.447272 0.456697 0.456868
0.528070 0.522866 0.520442
0.379551 0.379649 0.383891
0.418753 0.421923 0.428671
0.436965 0.437696 0.437616
0.494069 0.497053 0.496990
0.520328 0.521873 0.521609
0.495755 0.501042 0.499577
0.418546 0.414283 0.412881
0.416399 0.414158 0.413370
0.565876 0.572500 0.573834
0.411574 0.413345 0.417495
0.419272 0.419206 0.414537
0.371101 0.372288 0.372789
0.351835 0.351018 0.350432
0.421345 0.421048 0.420292
0.462203 0.459723 0.460551
0.441271 0.441060 0.441010
0.458781 0.460901 0.458489
0.509444 0.508260 0.507780
0.414633 0.413474 0.416661
0.519905 0.527416 0.531710
0.380171 0.385590 0.387619
0.462152 0.462095 0.460282
0.426063 0.425945 0.427980
0.387545 0.390217 0.396121
0.377210 0.382027 0.380396
0.567912 0.568405 0.565735
0.541662 0.538978 0.539681
0.460742 0.457972 0.456657
0.354215 0.356059 0.357372
0.347526 0.350665 0.352807
0.425116 0.428031 0.428779
0.468461 0.470668 0.474040
0.373058 0.373061 0.370804
0.445915 0.444832 0.444736
0.366036 0.366627 0.370271
0.480379 0.484815 0.487413
0.437480 0.437922 0.437537
0.518700 0.521570 0.520411
0.459230 0.466028 0.467097
0.413911 0.415002 0.414844
0.424783 0.425376 0.426063
0.343436 0.344083 0.344537
0.508588 0.504480 0.504607
0.369950 0.369369 0.375536
0.552252 0.551679 0.549185
0.332994 0.332114 0.332557
0.352553 0.346851 0.345692
0.349613 0.349805 0.348159
0.451508 0.442513 0.436629
0.432323 0.430529 0.429267
0.422084 0.422632 0.423384
0.361332 0.360431 0.359967
0.434574 0.439675 0.445383
0.383278 0.400303 0.400830
0.453641 0.454095 0.455380
0.403412 0.401553 0.399355
0.378817 0.380653 0.378928
0.364000 0.365132 0.369434
0.583162 0.583381 0.584215
0.421006 0.419946 0.419842
0.376487 0.381341 0.398170
0.670495 0.677089 0.685765
0.361069 0.360319 0.359414
0.428572 0.425550 0.425441
0.443723 0.443053 0.437785
0.480164 0.481416 0.482439
0.363687 0.364627 0.363569
0.348205 0.350766 0.349997
0.542041 0.547933 0.550186
0.461417 0.462925 0.463287
0.398676 0.397114 0.393884
0.344426 0.343917 0.341878
0.472715 0.471837 0.471973
0.371411 0.372003 0.371563
0.478150 0.478694 0.479726
0.333488 0.336461 0.340789
0.338332 0.336396 0.337463
0.528730 0.528342 0.527504
0.487872 0.489433 0.487020
0.354532 0.349412 0.347724
0.434310 0.434868 0.438241
0.504984 0.504306 0.503471
0.404031 0.397596 0.393918
0.488357 0.488438 0.488319
0.382125 0.380804 0.376865
0.395446 0.399098 0.399106
0.442798 0.450809 0.455352
0.537912 0.537105 0.536680
0.451238 0.453682 0.456447
0.459978 0.461099 0.469058
0.453096 0.451997 0.452349
0.374786 0.374941 0.371654
0.464477 0.464601 0.462545
0.399265 0.398422 0.395935
0.522083 0.534439 0.538109
0.498518 0.498791 0.498483
0.493116 0.488996 0.480108
0.508779 0.507214 0.507541
0.410061 0.410350 0.408949
0.397162 0.398000 0.399154
0.445240 0.444741 0.448405
0.339442 0.337005 0.336075
0.356219 0.356338 0.357111
0.551116 0.552196 0.550484
0.550752 0.570818 0.577048
0.415169 0.413323 0.410386
0.396098 0.401850 0.398311
0.440960 0.438811 0.437164
0.377967 0.380585 0.379352
0.379665 0.382861 0.386160
0.476156 0.477988 0.478722
0.550127 0.546004 0.539580
0.418013 0.418790 0.418691
0.557262 0.558595 0.561760
0.476070 0.474697 0.468318
0.563789 0.563311 0.565256
0.440268 0.445867 0.449413
0.414394 0.413496 0.410402
0.539327 0.541976 0.541333
0.550496 0.551996 0.552669
0.475335 0.477697 0.475442
0.418569 0.421299 0.422673
0.494297 0.493414 0.492252
0.522698 0.519929 0.517216
0.363419 0.362595 0.363403
0.430972 0.434853 0.435086
0.551297 0.548044 0.541488
0.494652 0.491618 0.490215
0.458624 0.458524 0.453194
0.468952 0.466656 0.466401
0.371826 0.364331 0.361013
0.425955 0.425291 0.422755
0.383938 0.384034 0.385826
0.419479 0.420401 0.421406
0.542558 0.542950 0.546492
0.495324 0.494593 0.481535
0.529917 0.536459 0.538816
0.440593 0.440909 0.444755
0.445810 0.446352 0.451599
0.418908 0.417739 0.417761
0.476638 0.475880 0.474211
0.406775 0.409115 0.410865
0.486268 0.485028 0.488255
0.410434 0.412414 0.414192
0.324271 0.324699 0.319474
0.487211 0.483102 0.480031
0.483732 0.474806 0.477630
0.399497 0.400618 0.399052
0.511327 0.509316 0.506402
0.390761 0.387261 0.385491
0.437505 0.438932 0.436823
0.394208 0.391882 0.389102
0.413148 0.415095 0.415501
0.393616 0.393674 0.395244
0.431156 0.435728 0.435923
0.432319 0.431994 0.431553
0.363249 0.366362 0.366991
0.496932 0.496383 0.488753
0.445512 0.443723 0.443053
0.340825 0.340316 0.339699
0.441176 0.442292 0.443302
0.556097 0.553036 0.551177
0.480553 0.488495 0.493797
0.347936 0.346046 0.339942
0.457746 0.456188 0.455913
0.435777 0.434227 0.434459
0.462649 0.445915 0.444832
0.404336 0.404966 0.401895
0.526007 0.519233 0.514951
0.538058 0.538739 0.543349
0.436809 0.434731 0.434511
0.477181 0.471283 0.470713
0.507505 0.508513 0.509507
0.515865 0.516171 0.515506
0.439146 0.436881 0.446392
0.420603 0.422438 0.422493
0.458752 0.459555 0.456477
0.357785 0.356768 0.355989
0.481975 0.479715 0.480154
0.494561 0.494614 0.497366
0.357056 0.354815 0.354749
0.522492 0.525899 0.527016
0.496914 0.491239 0.490172
0.432623 0.432596 0.432201
0.410735 0.412213 0.414526
0.358636 0.358869 0.355328
0.472083 0.471879 0.469918
0.539230 0.540448 0.542866
0.520048 0.519688 0.517703
0.382142 0.382811 0.383340
0.489424 0.487773 0.485016
0.353817 0.356245 0.362011
0.525840 0.526693 0.524884
0.430469 0.432038 0.433476
0.452244 0.451141 0.461729
0.344312 0.345001 0.344755
0.610204 0.594636 0.592393
0.388996 0.388821 0.388486
0.464855 0.467079 0.467913
0.396869 0.399370 0.397278
0.438136 0.433860 0.426087
0.375564 0.373572 0.370426
0.409346 0.407768 0.405558
0.402814 0.405829 0.406775
0.396282 0.402827 0.405844
0.358923 0.363962 0.366046
0.435972 0.435510 0.434776
0.428843 0.426759 0.422769
0.334617 0.337551 0.338548
0.485397 0.484387 0.483370
0.564208 0.561053 0.558876
0.487172 0.484028 0.464682
0.400287 0.399916 0.400785
0.403663 0.402239 0.403100
0.522414 0.525744 0.525249
0.370705 0.370714 0.369696
