0.128462 0.128056 0.128968
0.224763 0.227728 0.228167
0.127887 0.127886 0.128075
0.050133 0.050713 0.050577
0.143209 0.143676 0.144214
0.117604 0.123068 0.127774
0.182665 0.177983 0.176100
0.136045 0.136636 0.137258
0.101344 0.101979 0.103222
0.083917 0.083948 0.083895
0.097305 0.100081 0.100226
0.089818 0.090147 0.090007
0.167930 0.169151 0.170222
0.081354 0.081335 0.081443
0.048372 0.048456 0.048340
0.095061 0.091728 0.090241
0.136166 0.135425 0.135827
0.168075 0.171252 0.171968
0.108700 0.109499 0.109215
0.139264 0.139122 0.138008
0.137202 0.137998 0.139965
0.136456 0.137609 0.137463
0.165284 0.165398 0.164779
0.131577 0.130720 0.130084
0.049857 0.050020 0.049949
0.161215 0.161461 0.161763
0.221530 0.221844 0.222303
0.152099 0.153187 0.153399
0.157863 0.158238 0.156875
0.193577 0.192987 0.192897
0.138093 0.138603 0.139187
0.051334 0.051548 0.051494
0.129819 0.129461 0.129581
0.175830 0.174976 0.169156
0.169729 0.169859 0.172079
0.121357 0.123973 0.126188
0.051117 0.051089 0.051282
0.150329 0.151691 0.159789
0.166273 0.162075 0.157392
0.082150 0.080038 0.079755
0.046983 0.047447 0.048643
0.108869 0.107805 0.107493
0.122258 0.121648 0.124500
0.136236 0.136183 0.136526
0.175613 0.177020 0.180316
0.147253 0.147587 0.147623
0.120401 0.120532 0.120916
0.086321 0.086349 0.086410
0.156385 0.152843 0.152327
0.142615 0.142041 0.142247
0.130602 0.131247 0.132316
0.128497 0.128802 0.128634
0.086323 0.085347 0.085187
0.134512 0.134954 0.135608
0.127463 0.128255 0.128997
0.177769 0.175731 0.173713
0.228187 0.223230 0.213881
0.137824 0.138388 0.138708
0.086454 0.086161 0.085876
0.208046 0.207983 0.207955
0.182471 0.182421 0.182295
0.133741 0.133739 0.130940
0.172871 0.171629 0.171411
0.141592 0.141501 0.141622
0.116183 0.116143 0.117830
0.097595 0.097221 0.092323
0.049500 0.049603 0.049503
0.182381 0.182648 0.183285
0.132226 0.132428 0.132691
0.097320 0.097607 0.097393
0.161243 0.161246 0.161077
0.115030 0.114581 0.114111
0.085859 0.086409 0.086354
0.137541 0.138853 0.138136
0.093794 0.093942 0.093480
0.157061 0.156555 0.154637
0.159342 0.160128 0.160400
0.138315 0.138242 0.138229
0.136645 0.137536 0.137648
0.126049 0.126088 0.127416
0.142476 0.142022 0.142661
0.159252 0.157534 0.157252
0.144603 0.145467 0.151501
0.176335 0.175804 0.173691
0.133565 0.134058 0.137510
0.050697 0.050671 0.050868
0.131891 0.127567 0.127588
0.095390 0.095443 0.095715
0.154668 0.156833 0.157251
0.130243 0.130195 0.130038
0.161505 0.161039 0.163307
0.167396 0.168318 0.169899
0.139968 0.139617 0.139264
0.046478 0.046222 0.046114
0.105075 0.105065 0.104910
0.090237 0.090092 0.090321
0.084658 0.084964 0.084831
0.125203 0.122104 0.121599
0.136156 0.136142 0.136209
0.119891 0.119341 0.119072
0.129211 0.129533 0.125893
0.123898 0.125755 0.125495
0.149388 0.148965 0.148709
0.160766 0.160827 0.160929
0.146312 0.146854 0.148670
0.049505 0.049473 0.049370
0.097174 0.097302 0.097550
0.156375 0.154009 0.155005
0.121670 0.122025 0.123908
0.182062 0.182198 0.182381
0.140284 0.138616 0.136561
0.098511 0.092467 0.092350
0.159374 0.159384 0.159107
0.141158 0.141238 0.141276
0.153124 0.152634 0.152499
0.097191 0.102449 0.102429
0.118706 0.119948 0.119010
0.135457 0.137591 0.139917
0.139058 0.141077 0.141929
0.158532 0.157928 0.157522
0.135409 0.136537 0.136931
0.135586 0.135868 0.137330
0.159981 0.159225 0.158635
0.154750 0.154531 0.153866
0.164885 0.164603 0.165068
0.134954 0.136418 0.136354
0.101403 0.100815 0.093379
0.201320 0.199287 0.198142
0.142870 0.137634 0.136770
0.140219 0.138103 0.138083
0.156903 0.156552 0.156323
0.149610 0.148612 0.147872
0.121992 0.121968 0.121795
0.122977 0.123517 0.123796
0.128669 0.129291 0.127101
0.090512 0.091377 0.092034
0.126220 0.126737 0.127192
0.080994 0.080725 0.080861
0.123983 0.113930 0.112157
0.047004 0.047235 0.047066
0.049279 0.049214 0.048957
0.112063 0.112698 0.112851
0.150386 0.150422 0.148356
0.109320 0.109411 0.108917
0.179860 0.178282 0.176983
0.180738 0.183177 0.183623
0.134426 0.134362 0.134539
0.154537 0.155138 0.155280
0.095415 0.095106 0.090882
0.126422 0.126409 0.127071
0.134437 0.134195 0.134748
0.161632 0.161977 0.162472
0.164189 0.165124 0.165819
0.120035 0.122917 0.127836
0.139838 0.140683 0.141848
0.120135 0.120345 0.120442
0.129263 0.130024 0.129546
0.141262 0.141359 0.141685
0.094768 0.094724 0.093638
0.156858 0.156787 0.156469
0.158893 0.160030 0.159985
0.142771 0.143001 0.142971
0.117459 0.118803 0.118889
0.152071 0.153088 0.152780
0.126477 0.126214 0.126335
0.132033 0.131772 0.131094
0.149636 0.149727 0.149830
0.113397 0.114018 0.114672
0.134171 0.136734 0.136995
0.172965 0.170033 0.170676
0.126273 0.125349 0.124403
0.156963 0.155113 0.155753
0.183978 0.187836 0.192938
0.154908 0.154433 0.153507
0.107285 0.107562 0.106151
0.175968 0.172818 0.172524
0.168268 0.167730 0.167271
0.163335 0.162007 0.158784
0.047653 0.047266 0.047171
0.145354 0.148746 0.148854
0.163458 0.159164 0.157905
0.145120 0.145740 0.140622
0.127966 0.128254 0.128524
0.096036 0.092717 0.094277
0.096726 0.096634 0.097013
0.100192 0.101838 0.101868
0.158137 0.157640 0.153324
0.165899 0.162708 0.162318
0.134030 0.133280 0.132482
0.181319 0.181601 0.184727
0.063359 0.068805 0.069934
0.132959 0.132655 0.133592
0.157653 0.156113 0.153162
0.217693 0.217625 0.217581
0.132639 0.130728 0.122697
0.135324 0.132649 0.130850
0.121030 0.119991 0.121019
0.145808 0.143121 0.137306
0.132946 0.132476 0.132864
0.083497 0.083525 0.083367
0.129314 0.132111 0.131886
0.079850 0.079902 0.080375
0.154129 0.152797 0.153584
0.144618 0.141806 0.136830
0.144227 0.146447 0.146601
0.129486 0.129296 0.127043
0.147959 0.147489 0.145501
0.100797 0.100431 0.095965
0.089926 0.089956 0.090213
0.155579 0.155443 0.155774
0.046138 0.046279 0.046695
0.132175 0.135634 0.135092
0.156752 0.156287 0.156283
0.129046 0.132302 0.132836
0.087091 0.086865 0.085921
0.047023 0.047149 0.047445
0.126071 0.125882 0.126046
0.047265 0.047348 0.046734
0.046452 0.046732 0.046790
0.106639 0.106220 0.106245
0.046643 0.046797 0.046808
0.112216 0.115901 0.117444
0.121618 0.121442 0.121550
0.158238 0.156875 0.152952
0.173313 0.171687 0.171638
0.082670 0.082734 0.082821
0.126529 0.127699 0.130816
0.121437 0.119800 0.117066
0.080390 0.079016 0.079460
0.164651 0.164104 0.164816
0.099012 0.097545 0.097642
0.139222 0.138995 0.138508
0.126746 0.126587 0.126603
0.170162 0.163324 0.168391
0.132245 0.133091 0.133822
0.134808 0.134732 0.134659
0.045801 0.045769 0.045324
0.162020 0.163119 0.163585
0.101016 0.100723 0.098493
0.150985 0.147919 0.147858
0.124466 0.124304 0.124938
0.107846 0.107029 0.108568
0.151324 0.145555 0.142783
0.081330 0.081365 0.081457
0.049693 0.049621 0.049485
0.127036 0.126623 0.138198
0.130861 0.134515 0.134977
0.089466 0.089353 0.090188
0.141756 0.141002 0.134725
0.117868 0.117517 0.117582
0.118052 0.117995 0.120519
0.075718 0.076132 0.079001
0.220209 0.219039 0.219038
0.135381 0.136870 0.140093
0.051685 0.051334 0.051548
0.141455 0.136055 0.118540
0.157664 0.157481 0.157561
0.085917 0.086442 0.086315
0.090936 0.091020 0.092029
0.133704 0.133968 0.133917
0.148135 0.148097 0.148474
0.050017 0.049823 0.050124
0.136236 0.137305 0.139355
0.107337 0.107059 0.107174
0.160220 0.159689 0.159780
0.141622 0.141782 0.140735
0.122983 0.122606 0.122364
0.120046 0.121706 0.125196
0.133703 0.129238 0.128924
0.046324 0.046628 0.046341
0.128794 0.125986 0.126335
0.050265 0.050179 0.050025
0.134687 0.134900 0.134811
0.046148 0.046178 0.046316
0.103160 0.102182 0.101708
0.145021 0.144692 0.144417
0.133715 0.133822 0.134448
0.130054 0.129107 0.128571
0.081359 0.081476 0.081553
0.148976 0.147664 0.150495
0.140054 0.140536 0.138211
0.082810 0.082576 0.082362
0.226570 0.228128 0.228150
0.178871 0.183615 0.210480
0.091947 0.091891 0.091748
0.188750 0.196281 0.196160
0.131860 0.132152 0.132141
0.134385 0.132394 0.132189
0.132755 0.134112 0.134534
0.126678 0.128746 0.126000
0.091995 0.087276 0.087255
0.126705 0.126118 0.126210
0.124505 0.121818 0.121763
0.148670 0.148182 0.147779
0.186145 0.187979 0.189396
0.128812 0.129231 0.129872
0.173323 0.173283 0.171957
0.170870 0.168499 0.171026
0.081817 0.080543 0.079663
0.099809 0.099958 0.099912
0.121319 0.119714 0.119297
0.118054 0.115608 0.114596
0.102264 0.100630 0.098141
0.158256 0.157978 0.158049
0.145133 0.145602 0.146223
0.047227 0.047576 0.047479
0.154604 0.152247 0.148875
0.131743 0.128123 0.122850
0.090617 0.089412 0.087185
0.086865 0.085921 0.086071
0.146666 0.148625 0.149976
0.167941 0.166812 0.164979
0.133973 0.130016 0.130719
0.160630 0.160715 0.160734
0.153897 0.153886 0.153920
0.156576 0.154077 0.140498
0.147182 0.145210 0.141606
0.135633 0.129882 0.126800
0.204619 0.203768 0.200984
0.110702 0.110700 0.110757
0.113885 0.114851 0.115351
0.101476 0.100904 0.102168
0.137435 0.132728 0.131810
0.183765 0.182764 0.180039
0.128492 0.125711 0.125687
0.140227 0.134037 0.133095
0.148305 0.148689 0.148685
0.154982 0.157801 0.158548
0.083261 0.083282 0.082964
0.078754 0.078929 0.079245
0.082738 0.083066 0.082952
0.193148 0.192411 0.192664
0.120875 0.122086 0.122518
0.137931 0.137884 0.137989
0.152509 0.152204 0.151703
0.091985 0.092000 0.092103
0.149494 0.148243 0.146132
0.120215 0.120841 0.121194
0.100060 0.100108 0.100052
0.156800 0.156790 0.156927
0.190822 0.194987 0.195981
0.072699 0.072613 0.072773
0.217786 0.218272 0.219339
0.051187 0.051233 0.051215
0.125832 0.126022 0.127780
0.127714 0.126064 0.126020
0.135663 0.139217 0.140032
0.128741 0.126101 0.123285
0.183820 0.182973 0.182551
0.168066 0.169015 0.167066
0.097743 0.097488 0.093025
0.116146 0.116272 0.114985
0.123132 0.123081 0.123431
0.128660 0.131861 0.131923
0.129474 0.127022 0.126914
0.121894 0.123039 0.127414
0.159766 0.160372 0.161353
0.167570 0.167584 0.167872
0.093044 0.092950 0.092576
0.051632 0.051305 0.051269
0.127575 0.124881 0.112002
0.133658 0.134625 0.134987
0.090710 0.090467 0.089911
0.099290 0.098995 0.098621
0.224047 0.223641 0.223532
0.170762 0.171520 0.173102
0.118746 0.118689 0.118776
0.183318 0.174136 0.174027
0.093411 0.093532 0.093396
0.080752 0.080714 0.081085
0.165202 0.164967 0.164726
0.145882 0.144484 0.142840
0.128515 0.128637 0.128660
0.145726 0.146481 0.146572
0.155689 0.158243 0.157950
0.155058 0.150004 0.149699
0.111008 0.106581 0.106160
0.130830 0.130987 0.131018
0.153477 0.153918 0.154242
0.185152 0.183673 0.183759
0.049999 0.051290 0.051651
0.168624 0.167680 0.166992
0.152518 0.152581 0.152732
0.044506 0.044555 0.044690
0.126155 0.126189 0.126853
0.118376 0.120161 0.125479
0.125023 0.123230 0.122637
0.165667 0.166176 0.167618
0.049943 0.049912 0.049895
0.141996 0.143494 0.170954
0.084898 0.085011 0.085091
0.157064 0.153887 0.154542
0.049069 0.048997 0.048952
0.123396 0.118468 0.117656
0.125608 0.125637 0.125454
0.126557 0.130207 0.131469
0.131018 0.130971 0.130977
0.089900 0.089496 0.089181
0.092244 0.092832 0.093305
0.162075 0.157392 0.156310
0.114811 0.116852 0.117054
0.092323 0.092143 0.091928
0.082626 0.081821 0.081930
0.046776 0.046952 0.047284
0.159553 0.159603 0.159607
0.082324 0.081947 0.075727
0.147777 0.147915 0.151267
0.135778 0.136908 0.138601
0.095632 0.095728 0.096548
0.155547 0.155297 0.155908
0.148390 0.148282 0.148168
0.082721 0.082791 0.082616
0.177400 0.177709 0.178398
0.104522 0.103207 0.103543
0.171057 0.171173 0.173842
0.224772 0.224285 0.224097
0.107600 0.108452 0.108059
0.161594 0.161102 0.160465
0.050767 0.050561 0.050545
0.145727 0.144154 0.143974
0.044675 0.044740 0.044723
0.161603 0.161579 0.161726
0.208630 0.208786 0.208835
0.133769 0.132516 0.129163
0.107826 0.107527 0.107188
0.129369 0.131025 0.131384
0.046206 0.046681 0.046821
0.126466 0.132045 0.132535
0.173085 0.173314 0.173191
0.137116 0.136961 0.137654
0.134482 0.134809 0.136673
0.128150 0.128122 0.128011
0.118772 0.118712 0.118691
0.103461 0.103661 0.106328
0.084821 0.087004 0.086961
0.117424 0.117047 0.116544
0.132718 0.133117 0.133082
0.129622 0.129636 0.129590
0.129909 0.128143 0.128331
0.139164 0.139177 0.139092
0.114568 0.114571 0.115129
0.121685 0.121938 0.121704
0.123662 0.123557 0.121475
0.099643 0.097452 0.097147
0.134685 0.132365 0.131839
0.095954 0.096976 0.101994
0.138090 0.135970 0.132060
0.048404 0.048420 0.048252
0.155840 0.153175 0.138274
0.075816 0.081939 0.088537
0.126403 0.126779 0.126447
0.124319 0.124731 0.124722
0.126754 0.126782 0.126231
0.146082 0.148421 0.148280
0.085330 0.089623 0.092128
0.144286 0.145042 0.145481
0.125922 0.128210 0.128848
0.096703 0.098521 0.098859
0.208499 0.208585 0.208573
0.169105 0.169869 0.170058
0.092449 0.092502 0.092221
0.097183 0.097231 0.097418
0.138641 0.136031 0.138579
0.044790 0.045171 0.045150
0.139002 0.140696 0.140503
0.134472 0.134315 0.132622
0.197732 0.196852 0.194949
0.120764 0.121260 0.121272
0.150055 0.150259 0.150449
0.137646 0.137468 0.138101
0.153746 0.153274 0.153570
0.101425 0.102041 0.103269
0.171977 0.171588 0.170322
0.097595 0.097856 0.101711
0.153261 0.153207 0.153321
0.076271 0.077097 0.077438
0.167683 0.166770 0.164261
0.130525 0.130461 0.130786
0.134741 0.134736 0.134450
0.132512 0.132906 0.133156
0.153455 0.153725 0.153058
0.049760 0.049735 0.049967
0.145045 0.145060 0.144903
0.214583 0.213827 0.212623
0.090205 0.090078 0.089397
0.125493 0.124314 0.122102
0.173374 0.175703 0.175802
0.159316 0.162243 0.169749
0.135659 0.134417 0.131904
0.095323 0.095477 0.095655
0.082151 0.082381 0.083194
0.140078 0.142620 0.143873
0.140293 0.139878 0.139938
0.139579 0.139555 0.139159
0.130869 0.132216 0.133070
0.088611 0.088944 0.089651
0.184184 0.187571 0.188315
0.125312 0.125412 0.125393
0.150198 0.151117 0.152065
0.119861 0.119893 0.119478
0.151581 0.152327 0.153423
0.136830 0.129562 0.134843
0.147453 0.146934 0.147207
0.147213 0.146726 0.149555
0.184138 0.184120 0.184194
0.184907 0.184595 0.184733
0.137580 0.138847 0.137427
0.170951 0.172164 0.169728
0.149301 0.148929 0.148206
0.098706 0.099095 0.098788
0.188259 0.188120 0.188173
0.089515 0.089875 0.090236
0.139405 0.139249 0.139181
0.106182 0.106959 0.108469
0.146780 0.145575 0.146280
0.114320 0.114139 0.111710
0.091509 0.091765 0.091662
0.150202 0.148156 0.148068
0.153507 0.154269 0.154619
0.128952 0.128858 0.128697
0.139187 0.140486 0.141243
0.141884 0.141794 0.141662
0.088274 0.087475 0.087375
0.220576 0.220516 0.219242
0.156592 0.157305 0.158124
0.098681 0.097509 0.097456
0.151835 0.150610 0.152560
0.092922 0.093002 0.092536
0.085556 0.085694 0.090151
0.156409 0.154609 0.149053
0.094131 0.097677 0.098236
0.159206 0.158723 0.158740
0.121562 0.123921 0.124155
0.144793 0.146141 0.147706
0.160863 0.160937 0.160946
0.158062 0.158032 0.157992
0.208905 0.209954 0.211741
0.134325 0.134396 0.134216
0.160674 0.160677 0.160507
0.048722 0.048819 0.049067
0.150056 0.149946 0.149594
0.051131 0.050909 0.051384
0.080992 0.081323 0.081217
0.135077 0.134549 0.132282
0.138842 0.138887 0.138639
0.129084 0.129200 0.131766
0.157917 0.158368 0.158420
0.142242 0.144136 0.168877
0.085743 0.085138 0.089521
0.118796 0.125095 0.123611
0.087754 0.083064 0.083064
0.121975 0.122068 0.122028
0.138083 0.138276 0.142755
0.189031 0.187229 0.186341
0.163062 0.163028 0.162937
0.119714 0.119624 0.119383
0.131442 0.133086 0.134721
0.046132 0.046205 0.046609
0.124493 0.125546 0.125506
0.099630 0.099598 0.099742
0.160288 0.159512 0.159168
0.085167 0.085038 0.085027
0.142302 0.142329 0.143026
0.128942 0.129094 0.130128
0.134886 0.134322 0.134774
0.126864 0.126719 0.126699
0.133773 0.131536 0.132143
0.106148 0.106499 0.108326
0.124241 0.123189 0.124634
0.104948 0.103978 0.102484
0.157252 0.157314 0.157260
0.089715 0.089769 0.089860
0.124500 0.125581 0.135374
0.127258 0.126570 0.126735
0.136311 0.136285 0.135916
0.133162 0.131583 0.130416
0.145896 0.145550 0.145691
0.111070 0.112544 0.113610
0.050351 0.050359 0.049597
0.118540 0.092281 0.090539
0.096715 0.097802 0.098734
0.133775 0.135363 0.135502
0.142757 0.142532 0.137299
0.051051 0.051254 0.051748
0.139868 0.139944 0.139816
0.095669 0.095614 0.095767
0.227708 0.228355 0.228441
0.132655 0.133592 0.133650
0.138246 0.138851 0.139332
0.153433 0.153449 0.153677
0.129208 0.129457 0.130912
0.080142 0.080017 0.080444
0.046781 0.046913 0.047303
0.186031 0.185578 0.184152
0.119555 0.121491 0.123913
0.161267 0.162924 0.163297
0.165247 0.166266 0.165783
0.154381 0.154168 0.154054
0.129661 0.129976 0.127089
0.132500 0.132039 0.132223
0.126444 0.128552 0.135015
0.184512 0.186380 0.187897
0.049435 0.049402 0.049238
0.149048 0.149028 0.149057
0.139099 0.138599 0.138393
0.130151 0.130202 0.129795
0.122068 0.121434 0.121434
0.185910 0.185905 0.184047
0.108618 0.109643 0.110037
0.153021 0.152676 0.153521
0.164912 0.164614 0.164956
0.124509 0.124479 0.124638
0.092513 0.092237 0.092200
0.139778 0.139958 0.139722
0.046878 0.047008 0.047529
0.088069 0.088302 0.089763
0.146676 0.141924 0.141976
0.146173 0.143802 0.143845
0.092721 0.092314 0.092167
0.114567 0.116699 0.116862
0.131037 0.130802 0.130236
0.138265 0.138126 0.138191
0.144423 0.144501 0.146075
0.219861 0.218058 0.218214
0.051267 0.050906 0.050457
0.176420 0.176722 0.177233
0.074167 0.075018 0.082459
0.131536 0.133025 0.133599
0.081495 0.086988 0.091288
0.134231 0.134407 0.134580
0.127448 0.127070 0.127170
0.149784 0.149823 0.149870
0.157522 0.157323 0.157459
0.142797 0.140647 0.145329
0.133383 0.133566 0.133537
0.118928 0.120654 0.123486
0.177259 0.177216 0.176940
0.147041 0.144353 0.144704
0.047154 0.047460 0.046942
0.165130 0.166570 0.167271
0.146067 0.149114 0.149108
0.148262 0.148409 0.148456
0.115596 0.114937 0.113834
0.174897 0.174211 0.173023
0.145319 0.141557 0.140016
0.169250 0.169037 0.169499
0.122094 0.125738 0.125383
0.131115 0.131593 0.132621
0.193412 0.195567 0.195433
0.105408 0.105346 0.105129
0.075011 0.074650 0.075123
0.128520 0.128624 0.128669
0.133796 0.133785 0.135295
0.048533 0.048812 0.049355
0.126639 0.127459 0.128052
0.169679 0.169306 0.165191
0.130759 0.130893 0.128495
0.130913 0.130790 0.131074
0.159669 0.160905 0.161330
0.157245 0.160232 0.160044
0.130208 0.127212 0.126071
0.084478 0.084728 0.086783
0.159347 0.159071 0.157820
0.092808 0.093826 0.094182
0.125354 0.125116 0.125267
0.090350 0.090533 0.090381
0.100428 0.109948 0.109213
0.148042 0.151192 0.151224
0.121328 0.121831 0.118497
0.117136 0.117140 0.116744
0.129897 0.129966 0.130015
0.089152 0.091676 0.087560
0.081516 0.081205 0.080369
0.098700 0.099935 0.100052
0.117152 0.117126 0.116900
0.142272 0.147904 0.152705
0.133819 0.135494 0.135633
0.220416 0.220583 0.220287
0.079473 0.079721 0.083405
0.133808 0.133802 0.135408
0.170084 0.169762 0.168379
0.135621 0.130208 0.127714
0.179352 0.180738 0.183177
0.121125 0.120349 0.122109
0.166660 0.158382 0.156346
0.084499 0.084939 0.085908
0.135904 0.135324 0.132649
0.162432 0.162708 0.162934
0.111525 0.110227 0.110549
0.129219 0.127693 0.128175
0.127819 0.128275 0.127516
0.096951 0.096639 0.096499
0.219242 0.219312 0.219456
0.107459 0.106211 0.106411
0.137263 0.137838 0.137905
0.140691 0.137707 0.136423
0.085974 0.086353 0.086213
0.157689 0.161620 0.165040
0.220496 0.219572 0.219311
0.132024 0.131914 0.131853
0.146175 0.146258 0.146369
0.145109 0.145288 0.145672
0.173662 0.172140 0.159840
0.161643 0.161765 0.161764
0.149164 0.148967 0.147565
0.128854 0.126688 0.124300
0.157964 0.157832 0.157765
0.151142 0.151195 0.151961
0.157948 0.158519 0.158219
0.157930 0.158167 0.157944
0.130856 0.131034 0.131927
0.082264 0.079245 0.079153
0.087804 0.088421 0.089390
0.124404 0.124325 0.124357
0.145029 0.146133 0.146483
0.101535 0.101487 0.101854
0.202716 0.205169 0.210925
0.171412 0.172675 0.171120
0.141646 0.142051 0.142643
0.172321 0.173202 0.175584
0.129073 0.129227 0.129426
0.105029 0.105864 0.105710
0.174826 0.154261 0.153205
0.157815 0.157917 0.158368
0.111493 0.113505 0.113403
0.124947 0.124058 0.122928
0.086165 0.085886 0.085965
0.120020 0.120238 0.120108
0.176687 0.177121 0.178874
0.120668 0.120589 0.120596
0.095824 0.095830 0.095652
0.080477 0.080361 0.080262
0.191956 0.194952 0.195479
0.163399 0.163237 0.162676
0.201302 0.202246 0.203087
0.153535 0.155450 0.157932
0.121841 0.122132 0.122095
0.186733 0.187085 0.187069
0.127138 0.129360 0.126846
0.149330 0.148683 0.149012
0.122120 0.122360 0.122931
0.108187 0.107416 0.103708
0.150796 0.151871 0.150004
0.158080 0.156385 0.155738
0.180039 0.178871 0.181044
0.092559 0.092323 0.092428
0.116213 0.117758 0.117642
0.075314 0.076123 0.076388
0.164819 0.164359 0.163050
0.118467 0.119899 0.121629
0.174129 0.173776 0.173347
0.131654 0.130958 0.129934
0.205619 0.203790 0.203076
0.083190 0.083992 0.084547
0.117731 0.118291 0.118812
0.098103 0.097672 0.092985
0.156103 0.156401 0.157437
0.147384 0.146985 0.146473
0.049266 0.049442 0.049821
0.126572 0.126963 0.127625
0.170188 0.170576 0.171434
0.129683 0.129760 0.129702
0.165489 0.164782 0.164029
0.139797 0.139666 0.139405
0.152327 0.152933 0.153495
0.154257 0.154178 0.154033
0.119409 0.119311 0.118250
0.137414 0.137330 0.137180
0.079625 0.083199 0.083789
0.144165 0.144216 0.148018
0.125561 0.126989 0.131217
0.165666 0.165631 0.165736
0.154283 0.154733 0.156826
0.219753 0.218770 0.218068
0.109738 0.109142 0.108903
0.116761 0.116858 0.116847
0.119123 0.119062 0.118987
0.127855 0.128035 0.128317
0.136041 0.135537 0.135611
0.155600 0.154330 0.157173
0.140606 0.142274 0.142492
0.097802 0.098734 0.098878
0.170762 0.169565 0.171393
0.130865 0.130661 0.130756
0.175729 0.176499 0.177024
0.157918 0.157771 0.158060
0.187297 0.187232 0.187278
0.149529 0.149516 0.149525
0.121991 0.122042 0.122317
0.165496 0.165050 0.162836
0.118900 0.120717 0.122441
0.149967 0.153612 0.154646
0.125239 0.125304 0.125348
0.158035 0.158053 0.158035
0.149533 0.149578 0.149594
0.122832 0.123396 0.120512
0.099452 0.098806 0.098086
0.161833 0.164178 0.170789
0.159689 0.159780 0.159815
0.086407 0.086309 0.085556
0.143923 0.143432 0.142901
0.123764 0.123914 0.123809
0.190187 0.189746 0.189134
0.089050 0.089603 0.096316
0.217318 0.217462 0.218132
0.157738 0.150376 0.150458
0.173347 0.173149 0.173143
0.171859 0.172413 0.174067
0.112286 0.110828 0.110659
0.131683 0.129871 0.129946
0.080409 0.079501 0.079461
0.121034 0.120990 0.121140
0.128115 0.128836 0.129980
0.132192 0.132909 0.135263
0.103048 0.103127 0.103670
0.047582 0.047661 0.047695
0.154999 0.155000 0.154977
0.155696 0.156540 0.155691
0.096645 0.096981 0.097051
0.132682 0.130423 0.131587
0.118113 0.118135 0.115076
0.138379 0.137936 0.137632
0.128924 0.129287 0.129304
0.117160 0.116979 0.117257
0.151068 0.150807 0.150536
0.046655 0.046578 0.046232
0.128520 0.128314 0.128068
0.132684 0.132424 0.132621
0.088598 0.088634 0.088828
0.104368 0.105886 0.118840
0.133886 0.131836 0.131864
0.132938 0.134990 0.140576
0.044925 0.044879 0.044543
0.088160 0.087823 0.087823
0.139257 0.138163 0.138141
0.117740 0.116845 0.113001
0.219065 0.219962 0.220812
0.123781 0.122626 0.125541
0.152441 0.150365 0.149799
0.050133 0.050270 0.050464
0.097642 0.098308 0.098460
0.109638 0.109398 0.109333
0.150004 0.145950 0.145889
0.144892 0.144633 0.144478
0.109201 0.110931 0.116857
0.158362 0.158306 0.157985
0.133512 0.133798 0.133865
0.160715 0.160734 0.160665
0.094287 0.089778 0.089128
0.111289 0.112177 0.112032
0.164755 0.164544 0.163707
0.139382 0.136227 0.136570
0.211762 0.186988 0.186149
0.110946 0.111712 0.103001
0.106344 0.106242 0.106205
0.097711 0.097167 0.097118
0.092970 0.094511 0.094597
0.096561 0.096257 0.096232
0.145544 0.146848 0.148071
0.048656 0.048625 0.048464
0.122567 0.123670 0.124340
0.164916 0.165103 0.163447
0.157749 0.161599 0.165524
0.147134 0.150603 0.151128
0.146527 0.143520 0.140024
0.101757 0.096153 0.095740
0.169906 0.169804 0.169921
0.119097 0.121022 0.121482
0.136386 0.136537 0.139418
0.155850 0.155803 0.157611
0.151024 0.152626 0.152946
0.184183 0.183750 0.174225
0.153215 0.153627 0.154843
0.121469 0.121823 0.122093
0.086340 0.085278 0.085577
0.134431 0.133962 0.129094
0.123683 0.123378 0.122373
0.087323 0.087354 0.087736
0.157889 0.157982 0.159634
0.138779 0.137978 0.137676
0.151940 0.152169 0.152005
0.121271 0.121391 0.122843
0.116105 0.116368 0.117116
0.132627 0.132439 0.132433
0.120799 0.120336 0.120634
0.047558 0.047684 0.047474
0.141683 0.141861 0.141438
0.154807 0.154173 0.155089
0.186873 0.184252 0.171380
0.128161 0.127018 0.124951
0.088048 0.088160 0.087823
0.171593 0.172154 0.172378
0.051157 0.051132 0.051097
0.107822 0.107564 0.107268
0.137306 0.136120 0.135887
0.156988 0.157194 0.157454
0.142528 0.142513 0.142490
0.152685 0.152885 0.154234
0.095487 0.095374 0.090678
0.128530 0.128389 0.129905
0.143873 0.144652 0.145875
0.158958 0.158915 0.158026
0.048010 0.047764 0.047078
0.122979 0.123304 0.124815
0.076177 0.075693 0.075346
0.085505 0.085474 0.085683
0.145104 0.145516 0.149853
0.128088 0.128140 0.128719
0.132949 0.134093 0.134224
0.142325 0.142294 0.142369
0.090385 0.090736 0.090655
0.128893 0.128852 0.129127
0.126588 0.127391 0.127702
0.156473 0.156490 0.156737
0.089950 0.089982 0.090157
0.078878 0.078682 0.078674
0.142470 0.142623 0.142857
0.047678 0.047960 0.048040
0.108868 0.113679 0.113978
0.153625 0.161185 0.162181
0.050044 0.050365 0.050025
0.179376 0.179648 0.175207
0.086439 0.086242 0.086147
0.093706 0.093948 0.094040
0.089964 0.090008 0.089966
0.154981 0.155650 0.155981
0.137878 0.138278 0.138440
0.187494 0.186502 0.182578
0.081531 0.081510 0.081964
0.145630 0.144825 0.145723
0.123166 0.123724 0.123960
0.048190 0.048390 0.047953
0.203872 0.190941 0.186141
0.137584 0.137765 0.137833
0.159585 0.159816 0.159758
0.047884 0.047836 0.048078
0.126131 0.126782 0.126852
0.050127 0.050767 0.050561
0.129957 0.130238 0.130320
0.146132 0.146386 0.146180
0.131578 0.132340 0.133583
0.138470 0.137901 0.136895
0.150069 0.150495 0.151749
0.166038 0.167696 0.167438
0.049821 0.049722 0.049264
0.128239 0.128292 0.127306
0.140286 0.140359 0.139991
0.215900 0.218861 0.221642
0.135136 0.135113 0.134773
0.050162 0.050188 0.049741
0.173167 0.171963 0.170042
0.108851 0.108901 0.108700
0.140697 0.143779 0.144978
0.125887 0.118562 0.118013
0.046190 0.046390 0.046417
0.124985 0.124475 0.124438
0.151145 0.151172 0.150540
0.084536 0.085507 0.092317
0.132589 0.132641 0.132359
0.139908 0.140216 0.139202
0.168123 0.167680 0.167400
0.054957 0.055955 0.056728
0.112212 0.112286 0.110828
0.079011 0.079547 0.080893
0.135748 0.141754 0.141763
0.138721 0.138606 0.137578
0.137706 0.138144 0.138211
0.088902 0.088783 0.088666
0.142619 0.138612 0.138224
0.093712 0.094376 0.094274
0.184978 0.185015 0.184883
0.153831 0.153576 0.150335
0.114532 0.114117 0.114544
0.095477 0.095655 0.096173
0.095296 0.095170 0.095040
0.132533 0.133611 0.138088
0.153240 0.153198 0.153234
0.124125 0.125823 0.126435
0.088963 0.089987 0.090736
0.088342 0.088813 0.088837
0.212894 0.213914 0.214023
0.093489 0.092731 0.092756
0.048920 0.049344 0.049266
0.170960 0.170441 0.170294
0.172831 0.173323 0.173283
0.173281 0.173557 0.171195
0.186942 0.187114 0.187132
0.161275 0.162102 0.163919
0.101775 0.101695 0.101315
0.101472 0.102792 0.102529
0.147150 0.147256 0.145957
0.113510 0.116474 0.116065
0.138019 0.137625 0.137812
0.142164 0.140442 0.139877
0.148056 0.149896 0.152363
0.093504 0.092971 0.092971
0.101073 0.094864 0.096927
0.143867 0.143882 0.143463
0.129812 0.130023 0.131000
0.175091 0.175307 0.175544
