0.272252 0.274214 0.274769
0.287349 0.287507 0.288886
0.198181 0.198892 0.200561
0.237565 0.238263 0.236722
0.176728 0.175528 0.175848
0.194942 0.195871 0.197273
0.281428 0.279637 0.278158
0.189348 0.189043 0.190500
0.276296 0.275272 0.276134
0.310438 0.315627 0.319212
0.182794 0.182161 0.182429
0.273430 0.278815 0.278908
0.174749 0.173636 0.169290
0.241406 0.241452 0.241858
0.304189 0.304288 0.304581
0.284712 0.286551 0.291772
0.274217 0.274963 0.274899
0.190481 0.191111 0.190617
0.198651 0.195793 0.195125
0.198100 0.198166 0.198440
0.204194 0.202860 0.201045
0.278952 0.280048 0.281887
0.198816 0.198934 0.197339
0.196304 0.196865 0.191830
0.186005 0.184766 0.185053
0.292609 0.292080 0.290938
0.286251 0.285529 0.285627
0.277427 0.279243 0.278664
0.248263 0.247716 0.247270
0.286944 0.287074 0.287751
0.233651 0.233723 0.232876
0.263794 0.262673 0.260048
0.273287 0.273446 0.274214
0.272995 0.271442 0.271318
0.189258 0.191091 0.192071
0.197496 0.198208 0.198252
0.186963 0.186403 0.186448
0.206025 0.208032 0.208530
0.203955 0.201284 0.201442
0.254392 0.255860 0.256307
0.194298 0.197668 0.195712
0.198293 0.199034 0.198496
0.248130 0.247334 0.249811
0.290179 0.286717 0.287619
0.193719 0.193691 0.190823
0.179862 0.180317 0.180631
0.202539 0.202314 0.203399
0.220215 0.219384 0.213100
0.294831 0.276238 0.273797
0.174655 0.174987 0.173303
0.197337 0.196979 0.199166
0.247833 0.243802 0.244843
0.265887 0.263476 0.263517
0.196028 0.196236 0.196656
0.286857 0.285524 0.285146
0.338096 0.337697 0.340732
0.268124 0.268142 0.274764
0.286918 0.287781 0.285759
0.190598 0.189751 0.189802
0.298311 0.296663 0.295564
0.274020 0.273742 0.273275
0.186542 0.185639 0.185934
0.161853 0.161405 0.160791
0.215072 0.214892 0.214672
0.215898 0.216421 0.217459
0.278027 0.277695 0.277036
0.165284 0.165184 0.166620
0.280296 0.281173 0.279886
0.276625 0.277282 0.284276
0.223445 0.223891 0.225429
0.287694 0.288890 0.288708
0.253822 0.254096 0.255577
0.285520 0.286877 0.287033
0.290565 0.290022 0.289229
0.197247 0.198788 0.198461
0.275453 0.275873 0.276067
0.175171 0.173890 0.174306
0.175762 0.175696 0.176542
0.252260 0.249627 0.248449
0.177357 0.177025 0.177765
0.197639 0.197999 0.197171
0.270998 0.269515 0.267450
0.294348 0.301761 0.299384
0.179350 0.179354 0.177810
0.220899 0.228393 0.230302
0.256299 0.256136 0.255232
0.257214 0.258050 0.259478
0.317880 0.309810 0.284482
0.178968 0.179941 0.179932
0.182257 0.182815 0.182450
0.194368 0.189412 0.188360
0.272320 0.270985 0.271808
0.184208 0.182218 0.185419
0.176713 0.177115 0.177294
0.258325 0.257268 0.260596
0.272959 0.272150 0.273087
0.241792 0.242508 0.244013
0.177604 0.178163 0.179953
0.296161 0.294424 0.292621
0.269322 0.270367 0.270456
0.198328 0.199422 0.197782
0.272586 0.269670 0.267307
0.284485 0.284871 0.285562
0.271775 0.272080 0.271728
0.192306 0.192785 0.192723
0.257605 0.258216 0.259906
0.256905 0.249921 0.249728
0.189246 0.188926 0.189119
0.258678 0.260001 0.260211
0.272271 0.271841 0.269962
0.195161 0.194567 0.191790
0.192876 0.197096 0.196420
0.233745 0.233055 0.233150
0.202711 0.203935 0.203254
0.312670 0.326899 0.329458
0.250255 0.246707 0.243221
0.255437 0.252974 0.253663
0.278253 0.284122 0.284047
0.237057 0.237407 0.237644
0.196629 0.196480 0.198285
0.295278 0.295775 0.295791
0.202966 0.202941 0.202560
0.229071 0.228513 0.230642
0.242787 0.243603 0.241920
0.189419 0.189031 0.190074
0.275374 0.274811 0.274941
0.187289 0.187440 0.188449
0.243142 0.243504 0.243595
0.174320 0.174993 0.174292
0.263563 0.264052 0.263516
0.258887 0.260180 0.261023
0.288639 0.287874 0.288089
0.194486 0.192717 0.192088
0.248497 0.250816 0.251268
0.270824 0.271425 0.270831
0.244554 0.244250 0.240720
0.182224 0.183488 0.182230
0.185037 0.185197 0.183482
0.268298 0.268457 0.268248
0.182870 0.180752 0.179787
0.225290 0.225130 0.227758
0.191093 0.190706 0.190461
0.198026 0.199218 0.199781
0.263667 0.264033 0.263612
0.178059 0.178409 0.176401
0.272495 0.271923 0.271682
0.179932 0.180450 0.180560
0.196066 0.196227 0.193314
0.188260 0.189026 0.189451
0.256763 0.257386 0.257588
0.180066 0.180219 0.180466
0.241047 0.241643 0.241519
0.271085 0.271293 0.271307
0.196632 0.196170 0.194422
0.195749 0.194968 0.195229
0.209267 0.204639 0.198235
0.253527 0.252598 0.253155
0.191426 0.192455 0.192256
0.268166 0.263647 0.265607
0.183952 0.183815 0.183714
0.263549 0.262060 0.263843
0.270683 0.268292 0.264284
0.262012 0.264093 0.262786
0.224615 0.223767 0.224795
0.296107 0.298730 0.296060
0.258235 0.262046 0.261903
0.278235 0.279392 0.279363
0.294468 0.295727 0.297163
0.192026 0.193754 0.193930
0.199547 0.198543 0.198412
0.258497 0.260116 0.260635
0.249261 0.250852 0.251079
0.268428 0.264333 0.265360
0.187193 0.187726 0.187815
0.185219 0.187191 0.190559
0.182292 0.181691 0.180428
0.258266 0.254805 0.255907
0.274308 0.273466 0.275046
0.237477 0.235360 0.233993
0.298031 0.297611 0.296764
0.257323 0.259058 0.259132
0.244152 0.244718 0.245260
0.158957 0.158095 0.159375
0.169548 0.167476 0.167776
0.240562 0.239263 0.238659
0.223343 0.223142 0.223232
0.264692 0.264049 0.262174
0.198971 0.198901 0.199998
0.191586 0.192516 0.192697
0.191198 0.191599 0.191380
0.192464 0.189281 0.183242
0.232644 0.233389 0.230929
0.251949 0.257493 0.268313
0.253409 0.252740 0.252597
0.176075 0.179582 0.179769
0.280080 0.280485 0.278571
0.302000 0.301789 0.299107
0.259686 0.259189 0.257957
0.221247 0.223677 0.222445
0.263798 0.262003 0.259422
0.191124 0.189069 0.186551
0.187185 0.186301 0.185560
0.199991 0.198912 0.200918
0.283086 0.281354 0.280046
0.201649 0.201645 0.201371
0.274948 0.275746 0.275311
0.281231 0.282854 0.284102
0.333692 0.329974 0.330335
0.189182 0.189246 0.188926
0.183769 0.184830 0.184530
0.263274 0.262788 0.263280
0.268590 0.268291 0.268270
0.272761 0.273206 0.273167
0.199820 0.201421 0.201469
0.232458 0.233885 0.232614
0.181748 0.181381 0.181379
0.273381 0.269949 0.270224
0.169171 0.169053 0.169030
0.189138 0.190203 0.190928
0.178873 0.179337 0.179547
0.320037 0.320118 0.318222
0.269022 0.271393 0.271732
0.186149 0.186490 0.186006
0.237889 0.249599 0.255704
0.268118 0.266458 0.265029
0.197112 0.191914 0.191579
0.213996 0.213632 0.213500
0.267437 0.267729 0.267932
0.300259 0.300128 0.305108
0.211258 0.210331 0.209088
0.198811 0.195834 0.195691
0.274812 0.275256 0.275327
0.229323 0.232441 0.233264
0.203389 0.201542 0.200436
0.200256 0.198964 0.198158
0.263586 0.264526 0.265329
0.165014 0.165358 0.166826
0.239323 0.240449 0.240857
0.237362 0.238058 0.237094
0.271042 0.269337 0.268396
0.223141 0.223576 0.223460
0.198154 0.198382 0.197976
0.243653 0.244555 0.244474
0.204196 0.203329 0.204196
0.255287 0.255880 0.257745
0.168808 0.167093 0.168508
0.239483 0.240017 0.239802
0.210331 0.209088 0.208313
0.269904 0.266602 0.265518
0.264878 0.265734 0.264614
0.263941 0.264260 0.263175
0.276685 0.282129 0.287069
0.206463 0.206312 0.203913
0.200084 0.199529 0.198452
0.185759 0.185821 0.185198
0.248153 0.248075 0.249482
0.184459 0.188243 0.191440
0.243868 0.244772 0.244336
0.173378 0.174969 0.176490
0.190703 0.189990 0.188453
0.270689 0.268139 0.258189
0.297275 0.297734 0.296229
0.282205 0.280569 0.277005
0.203029 0.205053 0.206590
0.187209 0.187028 0.188355
0.177717 0.178371 0.183076
0.185277 0.184658 0.185019
0.175797 0.175698 0.176546
0.255396 0.255746 0.257008
0.208208 0.207904 0.207714
0.293568 0.293994 0.294153
0.169423 0.164255 0.163627
0.291351 0.292518 0.292519
0.185634 0.183625 0.185334
0.284553 0.284205 0.284071
0.360398 0.359219 0.356211
0.281850 0.288002 0.288116
0.178820 0.181413 0.180931
0.244988 0.244648 0.243664
0.262296 0.262111 0.258926
0.210264 0.210626 0.212157
0.296188 0.295603 0.296094
0.185813 0.185069 0.185601
0.173919 0.173655 0.169294
0.274286 0.273037 0.272784
0.193197 0.191161 0.189793
0.175380 0.175327 0.177383
0.193781 0.192301 0.192107
0.181394 0.180995 0.180884
0.290132 0.290989 0.292652
0.285513 0.281552 0.283739
0.205469 0.204364 0.203829
0.301729 0.301189 0.301349
0.227440 0.226321 0.225771
0.324895 0.323812 0.322181
0.261675 0.262603 0.264306
0.193162 0.193497 0.193350
0.262903 0.263225 0.262108
0.183375 0.183392 0.184191
0.196248 0.197154 0.197751
0.349447 0.348153 0.347825
0.274074 0.273967 0.275069
0.257363 0.257404 0.259988
0.159791 0.161016 0.161308
0.197717 0.198498 0.198541
0.255321 0.255413 0.255680
0.198932 0.199359 0.198329
0.234113 0.232554 0.232172
0.189650 0.191272 0.194283
0.254980 0.253989 0.253212
0.195157 0.195519 0.194184
0.185312 0.184447 0.184579
0.190153 0.191840 0.192100
0.308610 0.302698 0.301571
0.216766 0.237261 0.244846
0.188357 0.188217 0.187310
0.186826 0.186040 0.186571
0.187697 0.185983 0.187361
0.205963 0.206852 0.205912
0.186699 0.186774 0.184983
0.187269 0.187730 0.188391
0.201135 0.201095 0.200771
0.211796 0.212545 0.212095
0.185974 0.185957 0.185771
0.200266 0.199950 0.199128
0.256974 0.256964 0.258411
0.223278 0.223291 0.222736
0.262870 0.263299 0.263462
0.198407 0.196796 0.195283
0.232511 0.232394 0.232339
0.195093 0.193318 0.196059
0.233883 0.234122 0.234803
0.199208 0.199728 0.199969
0.315627 0.319212 0.322629
0.181453 0.181308 0.177282
0.294838 0.295353 0.294690
0.245983 0.245322 0.247593
0.301935 0.300466 0.298062
0.195289 0.194404 0.193498
0.188213 0.187864 0.185231
0.233356 0.233447 0.232519
0.183836 0.183812 0.184489
0.270124 0.270563 0.270481
0.183849 0.183911 0.184552
0.271772 0.272233 0.272575
0.270827 0.269890 0.268818
0.189635 0.188375 0.188505
0.308986 0.309666 0.309975
0.293605 0.295662 0.297138
0.198672 0.198600 0.198872
0.245443 0.244215 0.243606
0.185206 0.186639 0.186000
0.280956 0.263376 0.252617
0.183670 0.180095 0.180703
0.254933 0.251659 0.249545
0.185458 0.186030 0.185287
0.262519 0.262363 0.261917
0.332747 0.344109 0.345727
0.194563 0.194076 0.196021
0.201769 0.201732 0.199444
0.282062 0.281377 0.279730
0.306305 0.300530 0.299090
0.272095 0.272644 0.268759
0.222734 0.223556 0.223016
0.215035 0.215406 0.214998
0.201777 0.202382 0.202217
0.182856 0.182358 0.183104
0.253565 0.249874 0.244010
0.177675 0.177839 0.177682
0.200756 0.199885 0.198452
0.191090 0.192667 0.192477
0.266187 0.271603 0.273030
0.197175 0.196778 0.197930
0.248334 0.254885 0.253541
0.257482 0.255872 0.255784
0.284656 0.283647 0.281346
0.188694 0.188546 0.187294
0.260995 0.261057 0.256053
0.285889 0.287052 0.287309
0.179289 0.179224 0.179295
0.190394 0.188984 0.182379
0.175432 0.178332 0.179627
0.256765 0.259591 0.260520
0.304901 0.306307 0.307338
0.181972 0.182854 0.182958
0.294876 0.294532 0.293980
0.185563 0.186267 0.185822
0.242001 0.241159 0.240574
0.193243 0.193225 0.191535
0.192255 0.191942 0.191985
0.272007 0.270455 0.280331
0.259912 0.260431 0.261612
0.209528 0.210525 0.209434
0.322771 0.320661 0.320781
0.191476 0.191638 0.188659
0.190500 0.191439 0.193017
0.228708 0.226829 0.226885
0.340669 0.340892 0.340787
0.265906 0.265748 0.265220
0.262060 0.263843 0.264040
0.258635 0.257695 0.258448
0.307465 0.306509 0.304458
0.265529 0.265211 0.263653
0.272158 0.271704 0.270204
0.279822 0.278968 0.278267
0.284370 0.280967 0.279941
0.254885 0.258490 0.260707
0.295402 0.297303 0.297318
0.279640 0.284277 0.283844
0.263441 0.255496 0.251211
0.234602 0.236558 0.236729
0.255915 0.255638 0.254959
0.204737 0.204315 0.203165
0.165569 0.165327 0.165780
0.261016 0.257581 0.258894
0.185606 0.186348 0.183575
0.192501 0.192308 0.193062
0.178796 0.177547 0.176397
0.256739 0.254656 0.250435
0.263924 0.264904 0.266240
0.216419 0.213289 0.213354
0.293139 0.292501 0.292624
0.290403 0.293768 0.297618
0.209649 0.209194 0.205625
0.185786 0.185873 0.185112
0.274691 0.290162 0.292749
0.164515 0.166369 0.166438
0.249681 0.250003 0.247321
0.265514 0.278989 0.284098
0.265125 0.264601 0.265769
0.279051 0.279920 0.278229
0.281542 0.280493 0.280383
0.268283 0.268397 0.268236
0.188282 0.188221 0.188819
0.193932 0.194580 0.194233
0.190071 0.190694 0.188214
0.184034 0.183293 0.183238
0.263211 0.263184 0.263837
0.277695 0.277036 0.277085
0.164051 0.164474 0.167634
0.275338 0.273738 0.273949
0.191534 0.188232 0.187269
0.320735 0.321232 0.318681
0.299030 0.303212 0.298996
0.278937 0.281421 0.284147
0.320286 0.318427 0.319560
0.243258 0.243778 0.243932
0.184335 0.184358 0.186292
0.285548 0.286839 0.285780
0.184214 0.185155 0.184739
0.279606 0.275233 0.274654
0.287667 0.288571 0.287656
0.268104 0.267910 0.268280
0.336706 0.339501 0.342112
0.274186 0.273274 0.272827
0.190438 0.190095 0.190444
0.198917 0.197482 0.194470
0.234395 0.237408 0.239181
0.287175 0.290265 0.292203
0.217868 0.217179 0.217407
0.203942 0.203229 0.203534
0.273249 0.274883 0.274280
0.191446 0.191693 0.192973
0.191769 0.191874 0.192249
0.250014 0.247068 0.245813
0.189528 0.187432 0.187883
0.302925 0.301739 0.301899
0.269543 0.267133 0.265952
0.198129 0.195788 0.196624
0.267307 0.268258 0.266410
0.260482 0.258841 0.260567
0.192052 0.193908 0.195456
0.278499 0.276953 0.274898
0.264133 0.262561 0.261903
0.265798 0.265853 0.265374
0.290754 0.288957 0.286741
0.273484 0.273921 0.273995
0.253438 0.256890 0.252652
0.270019 0.269218 0.269681
0.244393 0.244460 0.243068
0.311873 0.310446 0.310564
0.308024 0.306732 0.305167
0.238665 0.238663 0.238786
0.256114 0.260727 0.263007
0.257081 0.256881 0.256913
0.186253 0.186255 0.187904
0.214331 0.214711 0.211417
0.216359 0.217376 0.215473
0.211018 0.214493 0.214800
0.270058 0.269610 0.267607
0.197555 0.196651 0.197335
0.254821 0.252804 0.253598
0.371224 0.369322 0.368707
0.284066 0.282424 0.279604
0.288164 0.287841 0.287210
0.327439 0.328519 0.333707
0.272029 0.270503 0.277777
0.267091 0.266339 0.266307
0.186725 0.187931 0.187775
0.232097 0.235596 0.237187
0.197298 0.197074 0.195191
0.180758 0.180794 0.181738
0.179892 0.179692 0.181140
0.201176 0.198952 0.195486
0.192058 0.192811 0.195440
0.281063 0.280543 0.280303
0.268824 0.267322 0.269557
0.263063 0.269826 0.269863
0.184539 0.186564 0.186732
0.211774 0.211537 0.211272
0.262679 0.265754 0.264730
0.190232 0.190045 0.189141
0.278477 0.278383 0.281701
0.265215 0.263220 0.263001
0.291865 0.292205 0.291393
0.198818 0.199271 0.198566
0.176498 0.176398 0.176777
0.296914 0.296974 0.296229
0.198847 0.198723 0.193792
0.277352 0.282696 0.291985
0.283061 0.282634 0.282416
0.157899 0.157604 0.157093
0.196787 0.197621 0.198041
0.283170 0.285614 0.288238
0.257126 0.256717 0.255332
0.194136 0.193797 0.194774
0.342965 0.341868 0.341142
0.289303 0.289046 0.286735
0.289298 0.291498 0.290980
0.191688 0.192683 0.192501
0.278860 0.274912 0.278387
0.230227 0.224199 0.224180
0.188302 0.189186 0.190674
0.212479 0.209570 0.208153
0.292582 0.292556 0.291229
0.237221 0.237222 0.238256
0.159922 0.159538 0.158697
0.190191 0.189403 0.188760
0.176741 0.179764 0.181299
0.270249 0.271246 0.271627
0.330131 0.332510 0.334114
0.274122 0.268772 0.267663
0.171460 0.169783 0.169094
0.231536 0.231813 0.233995
0.287981 0.287347 0.287211
0.281137 0.283812 0.285312
0.187450 0.187549 0.184481
0.270774 0.271175 0.272356
0.193570 0.194596 0.195197
0.184072 0.183210 0.182954
0.199416 0.200043 0.200027
0.369406 0.369730 0.369459
0.280583 0.279193 0.277075
0.364539 0.366475 0.369648
0.258551 0.259168 0.260211
0.193285 0.192953 0.192923
0.273738 0.274224 0.274615
0.263324 0.263438 0.261337
0.250973 0.247961 0.249462
0.293472 0.290662 0.290130
0.189478 0.191227 0.193118
0.190088 0.190509 0.188826
0.222654 0.223824 0.227584
0.234663 0.233963 0.234181
0.244609 0.244642 0.244309
0.330570 0.337855 0.339671
0.265879 0.265761 0.268372
0.182788 0.183016 0.182162
0.184864 0.183519 0.180805
0.240220 0.240161 0.239416
0.189500 0.188813 0.188927
0.252418 0.254389 0.256320
0.188529 0.187450 0.187549
0.273085 0.274472 0.275507
0.203658 0.204241 0.204015
0.201354 0.202589 0.201531
0.169533 0.168788 0.166730
0.221925 0.223697 0.227094
0.276335 0.275009 0.274778
0.224270 0.223587 0.224034
0.332225 0.324084 0.324173
0.257383 0.255470 0.252370
0.265580 0.264197 0.265150
0.260955 0.258850 0.259747
0.214884 0.212286 0.212103
0.231759 0.232233 0.232858
0.223200 0.223150 0.223500
0.289607 0.288834 0.287494
0.267441 0.267516 0.267638
0.261641 0.261257 0.262187
0.209072 0.204313 0.198725
0.241139 0.241222 0.241685
0.295505 0.295548 0.294148
0.273146 0.272960 0.269376
0.272960 0.271698 0.270232
0.278493 0.277410 0.276587
0.292034 0.290638 0.288029
0.186025 0.185838 0.184831
0.180398 0.181610 0.178671
0.188677 0.188255 0.188974
0.258527 0.258029 0.256874
0.299516 0.300249 0.303935
0.284007 0.282832 0.281181
0.186169 0.187111 0.189394
0.288186 0.291923 0.293077
0.263259 0.264161 0.258696
0.297662 0.296471 0.287575
0.323980 0.327537 0.327896
0.190763 0.190662 0.187277
0.259890 0.259121 0.259800
0.271610 0.272778 0.273422
0.294948 0.297326 0.298909
0.212669 0.212246 0.208799
0.271872 0.271607 0.270215
0.264053 0.263543 0.263263
0.190930 0.190221 0.191112
0.194505 0.193981 0.194002
0.194059 0.194607 0.194482
0.194168 0.193876 0.193332
0.185325 0.184180 0.183900
0.193430 0.193961 0.193086
0.254504 0.257494 0.258209
0.282078 0.282036 0.281195
0.181015 0.181435 0.181288
0.181182 0.177492 0.177509
0.192162 0.192296 0.190701
0.261143 0.264454 0.264065
0.271615 0.268502 0.268976
0.230014 0.229472 0.228617
0.275361 0.274644 0.274347
0.200411 0.200985 0.200035
0.199781 0.198715 0.199076
0.224331 0.223776 0.224051
0.333690 0.331264 0.329932
0.187464 0.186130 0.185179
0.188455 0.190236 0.190982
0.264335 0.266102 0.268272
0.270783 0.273786 0.272011
0.229237 0.231233 0.231972
0.257004 0.256682 0.258379
0.216330 0.215641 0.215459
0.275808 0.275778 0.275826
0.253163 0.248988 0.245039
0.188028 0.187983 0.188032
0.181497 0.183098 0.183865
0.187051 0.186870 0.188515
0.281367 0.281479 0.277375
0.204755 0.206807 0.209005
0.357845 0.359542 0.358423
0.275691 0.276097 0.277969
0.192522 0.192978 0.194193
0.213871 0.219060 0.216929
0.181520 0.183623 0.183605
0.267127 0.266460 0.267015
0.275791 0.276205 0.276235
0.175748 0.176593 0.176868
0.174697 0.175523 0.175937
0.289952 0.289541 0.289500
0.192634 0.192722 0.192244
0.180550 0.186092 0.186096
0.234348 0.235537 0.235250
0.189130 0.189387 0.191197
0.194730 0.192598 0.192385
0.231701 0.231247 0.228630
0.271391 0.272227 0.268742
0.244708 0.241782 0.241516
0.189808 0.188453 0.187349
0.293246 0.292573 0.291126
0.193583 0.193693 0.193115
0.191912 0.191691 0.190256
0.273617 0.273032 0.271275
0.196357 0.196605 0.196155
0.188732 0.190169 0.191630
0.182119 0.181493 0.178588
0.213438 0.213571 0.214137
0.201584 0.202247 0.202360
0.301238 0.302442 0.302314
0.284341 0.284370 0.280967
0.255291 0.257722 0.259865
0.264603 0.262790 0.263974
0.286529 0.286443 0.285964
0.266306 0.265414 0.265334
0.202616 0.204957 0.205772
0.192693 0.192812 0.192749
0.194418 0.198842 0.194580
0.255235 0.256354 0.255793
0.287266 0.285147 0.278684
0.176226 0.176851 0.174660
0.229456 0.229053 0.228404
0.244707 0.244550 0.247020
0.180071 0.180474 0.180052
0.207382 0.207712 0.208784
0.269019 0.269655 0.268321
0.192197 0.194058 0.193956
0.188506 0.189052 0.191076
0.267618 0.268388 0.268990
0.198579 0.199330 0.198274
0.180462 0.181520 0.183623
0.256261 0.257117 0.256881
0.194218 0.197247 0.198788
0.188120 0.180976 0.181911
0.223716 0.223782 0.222615
0.273434 0.271657 0.272364
0.190478 0.190666 0.190347
0.362340 0.366183 0.368120
0.236511 0.235951 0.234041
0.270454 0.268435 0.268325
0.196041 0.195104 0.198249
0.185932 0.186125 0.185843
0.202927 0.203274 0.202905
0.267782 0.267216 0.267528
0.200336 0.199680 0.196908
0.253100 0.254622 0.253864
0.261573 0.261552 0.260462
0.194353 0.195371 0.195567
0.175880 0.174845 0.174288
0.175468 0.174749 0.173636
0.182753 0.181811 0.178271
0.260624 0.260928 0.264692
0.281562 0.281479 0.280929
0.185197 0.185179 0.185191
0.185577 0.188246 0.188981
0.195823 0.194881 0.198128
0.274087 0.267889 0.262881
0.202839 0.201072 0.199103
0.247337 0.246707 0.244629
0.236024 0.236773 0.236536
0.170828 0.170843 0.170280
0.182897 0.181685 0.181333
0.186799 0.187768 0.187733
0.231349 0.229935 0.228862
0.255934 0.255526 0.253817
0.260727 0.260411 0.261398
0.278433 0.279584 0.280279
0.189434 0.190582 0.189673
0.252546 0.250815 0.249496
0.290093 0.291157 0.291238
0.280701 0.279046 0.279566
0.351283 0.350996 0.349490
0.180881 0.180036 0.180398
0.235596 0.237187 0.248911
0.276838 0.276706 0.273951
0.197834 0.196964 0.197891
0.290676 0.290001 0.290594
0.272417 0.274287 0.285198
0.297714 0.298972 0.299823
0.213855 0.214824 0.213726
0.266065 0.267856 0.270295
0.271334 0.272463 0.270919
0.281985 0.282034 0.284719
0.288367 0.287292 0.286832
0.283733 0.283381 0.282891
0.271558 0.271021 0.264635
0.273753 0.271530 0.270514
0.187733 0.188260 0.189026
0.192887 0.191852 0.192618
0.291462 0.291768 0.289556
0.264936 0.262916 0.261204
0.228675 0.230210 0.230450
0.258030 0.259789 0.260664
0.250244 0.249517 0.249128
0.241627 0.241895 0.241442
0.187345 0.186873 0.187207
0.291245 0.289823 0.289211
0.221428 0.223748 0.224181
0.195157 0.193343 0.194617
0.192179 0.191112 0.190626
0.257590 0.261207 0.263255
0.331017 0.339517 0.340721
0.254312 0.254025 0.252735
0.196591 0.195483 0.194533
0.273615 0.273367 0.273146
0.247806 0.241654 0.242287
0.277925 0.276690 0.275517
0.194072 0.193852 0.193989
0.270424 0.272080 0.270250
0.246143 0.252722 0.253702
0.186013 0.185330 0.185679
0.186328 0.187803 0.184713
0.277216 0.274353 0.273572
0.237717 0.235912 0.234832
0.181281 0.181218 0.179662
0.264015 0.263464 0.262394
0.199272 0.196739 0.195892
0.246537 0.246759 0.247092
0.281040 0.266780 0.262700
0.250992 0.251831 0.252225
0.192326 0.194418 0.198842
0.197099 0.197753 0.198231
0.192295 0.191687 0.191734
0.258427 0.255658 0.255807
0.240906 0.237401 0.237218
0.286284 0.286128 0.287119
0.195891 0.195125 0.196311
0.203784 0.203789 0.203282
0.247537 0.247286 0.248083
0.194476 0.198640 0.198079
0.230070 0.230101 0.222347
0.180965 0.182830 0.183650
0.296033 0.294037 0.293412
0.290066 0.292460 0.291587
0.205949 0.207183 0.220431
0.297414 0.297878 0.298592
0.168508 0.165821 0.164342
0.220541 0.217837 0.216964
0.194059 0.193122 0.191011
0.204045 0.204174 0.205026
0.172329 0.172610 0.176903
0.250157 0.249396 0.248282
0.244195 0.243900 0.243960
0.270180 0.270350 0.270424
0.331587 0.331296 0.331506
0.217256 0.215886 0.219016
0.288529 0.287730 0.286719
0.223882 0.224899 0.224965
0.269103 0.267543 0.264936
0.188443 0.189552 0.190075
0.264608 0.265474 0.264804
0.286397 0.287228 0.288652
0.277837 0.278227 0.277810
0.215781 0.214920 0.215339
0.193588 0.194594 0.195223
0.280895 0.283917 0.283814
0.306979 0.306938 0.307192
0.195575 0.194588 0.193272
0.198287 0.196758 0.195211
0.253541 0.253647 0.252915
0.261764 0.260665 0.260489
0.249919 0.250752 0.250159
0.272303 0.273281 0.273781
0.188307 0.184736 0.183561
0.352647 0.356030 0.353965
0.191368 0.191736 0.191299
0.178366 0.179161 0.178862
0.192862 0.194419 0.198804
0.319287 0.320602 0.322664
0.199886 0.198672 0.198600
0.197728 0.196024 0.195844
0.169063 0.169442 0.167938
0.176187 0.176017 0.176723
0.176465 0.177059 0.178749
0.205664 0.204583 0.202546
0.190559 0.191107 0.194036
0.322325 0.319601 0.313928
0.213581 0.214211 0.213662
0.240201 0.240239 0.238759
0.248386 0.250347 0.250692
0.178744 0.178634 0.180512
0.257007 0.256370 0.255493
0.307034 0.306577 0.307097
0.218051 0.218173 0.216057
0.191503 0.191456 0.192389
0.265421 0.269171 0.270681
0.192375 0.191260 0.193323
0.221266 0.220409 0.221642
0.202397 0.203345 0.202428
0.283300 0.283691 0.283034
0.264040 0.264700 0.265000
0.200464 0.199780 0.199885
0.181999 0.181324 0.181639
0.177090 0.175360 0.175427
0.286959 0.285780 0.285657
0.267842 0.271231 0.272209
0.217833 0.218116 0.218076
0.164858 0.166306 0.165930
0.259658 0.259307 0.263046
0.202255 0.201856 0.200142
0.248952 0.249071 0.248115
0.259770 0.258480 0.257309
0.269958 0.273524 0.276275
0.194745 0.196613 0.196450
0.213336 0.213795 0.214465
0.175067 0.175376 0.174552
0.258379 0.255523 0.255084
0.244357 0.242342 0.242476
0.197035 0.197840 0.198110
0.180439 0.180509 0.181747
0.245374 0.245797 0.247717
0.176190 0.175532 0.174598
0.268687 0.263825 0.263876
0.215706 0.214508 0.212052
0.240446 0.239383 0.238968
0.269962 0.269337 0.267549
0.197882 0.200086 0.201793
0.171599 0.170052 0.170869
0.247461 0.248110 0.249447
0.174996 0.175270 0.175292
0.276591 0.276600 0.276359
0.190485 0.191004 0.191069
0.242605 0.244040 0.243960
0.174540 0.175650 0.176348
0.284697 0.285449 0.284818
0.196059 0.197153 0.196399
0.274302 0.281364 0.281806
0.212337 0.214474 0.215500
0.181435 0.181288 0.181667
0.241554 0.242060 0.241475
0.277140 0.276098 0.276241
0.315140 0.314648 0.315603
0.195603 0.195644 0.195898
0.192055 0.193456 0.194489
0.213699 0.214483 0.214653
0.313206 0.312615 0.311509
0.290563 0.290392 0.291664
0.184256 0.183973 0.185669
0.290243 0.290888 0.290551
0.229735 0.227926 0.227981
0.233892 0.236984 0.237623
0.269990 0.268016 0.267617
0.289782 0.289607 0.288834
0.171602 0.172497 0.171940
0.181413 0.180931 0.180252
0.227705 0.226286 0.226060
0.238402 0.236664 0.235674
0.285539 0.286008 0.286127
0.180823 0.183618 0.180638
0.174279 0.174991 0.177138
0.307169 0.305217 0.306671
0.288883 0.291013 0.290669
0.244213 0.246589 0.245271
0.256516 0.256769 0.259915
0.185465 0.185890 0.185910
0.325093 0.324465 0.325315
0.197608 0.197742 0.195518
0.159375 0.158196 0.157956
0.271555 0.268507 0.267685
0.175595 0.176179 0.176031
0.198851 0.199380 0.198685
0.204584 0.205469 0.204364
0.274155 0.274313 0.273919
0.173958 0.174726 0.174787
0.260904 0.261248 0.261456
0.269715 0.271025 0.271756
0.190317 0.191432 0.190831
0.214724 0.216155 0.216444
0.290547 0.291092 0.291865
0.192062 0.191745 0.192240
0.159935 0.158749 0.159958
0.258472 0.259183 0.263041
0.172894 0.174093 0.174060
0.198099 0.197671 0.198591
0.267375 0.265096 0.263385
0.185478 0.185774 0.187193
0.231277 0.228397 0.223516
0.274669 0.269868 0.267820
0.194676 0.192938 0.188901
0.262287 0.261963 0.262451
0.206638 0.207997 0.208105
0.179032 0.178935 0.179884
0.260217 0.260756 0.260519
0.244900 0.243596 0.243127
0.188036 0.190836 0.190374
0.194987 0.193781 0.192494
0.255339 0.256877 0.254629
0.255590 0.256459 0.255345
0.263802 0.262825 0.261642
0.200890 0.198722 0.198990
0.190035 0.189071 0.188733
0.304361 0.286633 0.268734
0.243248 0.243517 0.244526
0.298800 0.299505 0.300120
0.274756 0.273885 0.275511
0.267397 0.267122 0.263368
0.179451 0.179822 0.181059
0.261184 0.260075 0.259867
0.268931 0.276107 0.286760
0.302314 0.302555 0.301643
0.184338 0.183746 0.183981
0.282621 0.280891 0.274177
0.243796 0.244865 0.244298
0.277770 0.276575 0.275980
0.200723 0.199518 0.198849
0.189319 0.189253 0.188967
0.267612 0.269070 0.270112
0.278172 0.277639 0.273530
0.275159 0.272926 0.274041
0.197058 0.199341 0.197952
0.290286 0.291404 0.292080
0.184360 0.184604 0.186935
0.205380 0.202927 0.203954
0.184550 0.184405 0.184285
0.244066 0.242598 0.242406
0.264113 0.263860 0.262982
0.273346 0.271622 0.271177
0.245879 0.249607 0.251508
0.204988 0.204361 0.204333
0.230350 0.230165 0.228720
0.179535 0.179984 0.178768
0.258527 0.259158 0.259174
0.256108 0.253328 0.251986
0.285297 0.285072 0.284327
0.241116 0.242623 0.243931
0.272425 0.273965 0.277799
0.197330 0.197294 0.197465
0.251204 0.250157 0.249396
0.274700 0.274764 0.273739
0.275711 0.274812 0.275256
0.179936 0.180606 0.179716
0.204559 0.203808 0.202189
0.206640 0.203291 0.198852
