0.161221 0.160733 0.160820
0.280908 0.281057 0.284065
0.313230 0.321142 0.322802
0.141912 0.141401 0.141715
0.317953 0.319489 0.319373
0.246937 0.244695 0.246662
0.323362 0.322647 0.322146
0.428112 0.429096 0.429097
0.171982 0.172856 0.173674
0.175746 0.175981 0.176283
0.142719 0.142799 0.142757
0.134191 0.133794 0.137490
0.292611 0.281259 0.280208
0.192876 0.192881 0.193157
0.142422 0.142043 0.141092
0.142193 0.142297 0.142515
0.185861 0.186169 0.185740
0.412487 0.412745 0.412386
0.390392 0.381477 0.380578
0.370654 0.369659 0.369952
0.160313 0.161901 0.161691
0.235146 0.234361 0.234001
0.130064 0.130549 0.134001
0.144575 0.144273 0.144555
0.293005 0.296493 0.296858
0.393795 0.394255 0.386983
0.348761 0.347141 0.341783
0.254190 0.252508 0.252750
0.363349 0.363116 0.364385
0.175702 0.175415 0.175237
0.218213 0.218480 0.220222
0.178465 0.178264 0.177748
0.360523 0.361041 0.361338
0.136864 0.137459 0.138155
0.421541 0.420420 0.417893
0.193667 0.193023 0.192352
0.413813 0.409505 0.408920
0.143492 0.143251 0.143366
0.177764 0.178059 0.180011
0.165069 0.167034 0.174396
0.147757 0.148507 0.149827
0.134812 0.134372 0.133969
0.385288 0.385081 0.386093
0.262134 0.263259 0.262069
0.229599 0.227271 0.226965
0.410325 0.410032 0.410244
0.144129 0.143857 0.143581
0.244111 0.243274 0.240678
0.204326 0.205837 0.206140
0.133498 0.132696 0.133199
0.321640 0.326758 0.329478
0.295822 0.286955 0.286263
0.167672 0.169332 0.168898
0.167007 0.166746 0.163614
0.160740 0.161271 0.162400
0.157006 0.156582 0.156056
0.151916 0.151337 0.151319
0.135684 0.135330 0.135523
0.182094 0.182694 0.182225
0.347868 0.347744 0.346200
0.167009 0.164995 0.165862
0.176406 0.173972 0.172688
0.235104 0.256114 0.260858
0.257062 0.257025 0.255763
0.168186 0.160473 0.157895
0.365542 0.366013 0.373883
0.169209 0.169098 0.169137
0.213799 0.214597 0.216241
0.163783 0.163713 0.162939
0.148051 0.148003 0.146944
0.263764 0.264648 0.265333
0.195919 0.196561 0.196770
0.444227 0.442348 0.443365
0.415423 0.420566 0.421071
0.165020 0.166828 0.167190
0.408142 0.406572 0.407610
0.138502 0.138705 0.137855
0.192800 0.193717 0.194925
0.324272 0.322683 0.322543
0.444229 0.441563 0.443473
0.310213 0.311135 0.308526
0.166880 0.166787 0.166579
0.142418 0.142221 0.142386
0.126635 0.126599 0.126478
0.161160 0.160936 0.160379
0.445132 0.445041 0.444893
0.192456 0.194188 0.194126
0.160367 0.160117 0.157760
0.135989 0.135632 0.135982
0.238028 0.239834 0.238976
0.171664 0.172817 0.173445
0.159955 0.162161 0.162088
0.311311 0.311069 0.311659
0.426897 0.426172 0.435092
0.157423 0.157663 0.157453
0.283821 0.284181 0.290243
0.146114 0.146804 0.147637
0.376754 0.375056 0.374431
0.138014 0.139648 0.141280
0.135087 0.134712 0.134517
0.444124 0.443387 0.442949
0.309622 0.308337 0.308116
0.461420 0.464195 0.464462
0.136715 0.136644 0.136670
0.163417 0.163061 0.163305
0.178118 0.178592 0.180008
0.216589 0.216609 0.217114
0.170110 0.172199 0.170508
0.417058 0.412980 0.412923
0.136092 0.135089 0.135860
0.386895 0.386223 0.382127
0.329408 0.331376 0.330548
0.289823 0.290211 0.293250
0.148569 0.148720 0.149346
0.315700 0.315653 0.315179
0.173261 0.171897 0.168379
0.377121 0.376992 0.376788
0.133805 0.133930 0.134223
0.369701 0.356491 0.358509
0.140718 0.138553 0.138711
0.381559 0.376582 0.366594
0.377352 0.378397 0.378837
0.234176 0.234159 0.238974
0.339407 0.347638 0.344314
0.166242 0.166199 0.166900
0.146915 0.146498 0.146278
0.381494 0.379503 0.379442
0.218523 0.220345 0.223660
0.351673 0.352223 0.352638
0.151256 0.149271 0.149164
0.283914 0.279275 0.278208
0.272030 0.273013 0.272408
0.365183 0.366002 0.367062
0.273378 0.268141 0.267108
0.162425 0.159005 0.158603
0.140968 0.141704 0.142138
0.145761 0.143159 0.143307
0.135520 0.134985 0.134856
0.183904 0.183545 0.182791
0.161612 0.164405 0.165680
0.418552 0.421286 0.423976
0.140262 0.140796 0.139492
0.157365 0.157582 0.157470
0.184719 0.183384 0.183268
0.362916 0.365531 0.366621
0.135116 0.134885 0.135140
0.419368 0.419425 0.419576
0.142112 0.142245 0.142304
0.131352 0.129001 0.129454
0.144094 0.143544 0.144172
0.414556 0.413481 0.409475
0.433277 0.443670 0.445100
0.150035 0.149293 0.148880
0.149783 0.149550 0.149629
0.165759 0.164582 0.164300
0.236815 0.235150 0.234259
0.123835 0.123575 0.126133
0.412773 0.411920 0.412114
0.158726 0.158852 0.156696
0.137414 0.134634 0.134600
0.160087 0.165143 0.165767
0.452839 0.452574 0.453048
0.328486 0.328806 0.331578
0.138726 0.138305 0.137805
0.221829 0.221432 0.221451
0.256641 0.256805 0.257641
0.153577 0.152137 0.143434
0.204026 0.205291 0.203784
0.396076 0.396592 0.397197
0.395784 0.392713 0.393061
0.238181 0.238385 0.238237
0.381612 0.381402 0.381657
0.174334 0.171901 0.170295
0.449093 0.453599 0.452644
0.347710 0.345414 0.344741
0.138788 0.139752 0.139150
0.270440 0.270583 0.271089
0.160820 0.161293 0.162113
0.357476 0.356879 0.356108
0.246884 0.248152 0.254236
0.161158 0.161445 0.161670
0.191845 0.191696 0.193111
0.123247 0.123158 0.123693
0.179208 0.181689 0.182150
0.448721 0.453486 0.453214
0.369882 0.368174 0.366461
0.127758 0.128505 0.127537
0.227452 0.231081 0.230923
0.305164 0.306476 0.308455
0.193837 0.192465 0.191795
0.156365 0.157042 0.156340
0.187323 0.186351 0.184732
0.120008 0.119795 0.119134
0.156630 0.157390 0.157207
0.225960 0.225633 0.225633
0.232758 0.232593 0.232884
0.253500 0.253035 0.252809
0.135442 0.135412 0.134871
0.165234 0.165372 0.165591
0.150240 0.150334 0.149783
0.308213 0.311334 0.312207
0.347653 0.348677 0.350048
0.321340 0.322165 0.322492
0.417156 0.414324 0.410713
0.208679 0.207952 0.204665
0.428718 0.426411 0.426431
0.398030 0.401111 0.400898
0.153996 0.154622 0.152508
0.165891 0.166205 0.166583
0.453134 0.454156 0.453904
0.352166 0.318146 0.342846
0.278193 0.278511 0.278615
0.316535 0.316207 0.315617
0.324404 0.312313 0.313601
0.304976 0.305709 0.306788
0.300266 0.300472 0.301867
0.165536 0.166927 0.171407
0.301031 0.302855 0.303343
0.126784 0.126636 0.126246
0.233347 0.239107 0.245073
0.248608 0.248463 0.249538
0.142204 0.143353 0.141940
0.466111 0.478668 0.483918
0.416093 0.415965 0.416520
0.164366 0.165079 0.166358
0.213369 0.218775 0.219947
0.421654 0.422302 0.421965
0.140144 0.140470 0.140766
0.162926 0.162005 0.160197
0.164290 0.164055 0.166802
0.193036 0.192956 0.193021
0.167862 0.168094 0.167144
0.201747 0.205653 0.205238
0.151807 0.152498 0.153585
0.375381 0.375775 0.374372
0.182872 0.180125 0.179550
0.330321 0.330800 0.326777
0.130232 0.130233 0.130602
0.192450 0.199668 0.204750
0.162265 0.162632 0.161860
0.354733 0.353801 0.353736
0.318554 0.317950 0.327410
0.385699 0.385949 0.390679
0.137678 0.136770 0.133808
0.389269 0.386614 0.385520
0.239523 0.239437 0.239639
0.330908 0.328156 0.325088
0.328432 0.328524 0.336211
0.393813 0.393861 0.394477
0.350341 0.363272 0.364449
0.350386 0.348338 0.348616
0.263172 0.281107 0.282320
0.356527 0.359459 0.357489
0.146531 0.144322 0.142211
0.168343 0.172987 0.173325
0.135757 0.135501 0.135880
0.447241 0.441074 0.441018
0.230837 0.231142 0.232267
0.149431 0.150292 0.153126
0.227974 0.228768 0.228759
0.137745 0.138989 0.137115
0.415281 0.416151 0.416861
0.158597 0.152190 0.153637
0.129735 0.128662 0.128913
0.305301 0.305204 0.293343
0.194888 0.194957 0.194683
0.233239 0.232377 0.236400
0.229310 0.229185 0.229836
0.276210 0.288126 0.289719
0.165085 0.166830 0.167399
0.191328 0.194630 0.200941
0.328875 0.332688 0.334915
0.204677 0.205206 0.205037
0.339559 0.348242 0.352116
0.228890 0.229778 0.228625
0.162557 0.162932 0.162753
0.208130 0.209117 0.209603
0.293838 0.294624 0.295594
0.441082 0.440687 0.433438
0.160721 0.160757 0.160587
0.204181 0.204326 0.205837
0.240294 0.239076 0.238248
0.164370 0.159766 0.160776
0.180838 0.179185 0.178981
0.251610 0.251055 0.252128
0.318531 0.320095 0.321921
0.164035 0.163641 0.162843
0.191748 0.191639 0.192162
0.331020 0.331612 0.331700
0.247330 0.244227 0.245342
0.336883 0.335722 0.316259
0.150217 0.144399 0.144354
0.165083 0.168643 0.168898
0.183087 0.184705 0.185020
0.159680 0.160886 0.165317
0.154978 0.155137 0.156233
0.136964 0.137636 0.135834
0.179577 0.181258 0.180817
0.149061 0.150809 0.148897
0.381731 0.380949 0.380641
0.125536 0.125538 0.131256
0.210971 0.210861 0.210643
0.330865 0.330840 0.331581
0.272304 0.272862 0.271201
0.293843 0.294952 0.290572
0.126751 0.126635 0.126210
0.433239 0.433616 0.435468
0.245498 0.246042 0.243542
0.166678 0.166744 0.167191
0.143664 0.143265 0.143818
0.188450 0.188618 0.187822
0.178828 0.179336 0.179471
0.134721 0.134599 0.134602
0.410246 0.412207 0.414481
0.161490 0.160996 0.160292
0.301513 0.301500 0.302571
0.175097 0.175095 0.175610
0.393519 0.417023 0.420136
0.213661 0.209706 0.208368
0.159131 0.158551 0.158087
0.237158 0.235612 0.235221
0.380807 0.384022 0.385926
0.372068 0.350821 0.348543
0.328933 0.331454 0.331080
0.399957 0.400194 0.400308
0.154539 0.155093 0.155555
0.178811 0.179395 0.179799
0.169468 0.169945 0.169915
0.241877 0.237680 0.236537
0.126845 0.126003 0.126215
0.333995 0.334666 0.333671
0.350008 0.347899 0.345562
0.348337 0.345785 0.344349
0.414351 0.403820 0.400809
0.144482 0.145284 0.146319
0.224851 0.215627 0.215788
0.411299 0.409471 0.394577
0.453278 0.455072 0.451581
0.451100 0.446848 0.446558
0.163343 0.165298 0.165373
0.158964 0.158220 0.158553
0.221581 0.224094 0.230695
0.134474 0.133734 0.133001
0.472862 0.472140 0.470758
0.170279 0.168309 0.162862
0.154001 0.153660 0.154138
0.441806 0.440209 0.432779
0.310793 0.311058 0.311330
0.435403 0.437310 0.437088
0.383699 0.383139 0.383001
0.185728 0.185304 0.185021
0.170010 0.169975 0.169001
0.136243 0.137057 0.138776
0.304369 0.310130 0.305395
0.140525 0.141160 0.142610
0.357746 0.357215 0.357961
0.164396 0.163392 0.163490
0.191375 0.193837 0.192465
0.130705 0.129333 0.129503
0.228584 0.229310 0.229685
0.190550 0.191045 0.191332
0.130455 0.131437 0.131383
0.164297 0.164970 0.165990
0.169308 0.168500 0.166252
0.226914 0.226937 0.227126
0.134506 0.134647 0.132126
0.343787 0.343951 0.343224
0.242097 0.240614 0.226509
0.281941 0.282126 0.281845
0.154012 0.154820 0.155077
0.266999 0.266185 0.267198
0.310574 0.316552 0.317958
0.162931 0.161464 0.165514
0.243749 0.243915 0.245648
0.193550 0.193132 0.194449
0.193299 0.191183 0.187465
0.146173 0.145444 0.144364
0.376778 0.374978 0.374443
0.323691 0.323525 0.322444
0.185643 0.185170 0.172356
0.137009 0.137127 0.136212
0.361041 0.361527 0.363644
0.376103 0.378585 0.378864
0.242585 0.242467 0.245399
0.234821 0.232883 0.233713
0.217284 0.217579 0.217510
0.145696 0.145873 0.146156
0.141272 0.140208 0.137792
0.188722 0.188587 0.189382
0.379323 0.377169 0.369618
0.347816 0.347909 0.345985
0.154502 0.152304 0.152153
0.166079 0.164704 0.163989
0.355768 0.354925 0.355046
0.137390 0.137612 0.138073
0.347175 0.346248 0.354968
0.147808 0.147072 0.146983
0.346156 0.370842 0.378804
0.211633 0.211984 0.211986
0.271867 0.270283 0.271466
0.302134 0.303152 0.303044
0.155074 0.153867 0.153355
0.373639 0.379168 0.380785
0.176260 0.177060 0.177440
0.212256 0.211835 0.211474
0.132741 0.130853 0.130441
0.160084 0.159705 0.159251
0.291873 0.285923 0.275177
0.134636 0.135062 0.136016
0.160373 0.160017 0.157167
0.157663 0.157453 0.156359
0.214461 0.210613 0.210922
0.436930 0.436804 0.436475
0.396013 0.370343 0.368956
0.443513 0.428224 0.427347
0.308007 0.307517 0.307275
0.287014 0.285025 0.284123
0.155945 0.155839 0.158117
0.158273 0.158420 0.156045
0.153067 0.152340 0.152937
0.314028 0.315390 0.317679
0.152148 0.156497 0.156856
0.209151 0.210180 0.210631
0.357502 0.361958 0.361651
0.444660 0.445074 0.444575
0.143031 0.144868 0.145375
0.155346 0.154672 0.154475
0.416787 0.416824 0.416766
0.385298 0.384463 0.359896
0.304476 0.302152 0.302264
0.158097 0.157872 0.157344
0.323893 0.330309 0.330587
0.201758 0.208417 0.210805
0.345782 0.345226 0.342429
0.308017 0.308544 0.311796
0.341692 0.340806 0.339423
0.134107 0.133655 0.130313
0.127522 0.126479 0.126629
0.450238 0.451357 0.450814
0.368094 0.369607 0.369917
0.289875 0.287382 0.287973
0.129685 0.129791 0.129711
0.215161 0.214922 0.214685
0.257905 0.258109 0.257035
0.146832 0.147820 0.148177
0.456933 0.455950 0.455112
0.392862 0.392437 0.387582
0.187286 0.186501 0.185818
0.204714 0.205943 0.206000
0.252036 0.251743 0.250993
0.317865 0.318954 0.320013
0.366016 0.368049 0.373836
0.429012 0.432031 0.433252
0.246862 0.246448 0.244999
0.208992 0.209543 0.210075
0.386304 0.389149 0.383371
0.127024 0.126524 0.126391
0.141694 0.142914 0.142247
0.353925 0.354013 0.356857
0.393112 0.392414 0.390547
0.166090 0.167097 0.167019
0.250374 0.249846 0.246687
0.262156 0.261800 0.262961
0.439817 0.439093 0.438478
0.168852 0.168507 0.179319
0.413960 0.413813 0.409505
0.426457 0.430906 0.432042
0.373863 0.374887 0.372206
0.390889 0.390403 0.390793
0.382696 0.380261 0.379277
0.164839 0.169496 0.170221
0.156963 0.157488 0.157610
0.344131 0.349322 0.364444
0.178407 0.179834 0.185115
0.174291 0.173837 0.169336
0.159143 0.159402 0.154166
0.125538 0.131256 0.132138
0.138191 0.137020 0.137957
0.233280 0.233653 0.233449
0.349522 0.349409 0.347197
0.233770 0.235143 0.235385
0.152777 0.152956 0.147309
0.156933 0.157249 0.155316
0.140478 0.140668 0.141994
0.233007 0.228293 0.228363
0.447652 0.448894 0.453386
0.194606 0.194580 0.194453
0.177454 0.180731 0.180594
0.374664 0.370008 0.372557
0.186211 0.186490 0.186672
0.331150 0.330186 0.327151
0.373519 0.370343 0.369901
0.134301 0.131960 0.132551
0.173547 0.171931 0.171361
0.266583 0.263672 0.264098
0.194091 0.194159 0.194203
0.427615 0.427989 0.443919
0.300717 0.300369 0.299951
0.305044 0.305145 0.305586
0.147279 0.147238 0.146915
0.305136 0.305320 0.306776
0.171425 0.172517 0.173020
0.196749 0.199425 0.201434
0.447373 0.448873 0.453548
0.254733 0.254904 0.245647
0.340016 0.343197 0.348322
0.357850 0.353626 0.352321
0.402940 0.405932 0.406991
0.132508 0.130415 0.130331
0.362256 0.366080 0.366224
0.359211 0.359029 0.358275
0.225338 0.225431 0.225511
0.419359 0.418993 0.413580
0.413833 0.426795 0.429742
0.209481 0.210928 0.206724
0.303380 0.304632 0.306366
0.317948 0.318994 0.315775
0.355114 0.357349 0.364362
0.234240 0.237183 0.240979
0.352278 0.353319 0.389786
0.359980 0.359731 0.359364
0.146822 0.146817 0.148101
0.390514 0.392484 0.391061
0.231058 0.230286 0.229674
0.203758 0.203922 0.201289
0.426368 0.426066 0.426200
0.182424 0.183351 0.183324
0.394529 0.394670 0.389485
0.374743 0.373315 0.370125
0.353277 0.351859 0.348268
0.348899 0.344872 0.345371
0.172986 0.173031 0.173003
0.445355 0.440398 0.438176
0.164741 0.164518 0.163646
0.298901 0.296164 0.297975
0.149343 0.148762 0.149440
0.322444 0.320619 0.321790
0.220596 0.219048 0.223946
0.174360 0.174926 0.175454
0.279388 0.278534 0.274004
0.153751 0.153248 0.154719
0.202842 0.202583 0.201725
0.192960 0.193229 0.192849
0.141406 0.141172 0.141264
0.158691 0.158367 0.162425
0.239603 0.238942 0.238800
0.368425 0.367296 0.367908
0.156134 0.156066 0.156499
0.150937 0.151410 0.154122
0.369714 0.369571 0.368145
0.240314 0.240333 0.239340
0.167597 0.165718 0.165957
0.157380 0.157526 0.156800
0.165040 0.165341 0.165360
0.402453 0.401130 0.398653
0.342392 0.342561 0.340202
0.139186 0.138887 0.137295
0.251306 0.248168 0.234655
0.195432 0.195402 0.195510
0.166366 0.167382 0.168991
0.134427 0.134958 0.134675
0.168546 0.167864 0.168663
0.225265 0.232015 0.233030
0.243974 0.247195 0.296200
0.293792 0.293345 0.293673
0.170783 0.173258 0.174407
0.160145 0.154066 0.155318
0.159117 0.159524 0.154455
0.135617 0.134495 0.135909
0.370529 0.369515 0.368793
0.305647 0.298508 0.295829
0.256977 0.258736 0.259655
0.440085 0.437973 0.437738
0.186871 0.187635 0.188291
0.149078 0.143751 0.143952
0.152672 0.152803 0.152588
0.161053 0.161183 0.161683
0.389605 0.387408 0.387568
0.161051 0.166919 0.167715
0.169879 0.170291 0.169968
0.158750 0.156439 0.156674
0.245088 0.244069 0.244637
0.184207 0.185126 0.185796
0.433227 0.435508 0.435455
0.220753 0.220327 0.220473
0.415821 0.414693 0.412831
0.364756 0.364444 0.364326
0.180080 0.180166 0.180211
0.483137 0.483620 0.488937
0.162340 0.165546 0.165438
0.148667 0.149159 0.149964
0.171939 0.170633 0.170701
0.177728 0.177690 0.177909
0.410033 0.410555 0.411423
0.160260 0.160914 0.173822
0.272871 0.272636 0.271847
0.335001 0.338063 0.332314
0.226040 0.224739 0.224608
0.182480 0.182990 0.183128
0.165883 0.167733 0.174578
0.376760 0.376840 0.375806
0.372890 0.380000 0.382096
0.212579 0.215032 0.215690
0.176168 0.174002 0.172068
0.148742 0.149391 0.148782
0.119042 0.120544 0.120657
0.477553 0.488271 0.487387
0.173481 0.172627 0.172271
0.277385 0.276994 0.277318
0.328824 0.328153 0.328611
0.246439 0.247141 0.247734
0.283456 0.282510 0.283041
0.398302 0.398475 0.391980
0.412304 0.414803 0.410730
0.134515 0.134520 0.134187
0.310337 0.308000 0.307606
0.153725 0.156533 0.156458
0.194453 0.194324 0.193614
0.343015 0.342228 0.341982
0.415927 0.414830 0.414433
0.476003 0.476420 0.475196
0.133804 0.133651 0.134480
0.342171 0.350904 0.354508
0.363925 0.365848 0.365340
0.323558 0.324439 0.325635
0.164358 0.164645 0.164176
0.171162 0.171389 0.171550
0.145551 0.145750 0.145031
0.165910 0.165960 0.165959
0.394535 0.395842 0.394765
0.153313 0.152946 0.152057
0.180000 0.175933 0.176000
0.221750 0.222037 0.221360
0.252538 0.252814 0.251608
0.250387 0.235024 0.233604
0.330688 0.327515 0.327393
0.414789 0.412392 0.415989
0.173410 0.171462 0.169108
0.388104 0.391755 0.391924
0.231519 0.229723 0.228480
0.365833 0.364510 0.370965
0.180074 0.179460 0.179530
0.158025 0.158365 0.156108
0.211003 0.210531 0.210789
0.312135 0.311422 0.313027
0.165310 0.164538 0.163538
0.366621 0.366935 0.367199
0.423162 0.420704 0.420774
0.423112 0.421683 0.423508
0.266042 0.266076 0.267108
0.305080 0.310376 0.311592
0.346976 0.356772 0.341653
0.145307 0.145267 0.145637
0.139931 0.139768 0.143749
0.322893 0.321668 0.321330
0.183976 0.183586 0.183480
0.235012 0.235314 0.235436
0.367965 0.366552 0.365979
0.137419 0.138807 0.138217
0.298533 0.296752 0.292577
0.210875 0.211183 0.229880
0.168228 0.169279 0.168919
0.392672 0.394829 0.395508
0.212103 0.213241 0.213822
0.410023 0.410061 0.409713
0.170766 0.170079 0.169706
0.161513 0.161924 0.161559
0.160302 0.160174 0.158916
0.162292 0.162687 0.163100
0.186755 0.187678 0.187743
0.408241 0.409573 0.415723
0.166473 0.163654 0.158062
0.359181 0.356930 0.355807
0.214644 0.214867 0.213526
0.389635 0.388621 0.387411
0.351014 0.351393 0.353088
0.193898 0.183278 0.184714
0.310576 0.305926 0.306218
0.141283 0.143740 0.143206
0.406730 0.403996 0.405344
0.196633 0.197632 0.198189
0.283709 0.273691 0.268779
0.225005 0.224999 0.224631
0.149921 0.149954 0.149820
0.164226 0.164427 0.164267
0.170734 0.173135 0.174335
0.211226 0.211331 0.211470
0.179759 0.179793 0.179055
0.149877 0.149853 0.150830
0.193316 0.193909 0.194583
0.254790 0.253548 0.259452
0.273972 0.275636 0.287613
0.342846 0.340906 0.338466
0.183177 0.184488 0.188672
0.163931 0.161076 0.161863
0.234731 0.236698 0.236948
0.148457 0.146948 0.146248
0.398295 0.400892 0.402318
0.142675 0.142500 0.141760
0.227520 0.228640 0.230162
0.382265 0.385401 0.382826
0.132048 0.131644 0.130875
0.121296 0.121553 0.120719
0.157495 0.157649 0.156710
0.185525 0.185754 0.185600
0.199441 0.200603 0.202410
0.237247 0.231986 0.226197
0.432415 0.432536 0.432465
0.296171 0.306312 0.306163
0.175985 0.176143 0.176201
0.147570 0.149512 0.150607
0.126121 0.124917 0.124775
0.142730 0.142635 0.142381
0.183625 0.181766 0.180744
0.239715 0.239586 0.238809
0.190087 0.190179 0.190632
0.384700 0.390782 0.392571
0.163701 0.163851 0.162720
0.245032 0.244908 0.244289
0.138166 0.137547 0.134250
0.168913 0.169633 0.168800
0.224588 0.225154 0.226018
0.309201 0.309234 0.310868
0.204663 0.205215 0.205210
0.319781 0.321563 0.322833
0.180333 0.179352 0.177564
0.161942 0.161816 0.161934
0.183199 0.184847 0.184503
0.187359 0.168737 0.167031
0.160735 0.161045 0.161095
0.228437 0.226759 0.226615
0.134096 0.133962 0.133759
0.215366 0.215148 0.214461
0.163041 0.163171 0.164370
0.168622 0.169140 0.170153
0.212580 0.212299 0.212075
0.356458 0.357208 0.359335
0.392992 0.390893 0.389837
0.177168 0.177123 0.176122
0.217199 0.216291 0.216432
0.208739 0.208679 0.207952
0.373907 0.376291 0.377322
0.399557 0.399649 0.400136
0.162053 0.161315 0.161477
0.320199 0.319362 0.311543
0.171276 0.171401 0.174164
0.132435 0.131875 0.132119
0.245575 0.245728 0.244490
0.341931 0.342074 0.338359
0.245743 0.248204 0.249582
0.284086 0.283553 0.276574
0.296637 0.294402 0.286555
0.372937 0.373878 0.374987
0.358718 0.351157 0.347878
0.118398 0.117842 0.118853
0.270433 0.270018 0.271372
0.210795 0.206566 0.206696
0.188946 0.188247 0.188054
0.377941 0.373940 0.367555
0.343146 0.342383 0.342025
0.142288 0.142373 0.142731
0.143590 0.143250 0.143965
0.265491 0.261022 0.259604
0.154202 0.153171 0.153164
0.408546 0.407633 0.403611
0.497794 0.494728 0.491229
0.170773 0.174254 0.202922
0.133418 0.133241 0.134191
0.180482 0.178970 0.179192
0.329873 0.313477 0.313418
0.143719 0.142745 0.141326
0.155430 0.154943 0.154363
0.357591 0.359980 0.359731
0.298189 0.298193 0.296421
0.133060 0.133491 0.133123
0.166439 0.166176 0.163803
0.146209 0.145426 0.145196
0.208825 0.208049 0.207260
0.218059 0.216798 0.215667
0.305711 0.295129 0.295403
0.396176 0.396615 0.397801
0.276582 0.275320 0.272901
0.118959 0.118412 0.117632
0.318387 0.317792 0.317766
0.147115 0.141087 0.142262
0.380223 0.380999 0.393928
0.152566 0.153651 0.153202
0.181190 0.181656 0.182027
0.130233 0.130602 0.130717
0.128897 0.133020 0.133342
0.272636 0.271847 0.273149
0.132329 0.130038 0.129148
0.238397 0.237112 0.238785
0.440283 0.437893 0.435498
0.137044 0.137814 0.135944
0.185542 0.185827 0.185688
0.359891 0.359725 0.359626
0.161265 0.160668 0.159905
0.341449 0.337270 0.341259
0.462864 0.463203 0.477355
0.151406 0.150368 0.148645
0.159589 0.150874 0.150806
0.214570 0.214398 0.215259
0.320770 0.320859 0.321448
0.419576 0.417731 0.417156
0.250833 0.255196 0.255482
0.234432 0.234603 0.235409
0.249902 0.248881 0.240534
0.156931 0.157396 0.156561
0.140845 0.141146 0.142243
0.485636 0.483478 0.484054
0.300502 0.300363 0.308006
0.163644 0.164067 0.164309
0.177083 0.176825 0.175310
0.344495 0.344892 0.343833
0.397864 0.400852 0.401874
0.134080 0.133430 0.133068
0.170426 0.174871 0.175053
0.358379 0.350874 0.348520
0.360536 0.361412 0.361842
0.195126 0.195477 0.195431
0.162203 0.163823 0.163995
0.159325 0.159390 0.160543
0.421709 0.421260 0.419235
0.160628 0.162302 0.163085
0.382794 0.385450 0.385675
0.168216 0.168282 0.168191
0.202369 0.201511 0.201625
0.140190 0.136461 0.134592
0.146486 0.148018 0.148647
0.166709 0.166710 0.166831
0.167488 0.168999 0.169135
0.348203 0.346976 0.356772
0.346865 0.348973 0.349194
0.334397 0.334882 0.360917
0.414519 0.415508 0.414680
0.128949 0.126260 0.126984
0.160104 0.163301 0.163575
0.304032 0.285775 0.286194
0.449943 0.454749 0.454401
0.414546 0.414474 0.414385
0.248654 0.247538 0.248348
0.200899 0.203817 0.205214
0.160188 0.161136 0.163121
0.134082 0.133175 0.133333
0.169330 0.169011 0.168829
0.220295 0.224089 0.222849
0.580646 0.574392 0.571511
0.216119 0.215595 0.216017
0.119805 0.119603 0.118463
0.163346 0.162680 0.161805
0.145041 0.146650 0.147968
0.223223 0.223312 0.223106
0.137447 0.137351 0.136978
0.148437 0.148750 0.149179
0.154844 0.153935 0.153502
0.180754 0.184034 0.183720
0.324728 0.326118 0.324305
0.171753 0.171830 0.171931
0.127483 0.129336 0.128707
0.365848 0.365340 0.366415
0.419223 0.418596 0.421334
0.145859 0.146100 0.146616
0.233653 0.233449 0.235521
0.243716 0.243789 0.245750
0.427033 0.426380 0.428241
0.165382 0.165892 0.167818
0.153875 0.153382 0.153159
0.153084 0.152158 0.151009
0.162036 0.160165 0.160095
0.179323 0.176065 0.175706
0.142927 0.143233 0.141088
0.171850 0.171506 0.170477
0.390625 0.389710 0.389527
0.216144 0.215579 0.215541
0.227303 0.227368 0.225996
0.262130 0.261882 0.262497
0.163313 0.162651 0.160769
0.168601 0.168308 0.167569
0.159226 0.153958 0.153509
0.399607 0.399645 0.398940
0.159700 0.160740 0.161271
0.259150 0.258722 0.258494
0.238977 0.239043 0.239495
0.261395 0.261694 0.261779
0.150532 0.147006 0.144210
0.233167 0.233051 0.232559
0.189610 0.188234 0.188107
0.134020 0.135053 0.135006
0.161858 0.161728 0.162114
0.138743 0.139314 0.139830
0.428812 0.428909 0.431547
0.562986 0.563607 0.564942
0.163078 0.158828 0.159526
0.230765 0.226629 0.225998
0.171650 0.172430 0.173554
0.406535 0.406232 0.406130
0.140796 0.139492 0.139345
0.342510 0.350732 0.375306
0.322323 0.320958 0.319273
0.158733 0.159499 0.160154
0.476820 0.475208 0.474840
0.179671 0.180174 0.181519
0.352506 0.353380 0.352385
0.423052 0.440993 0.444599
0.374563 0.373756 0.374345
0.550989 0.545061 0.543826
0.282752 0.282441 0.277196
0.201856 0.202448 0.203022
0.278543 0.281877 0.281413
0.352812 0.355468 0.351376
0.281175 0.299286 0.300595
0.160074 0.161261 0.162345
0.257784 0.255459 0.255103
0.210818 0.229864 0.231282
0.258379 0.255588 0.254175
0.156776 0.158912 0.158924
0.233933 0.234379 0.233968
0.362291 0.362854 0.363293
0.218684 0.217995 0.216978
0.162713 0.163137 0.163063
0.146354 0.146212 0.145497
0.491051 0.500006 0.503144
0.274576 0.277603 0.278984
0.203837 0.203391 0.202033
0.226303 0.225768 0.225687
0.158112 0.155954 0.155555
0.185680 0.182841 0.182623
0.244359 0.242972 0.238788
0.364444 0.364326 0.362468
0.278583 0.283196 0.284248
0.150059 0.150698 0.150117
0.163852 0.164081 0.157345
0.488630 0.488743 0.486528
0.177024 0.174408 0.172584
0.174921 0.174741 0.173956
0.198202 0.198144 0.197446
0.215259 0.218436 0.225474
0.431840 0.431699 0.431426
0.416621 0.417317 0.392098
0.184426 0.189504 0.189810
0.316597 0.315963 0.312667
0.161271 0.161294 0.160588
0.163227 0.164021 0.164018
0.305119 0.293503 0.292765
0.327271 0.324470 0.297186
0.145495 0.145909 0.145863
0.334274 0.333496 0.332221
0.134647 0.134168 0.134421
0.182381 0.184477 0.184257
0.196897 0.197005 0.202964
0.151581 0.151929 0.151585
0.162345 0.162505 0.161747
0.201962 0.208617 0.208796
0.464222 0.467836 0.466933
0.137635 0.138139 0.138152
0.144043 0.142440 0.142915
0.393745 0.393224 0.394427
0.355712 0.367330 0.376670
0.366932 0.368898 0.369156
0.199056 0.201169 0.202389
0.230074 0.230230 0.230570
0.343444 0.343543 0.343244
0.161217 0.162102 0.162514
0.129230 0.130995 0.130851
0.371969 0.374428 0.376352
0.341986 0.349043 0.349980
0.201204 0.202757 0.202538
0.341065 0.342343 0.345850
0.159680 0.159254 0.158953
0.142709 0.143066 0.144294
0.365365 0.366325 0.367160
0.311388 0.312596 0.312559
0.233265 0.233632 0.235206
0.153894 0.153510 0.151907
0.459508 0.457198 0.438884
0.139986 0.139991 0.140356
0.165693 0.165124 0.163245
0.409640 0.409977 0.410560
0.354643 0.354317 0.353911
0.212054 0.212296 0.213203
0.266639 0.264861 0.263830
0.412216 0.412225 0.412126
0.168190 0.167259 0.166000
0.224418 0.223393 0.218916
0.145988 0.142376 0.140584
0.308720 0.310020 0.313102
0.302012 0.303641 0.307632
0.167240 0.166064 0.166323
0.453881 0.453809 0.453750
0.151349 0.150827 0.149707
0.380385 0.383918 0.384010
0.172588 0.172794 0.173449
0.431526 0.433161 0.442931
0.183311 0.182169 0.182883
0.149087 0.149364 0.150355
0.396739 0.404778 0.405371
0.178462 0.178680 0.177692
0.189287 0.189945 0.190957
0.394414 0.393796 0.389857
