0.046090 0.046196 0.046273
0.015056 0.015059 0.015029
0.035405 0.035423 0.035516
0.014256 0.014252 0.014367
0.024775 0.027155 0.027563
0.018614 0.018549 0.018537
0.033248 0.033220 0.033245
0.027261 0.027311 0.027299
0.023556 0.023296 0.023485
0.015602 0.015627 0.015626
0.015739 0.015870 0.015821
0.014053 0.014223 0.014616
0.013515 0.013522 0.013403
0.037998 0.037939 0.037654
0.025001 0.025010 0.025130
0.013460 0.013485 0.013365
0.013190 0.013174 0.013212
0.038346 0.037685 0.036689
0.022933 0.022688 0.022649
0.050483 0.050171 0.049816
0.020700 0.020621 0.020519
0.014651 0.014675 0.014778
0.031767 0.031358 0.031334
0.058761 0.058847 0.058851
0.048927 0.048776 0.048743
0.015369 0.015413 0.015340
0.013378 0.013382 0.013410
0.031309 0.031287 0.031277
0.036769 0.036892 0.037334
0.032011 0.032865 0.033065
0.034248 0.034811 0.035107
0.025034 0.025054 0.025033
0.038952 0.038848 0.038616
0.026724 0.026729 0.026715
0.012437 0.012535 0.012486
0.022635 0.022602 0.022614
0.033213 0.033221 0.033237
0.022478 0.022447 0.022414
0.036205 0.036054 0.035960
0.034218 0.034988 0.035839
0.027151 0.027071 0.027165
0.017096 0.017132 0.017156
0.042652 0.042689 0.042699
0.022272 0.022095 0.022074
0.027197 0.027724 0.027895
0.021642 0.020829 0.020754
0.052088 0.051096 0.050501
0.013541 0.013476 0.013529
0.015318 0.015211 0.014931
0.031860 0.031663 0.031641
0.017216 0.017121 0.017168
0.027338 0.027491 0.028038
0.018817 0.018872 0.018865
0.035168 0.035573 0.035548
0.023700 0.023690 0.023588
0.036257 0.036485 0.036679
0.028262 0.028220 0.028023
0.017132 0.017262 0.017255
0.013309 0.013395 0.013433
0.026610 0.026430 0.026228
0.027920 0.027984 0.027483
0.030027 0.030007 0.029997
0.013399 0.013345 0.013207
0.014170 0.014473 0.014431
0.037746 0.037790 0.037927
0.022679 0.022766 0.022814
0.029661 0.029687 0.029680
0.024605 0.024416 0.024535
0.012351 0.012341 0.012336
0.013820 0.013737 0.013746
0.014526 0.014441 0.014432
0.033341 0.033416 0.033111
0.015511 0.015602 0.015627
0.016116 0.015966 0.015909
0.057210 0.057442 0.057427
0.075645 0.075638 0.075635
0.014219 0.014097 0.014070
0.019025 0.018905 0.018844
0.022483 0.022267 0.021285
0.042694 0.042636 0.042478
0.013888 0.013806 0.013652
0.014240 0.014278 0.014265
0.015447 0.015377 0.015292
0.021557 0.021005 0.021337
0.017255 0.017259 0.017181
0.035311 0.035405 0.035564
0.021520 0.021519 0.021488
0.073678 0.073678 0.073697
0.017654 0.017838 0.017742
0.014905 0.014863 0.014870
0.019262 0.019159 0.018790
0.030146 0.030433 0.031228
0.030224 0.033057 0.036913
0.022241 0.022509 0.022659
0.016505 0.016582 0.016583
0.015250 0.015267 0.015426
0.022350 0.022336 0.022870
0.014163 0.014220 0.014161
0.014059 0.014091 0.014231
0.012770 0.012669 0.012752
0.046638 0.046819 0.045633
0.014626 0.014661 0.014759
0.013898 0.013964 0.014117
0.013202 0.013114 0.013208
0.020669 0.020533 0.020569
0.016108 0.016102 0.016263
0.017947 0.018131 0.018229
0.027368 0.023776 0.022624
0.058555 0.058594 0.059908
0.016337 0.016336 0.016252
0.018133 0.018236 0.018245
0.033547 0.033545 0.033424
0.049163 0.046009 0.045783
0.015075 0.015028 0.014971
0.049986 0.049879 0.049995
0.019197 0.017857 0.017501
0.013568 0.013557 0.013551
0.030195 0.030093 0.030098
0.060745 0.061938 0.063191
0.031453 0.031410 0.031476
0.031684 0.031824 0.032297
0.027051 0.027049 0.027063
0.019014 0.018777 0.018723
0.015677 0.016064 0.016200
0.023082 0.023046 0.023151
0.014131 0.014319 0.014527
0.014393 0.014396 0.014326
0.020664 0.020631 0.020499
0.018868 0.018881 0.018926
0.027643 0.025485 0.023108
0.014466 0.014556 0.015777
0.051009 0.051547 0.051742
0.017117 0.017102 0.016964
0.040613 0.041493 0.043017
0.044804 0.044740 0.044666
0.035204 0.035253 0.035311
0.036022 0.035726 0.035488
0.014487 0.014404 0.014400
0.016039 0.016082 0.016067
0.014799 0.014863 0.014873
0.014886 0.014853 0.014824
0.043801 0.043948 0.044340
0.043490 0.045288 0.046459
0.034370 0.034195 0.034250
0.042313 0.042446 0.042475
0.027434 0.027491 0.027902
0.033286 0.032867 0.030703
0.027989 0.027974 0.027794
0.027767 0.027770 0.027798
0.075636 0.075634 0.075635
0.017664 0.017657 0.017772
0.022395 0.022289 0.022249
0.013201 0.013201 0.013229
0.037336 0.037583 0.039009
0.022866 0.022911 0.022995
0.069355 0.069390 0.069556
0.013777 0.013775 0.013838
0.035512 0.035438 0.035509
0.027255 0.027200 0.027184
0.018332 0.018362 0.018400
0.033367 0.033386 0.033485
0.013889 0.013924 0.014039
0.020185 0.020230 0.020265
0.038613 0.038533 0.038487
0.033696 0.033801 0.034183
0.015658 0.015687 0.015661
0.047908 0.047920 0.047922
0.013807 0.013776 0.013717
0.026263 0.026271 0.026044
0.014392 0.014340 0.014406
0.034409 0.034417 0.034413
0.025075 0.024545 0.023898
0.030942 0.031193 0.031435
0.014582 0.014556 0.014498
0.014264 0.014315 0.014356
0.013520 0.013509 0.013518
0.013679 0.013667 0.013677
0.024072 0.024173 0.024169
0.037830 0.037854 0.037870
0.015497 0.015390 0.015370
0.038848 0.038616 0.038290
0.058609 0.058606 0.058741
0.013442 0.014132 0.014191
0.033197 0.032519 0.032095
0.023562 0.023632 0.023665
0.014415 0.014377 0.014367
0.016664 0.016657 0.016647
0.015594 0.015602 0.015616
0.074936 0.074625 0.074212
0.024712 0.024026 0.023777
0.035501 0.036532 0.036584
0.031594 0.031544 0.031545
0.030854 0.030957 0.031150
0.015869 0.015843 0.015922
0.060592 0.060573 0.060604
0.030557 0.029928 0.029939
0.019367 0.019384 0.019390
0.031841 0.031791 0.031719
0.032959 0.033007 0.033029
0.015064 0.015169 0.015216
0.032993 0.033479 0.033582
0.016462 0.016346 0.016278
0.041453 0.041425 0.041405
0.019842 0.019666 0.019631
0.016663 0.016689 0.016638
0.031193 0.031200 0.031213
0.014057 0.014100 0.014116
0.014520 0.014542 0.014524
0.036992 0.035998 0.035874
0.014848 0.015004 0.014433
0.015629 0.015635 0.015677
0.032413 0.033304 0.033622
0.034454 0.034386 0.034322
0.030624 0.030529 0.029777
0.035516 0.035002 0.034986
0.030377 0.030782 0.030957
0.038777 0.039048 0.039162
0.022073 0.022717 0.022991
0.015625 0.015615 0.015380
0.035240 0.035349 0.035352
0.029773 0.030077 0.031176
0.014707 0.014605 0.014856
0.028630 0.028482 0.028404
0.024181 0.024229 0.024810
0.027119 0.027267 0.027021
0.017259 0.017181 0.017133
0.054236 0.054659 0.055335
0.014409 0.014145 0.014066
0.031283 0.031278 0.031297
0.028799 0.028754 0.028427
0.024839 0.024733 0.025750
0.056608 0.055829 0.055522
0.016068 0.016353 0.016288
0.019596 0.019776 0.019819
0.033692 0.033671 0.034037
0.015543 0.015720 0.016037
0.014280 0.014160 0.014093
0.018968 0.019050 0.019007
0.015634 0.015607 0.015531
0.035747 0.034373 0.034327
0.021443 0.021975 0.021871
0.026578 0.026591 0.026600
0.014092 0.013967 0.013972
0.022096 0.022204 0.022463
0.013505 0.013517 0.013413
0.014443 0.014623 0.014461
0.018858 0.018733 0.018748
0.013941 0.013820 0.013889
0.029613 0.029537 0.029525
0.078373 0.078970 0.079265
0.039643 0.039743 0.039741
0.033091 0.032861 0.032290
0.020252 0.020191 0.020179
0.047504 0.047922 0.048943
0.025013 0.025170 0.025572
0.027260 0.027125 0.027045
0.026499 0.026415 0.026416
0.027053 0.026891 0.026941
0.028111 0.028137 0.028135
0.013472 0.013481 0.013433
0.032062 0.031963 0.032075
0.015265 0.015261 0.015234
0.027230 0.027119 0.027179
0.024115 0.024130 0.024066
0.014471 0.014537 0.014500
0.075842 0.075888 0.076032
0.028594 0.028586 0.028532
0.016969 0.017044 0.016961
0.044253 0.044338 0.044316
0.031495 0.031521 0.031645
0.015790 0.015850 0.015895
0.022889 0.024425 0.024616
0.033544 0.033609 0.033686
0.013634 0.013493 0.013429
0.040476 0.040703 0.040773
0.019737 0.019766 0.019772
0.039739 0.039675 0.039699
0.026138 0.026307 0.026277
0.029530 0.029538 0.029527
0.028292 0.028223 0.028010
0.017674 0.017660 0.017751
0.031528 0.031284 0.031382
0.034062 0.033434 0.033381
0.015589 0.015507 0.015630
0.014211 0.014280 0.014288
0.034215 0.034267 0.034242
0.015422 0.015305 0.015173
0.013954 0.014027 0.014075
0.014974 0.014885 0.014844
0.055365 0.055219 0.054475
0.013897 0.013885 0.013974
0.044358 0.044261 0.044237
0.030816 0.030807 0.030820
0.023227 0.023156 0.023163
0.019209 0.019229 0.019251
0.014045 0.013858 0.013996
0.023080 0.023133 0.023414
0.025545 0.025260 0.024448
0.031307 0.031230 0.031226
0.014495 0.014507 0.014398
0.037471 0.037203 0.037162
0.012914 0.013406 0.014778
0.024239 0.024165 0.024106
0.022210 0.022250 0.022304
0.033245 0.033266 0.033248
0.013167 0.013086 0.013011
0.046351 0.046340 0.046321
0.013273 0.013222 0.013291
0.015865 0.015911 0.015959
0.035434 0.035054 0.035093
0.050171 0.050192 0.050261
0.018649 0.018639 0.018508
0.016609 0.016830 0.017488
0.028252 0.028338 0.028459
0.018261 0.018261 0.018289
0.043935 0.042368 0.040582
0.014938 0.014853 0.014907
0.013455 0.013510 0.013447
0.013840 0.013880 0.013796
0.015440 0.015419 0.015406
0.026833 0.026874 0.026730
0.014534 0.014561 0.014525
0.014441 0.014563 0.014589
0.013621 0.013644 0.013625
0.054599 0.052171 0.051729
0.025468 0.025534 0.025581
0.036075 0.036062 0.036013
0.018897 0.018891 0.018916
0.014468 0.014400 0.014367
0.019010 0.018899 0.018844
0.027770 0.027798 0.027828
0.013337 0.013414 0.013472
0.020619 0.020714 0.021777
0.034499 0.034350 0.033832
0.042881 0.043182 0.043269
0.035946 0.036425 0.036938
0.027572 0.027489 0.027361
0.013568 0.013377 0.013380
0.023454 0.023435 0.023400
0.018970 0.018964 0.018941
0.014227 0.014186 0.014182
0.020781 0.020834 0.020994
0.013022 0.013020 0.013087
0.026683 0.026689 0.026704
0.015607 0.015523 0.015500
0.027773 0.027853 0.027818
0.030175 0.030138 0.029975
0.029994 0.029834 0.029282
0.050843 0.053260 0.053729
0.016450 0.016463 0.016393
0.013958 0.014091 0.014066
0.030887 0.030752 0.029735
0.016941 0.016800 0.016852
0.015651 0.015579 0.015486
0.018934 0.018924 0.018830
0.013239 0.013245 0.013227
0.029459 0.029459 0.029170
0.012341 0.012391 0.012431
0.033004 0.033234 0.033245
0.037224 0.037099 0.036300
0.048726 0.048383 0.047919
0.062004 0.062028 0.062028
0.058952 0.058995 0.059007
0.046778 0.046593 0.046506
0.034055 0.034424 0.034587
0.022730 0.022801 0.022550
0.013703 0.013658 0.013498
0.069807 0.070151 0.070614
0.023707 0.023724 0.023694
0.013217 0.013135 0.013092
0.075643 0.075636 0.075635
0.036573 0.036747 0.036296
0.013453 0.013467 0.013491
0.041242 0.041306 0.041602
0.014776 0.014523 0.014366
0.014930 0.014993 0.015598
0.014738 0.014712 0.014639
0.029997 0.030044 0.030009
0.027916 0.027938 0.028044
0.018004 0.017731 0.016172
0.022411 0.022429 0.022447
0.019045 0.019037 0.018962
0.018760 0.018837 0.019037
0.015704 0.015614 0.015677
0.015326 0.015486 0.015501
0.018577 0.018532 0.018468
0.032059 0.031982 0.031808
0.035288 0.036405 0.036558
0.027208 0.027191 0.027238
0.016140 0.015694 0.015623
0.036364 0.031931 0.027712
0.016872 0.016757 0.017413
0.013924 0.013831 0.013702
0.028357 0.028475 0.029593
0.014765 0.014771 0.014749
0.024205 0.024315 0.024515
0.014424 0.014447 0.014524
0.014713 0.014624 0.014511
0.026389 0.026265 0.026175
0.048925 0.049012 0.049179
0.031098 0.031423 0.031547
0.049244 0.049627 0.051095
0.020024 0.020016 0.020130
0.025047 0.025001 0.025023
0.043746 0.043985 0.044012
0.025504 0.025561 0.025666
0.029357 0.029358 0.029359
0.019321 0.019431 0.019479
0.037844 0.037885 0.037760
0.020347 0.020352 0.020294
0.013939 0.013951 0.013995
0.020296 0.020108 0.019910
0.024215 0.024462 0.024616
0.015526 0.015586 0.015362
0.013976 0.013982 0.014084
0.020419 0.020604 0.020665
0.039448 0.039435 0.039516
0.028220 0.028023 0.027976
0.012772 0.012962 0.012899
0.029643 0.029479 0.028638
0.027027 0.026903 0.026906
0.016570 0.016532 0.016594
0.050004 0.050029 0.050561
0.028646 0.028674 0.028880
0.048135 0.048344 0.048433
0.019252 0.019320 0.019498
0.014536 0.014652 0.014749
0.012860 0.012765 0.012876
0.028170 0.028091 0.028168
0.013901 0.013845 0.013813
0.024458 0.023829 0.022969
0.014100 0.014116 0.014162
0.075967 0.075979 0.076012
0.013298 0.013558 0.014425
0.023393 0.022499 0.022444
0.017390 0.016114 0.015730
0.032826 0.033766 0.033883
0.026460 0.038078 0.039983
0.016026 0.015983 0.016015
0.013941 0.013926 0.013973
0.014067 0.014333 0.014420
0.016072 0.016018 0.015772
0.038707 0.038403 0.038216
0.032766 0.032575 0.032248
0.015078 0.015084 0.015050
0.026058 0.027283 0.027775
0.013460 0.013402 0.013309
0.016992 0.016969 0.017044
0.014509 0.014492 0.014463
0.014912 0.014878 0.014957
0.043524 0.043684 0.044027
0.014526 0.014600 0.014731
0.014289 0.014287 0.014419
0.031523 0.031764 0.031701
0.015826 0.015838 0.015758
0.028722 0.028366 0.028137
0.013111 0.013262 0.013230
0.012559 0.012565 0.012553
0.023372 0.023316 0.023279
0.031478 0.030328 0.030253
0.016708 0.016440 0.016269
0.015523 0.015382 0.015348
0.028037 0.027966 0.027616
0.032158 0.032087 0.032035
0.016045 0.015831 0.015042
0.019987 0.020026 0.020056
0.033004 0.033033 0.033033
0.026884 0.026843 0.026869
0.016568 0.016700 0.016675
0.042954 0.043282 0.043532
0.031499 0.028695 0.028586
0.016191 0.016038 0.015926
0.014800 0.014715 0.014634
0.014069 0.014045 0.013918
0.026826 0.026827 0.026871
0.031617 0.031616 0.031657
0.024418 0.024421 0.024426
0.030173 0.030152 0.029980
0.027168 0.027208 0.027256
0.032994 0.033053 0.033088
0.029682 0.029621 0.029619
0.020218 0.019873 0.019793
0.019763 0.019667 0.019765
0.014216 0.014234 0.014102
0.028676 0.028908 0.028938
0.074082 0.074290 0.075052
0.018291 0.018281 0.018289
0.029581 0.028272 0.028456
0.014476 0.014480 0.014345
0.047923 0.047937 0.047992
0.031748 0.036125 0.042049
0.047951 0.047923 0.047937
0.036062 0.036050 0.035457
0.020179 0.020209 0.020200
0.015209 0.015209 0.015035
0.022408 0.022403 0.022439
0.039297 0.039355 0.039337
0.014030 0.013863 0.013845
0.017251 0.017337 0.017424
0.030028 0.030014 0.030000
0.025902 0.025780 0.025981
0.036432 0.036413 0.036466
0.017149 0.017118 0.017149
0.023904 0.023729 0.023743
0.019066 0.019143 0.019083
0.018909 0.018806 0.018879
0.025015 0.025074 0.025200
0.040365 0.040346 0.040331
0.016619 0.016628 0.016652
0.014561 0.014730 0.014547
0.023335 0.023344 0.023779
0.034407 0.034325 0.034273
0.032146 0.031999 0.031914
0.052483 0.052436 0.052416
0.031918 0.031641 0.031452
0.015838 0.015758 0.015899
0.021232 0.021275 0.021399
0.020091 0.020044 0.019972
0.044560 0.044528 0.044515
0.033662 0.033917 0.034030
0.023676 0.023751 0.023746
0.014468 0.014377 0.014291
0.033241 0.033242 0.033242
0.050690 0.044505 0.044329
0.031364 0.030949 0.030759
0.026867 0.026808 0.026598
0.013647 0.013669 0.013762
0.013864 0.013501 0.013486
0.015974 0.015970 0.015943
0.014824 0.014959 0.014955
0.024760 0.026177 0.025382
0.014870 0.014832 0.014837
0.014892 0.014950 0.014955
0.035200 0.034994 0.034993
0.017188 0.017136 0.017157
0.018400 0.018402 0.018495
0.033819 0.033907 0.034544
0.031602 0.031643 0.031614
0.013463 0.013347 0.013160
0.013338 0.013258 0.013172
0.014809 0.014935 0.015124
0.028045 0.028003 0.027922
0.014252 0.014256 0.014120
0.026368 0.026456 0.026993
0.014647 0.014637 0.014628
0.014152 0.014145 0.014198
0.017322 0.017318 0.017205
0.015251 0.015283 0.015257
0.012962 0.012826 0.013008
0.052607 0.048400 0.048184
0.016677 0.016649 0.016731
0.030175 0.030170 0.030105
0.014598 0.014653 0.014727
0.029905 0.029196 0.028424
0.031336 0.031358 0.031640
0.044343 0.044606 0.045511
0.023288 0.022807 0.022545
0.016100 0.016075 0.016059
0.014475 0.014536 0.014393
0.021268 0.021362 0.021606
0.018659 0.018729 0.018770
0.044919 0.044964 0.044997
0.045250 0.045142 0.044919
0.030739 0.030800 0.030797
0.013948 0.013929 0.013962
0.019323 0.019412 0.019381
0.015419 0.015406 0.015387
0.016740 0.016833 0.016937
0.014195 0.014393 0.014791
0.014172 0.014192 0.014122
0.014124 0.014146 0.014144
0.021955 0.021992 0.021964
0.023007 0.023143 0.023275
0.040002 0.039514 0.038777
0.024726 0.021178 0.016163
0.021347 0.021425 0.021444
0.014220 0.013709 0.013690
0.019683 0.019643 0.019465
0.013718 0.013616 0.013594
0.013815 0.013901 0.013946
0.024515 0.025289 0.027178
0.015647 0.015598 0.015583
0.058874 0.058892 0.058952
0.023155 0.023007 0.023143
0.023569 0.023457 0.023547
0.012501 0.012527 0.012479
0.016048 0.015574 0.015519
0.013048 0.014108 0.014884
0.014602 0.014646 0.014613
0.027342 0.027316 0.027427
0.024639 0.023915 0.023598
0.013361 0.013304 0.013340
0.016232 0.016618 0.016607
0.015510 0.015583 0.015502
0.024170 0.024145 0.024151
0.017069 0.017022 0.016977
0.012930 0.012816 0.012784
0.075088 0.075084 0.075068
0.047851 0.047822 0.047830
0.023642 0.024494 0.024777
0.016232 0.016438 0.016513
0.028286 0.028260 0.028251
0.056811 0.056756 0.056602
0.058527 0.058473 0.058444
0.018022 0.018021 0.018124
0.034357 0.034311 0.034175
0.027240 0.027254 0.027173
0.025682 0.025659 0.025545
0.019219 0.019261 0.019264
0.033353 0.033536 0.034180
0.014114 0.013881 0.013872
0.031631 0.031635 0.031567
0.015691 0.015649 0.015613
0.089568 0.089281 0.086701
0.039258 0.039212 0.039097
0.020983 0.020912 0.021113
0.020911 0.020709 0.020465
0.014068 0.014191 0.014134
0.032455 0.033075 0.033036
0.013164 0.013159 0.013140
0.034307 0.034338 0.034830
0.015615 0.015380 0.015442
0.018075 0.018019 0.017743
0.032152 0.030972 0.029875
0.067906 0.068288 0.071002
0.015109 0.015220 0.015151
0.014270 0.014359 0.014365
0.028813 0.029038 0.029092
0.018092 0.019013 0.019073
0.074212 0.074079 0.074014
0.055744 0.055142 0.053194
0.028936 0.028946 0.028988
0.014357 0.014350 0.013788
0.021011 0.021063 0.021017
0.018732 0.018690 0.018643
0.019198 0.019316 0.019422
0.014696 0.014736 0.016524
0.031522 0.029606 0.028607
0.014586 0.014487 0.014462
0.030152 0.029980 0.029719
0.017524 0.017494 0.017357
0.058867 0.058921 0.058967
0.021964 0.022015 0.021788
0.014488 0.014412 0.014480
0.014734 0.014731 0.014770
0.042930 0.042998 0.043011
0.035476 0.035511 0.035415
0.044224 0.044169 0.043793
0.013935 0.013686 0.013809
0.018266 0.018215 0.018275
0.012876 0.012957 0.012966
0.014725 0.014662 0.014575
0.013225 0.013360 0.013387
0.047918 0.047919 0.047920
0.058046 0.058624 0.058527
0.014849 0.014920 0.015137
0.043195 0.043191 0.043192
0.017768 0.017745 0.017734
0.039164 0.042967 0.043464
0.016865 0.016815 0.016734
0.013660 0.013736 0.013680
0.013420 0.013441 0.013505
0.030264 0.027045 0.026507
0.018497 0.018549 0.018564
0.027420 0.027512 0.027828
0.014563 0.014629 0.014692
0.027180 0.027044 0.027007
0.021830 0.021569 0.021702
0.020032 0.020049 0.020036
0.027853 0.027598 0.027788
0.025977 0.026022 0.026050
0.038485 0.038649 0.038766
0.034249 0.034319 0.034707
0.026995 0.027315 0.027391
0.028355 0.028427 0.029087
0.023743 0.023727 0.023694
0.014674 0.014641 0.014569
0.016398 0.016451 0.016410
0.017063 0.017062 0.016965
0.028965 0.028778 0.029051
0.019400 0.019379 0.019329
0.025696 0.025608 0.025480
0.016653 0.016734 0.016794
0.022476 0.022460 0.022463
0.015078 0.015061 0.015029
0.015801 0.015890 0.016042
0.014018 0.013959 0.014024
0.030088 0.029246 0.028941
0.028590 0.028706 0.028859
0.031062 0.030898 0.030690
0.013124 0.013090 0.013161
0.014670 0.014589 0.014499
0.034242 0.034202 0.034093
0.031630 0.031549 0.031865
0.013862 0.013858 0.013818
0.014491 0.014412 0.014396
0.014042 0.014132 0.014189
0.046788 0.046838 0.046856
0.015696 0.015628 0.015659
0.046016 0.041490 0.036281
0.022545 0.022571 0.022642
0.017248 0.017415 0.017536
0.020700 0.020694 0.020713
0.014166 0.014256 0.014053
0.073952 0.073977 0.074008
0.041604 0.041709 0.041769
0.034736 0.034954 0.035412
0.016715 0.016698 0.016533
0.017660 0.017682 0.017792
0.043744 0.043783 0.043782
0.013284 0.013308 0.013372
0.032713 0.032673 0.032428
0.049152 0.049801 0.051154
0.014133 0.014152 0.014031
0.014048 0.014127 0.014088
0.013816 0.013751 0.013760
0.017329 0.017314 0.017318
0.035779 0.035645 0.035577
0.033067 0.033073 0.032967
0.019018 0.019015 0.018957
0.020343 0.020498 0.020540
0.018693 0.018661 0.018351
0.036033 0.036071 0.036031
0.088705 0.085672 0.084682
0.016087 0.016184 0.016235
0.016093 0.016091 0.016158
0.014024 0.014103 0.014173
0.018789 0.018757 0.018566
0.016370 0.016271 0.016276
0.013484 0.013518 0.013496
0.014458 0.014407 0.014246
0.029614 0.029643 0.029479
0.012955 0.012923 0.013008
0.031493 0.031828 0.032272
0.018289 0.018293 0.018235
0.033647 0.032837 0.031294
0.076694 0.076807 0.077335
0.015563 0.015466 0.015505
0.037870 0.037850 0.037855
0.058974 0.059005 0.058998
0.014126 0.014090 0.013943
0.013629 0.013737 0.013679
0.014210 0.014194 0.014118
0.014446 0.014500 0.014517
0.042012 0.041631 0.041649
0.047244 0.047202 0.046503
0.035321 0.035302 0.035183
0.025534 0.025581 0.025779
0.074242 0.074186 0.074166
0.035469 0.035542 0.035618
0.073374 0.073540 0.074407
0.022451 0.022523 0.022565
0.013188 0.013290 0.013201
0.041415 0.041414 0.041480
0.027996 0.028059 0.028100
0.035134 0.035367 0.034725
0.013569 0.013566 0.013557
0.022260 0.022406 0.022411
0.037404 0.038379 0.040062
0.033357 0.033201 0.032803
0.015232 0.015214 0.015096
0.040788 0.040742 0.040645
0.026320 0.026520 0.026465
0.023118 0.023168 0.023175
0.075123 0.075128 0.075088
0.033168 0.033182 0.033213
0.030656 0.030242 0.030079
0.025658 0.025816 0.025931
0.014403 0.014558 0.014564
0.050770 0.051024 0.051251
0.015045 0.015098 0.015403
0.013695 0.013381 0.013293
0.023650 0.023705 0.023745
0.025990 0.026005 0.025984
0.024559 0.024569 0.024571
0.074116 0.074118 0.074159
0.014864 0.014913 0.015044
0.015524 0.015488 0.015448
0.015359 0.015389 0.015389
0.055183 0.054334 0.051603
0.035291 0.035414 0.035470
0.026617 0.026715 0.026889
0.027471 0.027335 0.027362
0.033252 0.033557 0.034860
0.017764 0.017714 0.017603
0.014967 0.014949 0.014982
0.032717 0.032041 0.031996
0.016486 0.016305 0.016423
0.028140 0.028124 0.028074
0.021663 0.021612 0.021508
0.016297 0.016228 0.015637
0.015671 0.015655 0.015745
0.014047 0.013832 0.013633
0.013820 0.013623 0.013522
0.026385 0.026616 0.026597
0.019690 0.019524 0.017670
0.029993 0.029987 0.029984
0.015670 0.015610 0.015547
0.014453 0.014285 0.014164
0.024950 0.025034 0.025054
0.012580 0.012569 0.012564
0.072669 0.072376 0.072349
0.013773 0.013861 0.013930
0.030771 0.030849 0.030643
0.029163 0.028853 0.027534
0.041684 0.036077 0.034950
0.036220 0.036434 0.036473
0.016154 0.016198 0.016102
0.015754 0.015684 0.015679
0.016801 0.016783 0.016751
0.021232 0.021233 0.021276
0.043680 0.043482 0.043415
0.020607 0.020615 0.020622
0.032566 0.032519 0.032350
0.026821 0.026874 0.026872
0.033034 0.033022 0.033067
0.017300 0.017249 0.017338
0.014691 0.014615 0.014668
0.015855 0.014912 0.014806
0.013067 0.013140 0.013132
0.033951 0.034091 0.035079
0.013895 0.013868 0.013844
0.014543 0.014575 0.014575
0.015359 0.015308 0.015285
0.047858 0.047832 0.047758
0.014414 0.014581 0.014427
0.030811 0.030495 0.030369
0.028539 0.028073 0.027770
0.014455 0.014507 0.014519
0.039934 0.042371 0.043767
0.014439 0.014375 0.014348
0.034927 0.033986 0.032194
0.031287 0.031390 0.031493
0.032827 0.032895 0.032938
0.014460 0.014521 0.014497
0.017225 0.017113 0.017175
0.029990 0.029953 0.030013
0.014331 0.014225 0.014267
0.016087 0.015913 0.015636
0.013201 0.013229 0.013271
0.013309 0.013119 0.013086
0.017275 0.017251 0.017362
0.020143 0.020169 0.020196
0.029388 0.028876 0.028308
0.037228 0.036928 0.036418
0.031593 0.031673 0.031624
0.013829 0.013759 0.013746
0.015040 0.014904 0.014792
0.031181 0.031169 0.031248
0.034368 0.034302 0.034325
0.030052 0.030263 0.030491
0.022507 0.022264 0.021306
0.025868 0.025914 0.025780
0.017283 0.017254 0.017254
0.013904 0.013831 0.013828
0.014230 0.014121 0.014131
0.089535 0.089664 0.089730
0.032281 0.032573 0.032152
0.035461 0.037489 0.037853
0.042927 0.042900 0.042908
0.014190 0.014077 0.013927
0.012391 0.012431 0.012407
0.043246 0.043137 0.043251
0.015216 0.015245 0.015216
0.016092 0.016077 0.016077
0.030044 0.030018 0.029786
0.044551 0.044549 0.044563
0.032299 0.032337 0.032307
0.033033 0.033066 0.032975
0.013349 0.013501 0.013545
0.030916 0.029971 0.029787
0.021398 0.021066 0.019973
0.015798 0.015869 0.015946
0.017370 0.017395 0.017430
0.035075 0.035077 0.035085
0.014878 0.014957 0.014995
0.018547 0.018751 0.018734
0.015255 0.015232 0.015251
0.014551 0.014422 0.014371
0.016621 0.016314 0.016192
0.017681 0.017606 0.017660
0.014479 0.014535 0.014511
0.022746 0.023274 0.024421
0.013756 0.013828 0.013983
0.024922 0.024485 0.024442
0.012565 0.012914 0.013406
0.013796 0.013722 0.013779
0.015585 0.015615 0.015648
0.024564 0.024452 0.024697
0.024551 0.024518 0.024483
0.038289 0.038339 0.039777
0.037714 0.037701 0.037670
0.012603 0.012344 0.012314
0.015702 0.015705 0.015664
0.082788 0.082630 0.082339
0.013334 0.013323 0.013435
0.036207 0.036382 0.036562
0.018161 0.018125 0.018088
0.060684 0.060618 0.060592
0.026051 0.024458 0.023829
0.013727 0.013754 0.013833
0.013127 0.013092 0.013139
0.019014 0.019073 0.019176
0.026056 0.026325 0.026548
0.016689 0.016638 0.016646
0.015732 0.015802 0.015801
0.033022 0.032862 0.032588
0.015973 0.016002 0.015997
0.017392 0.017400 0.017430
0.020127 0.020130 0.020151
0.013913 0.014024 0.014037
0.015529 0.015514 0.015528
0.015532 0.015723 0.015743
0.018424 0.018346 0.018343
0.015680 0.015681 0.015488
0.034179 0.034183 0.034121
0.014061 0.013960 0.014131
0.013709 0.013728 0.013826
0.015706 0.016153 0.016250
0.014356 0.014488 0.014412
0.015594 0.015573 0.015409
0.041272 0.041263 0.041262
0.015751 0.015721 0.015668
0.037600 0.037801 0.039393
0.030114 0.030450 0.030633
0.058758 0.058705 0.058588
0.012931 0.012833 0.012891
0.027042 0.025622 0.025427
0.013634 0.013565 0.013378
0.027724 0.027895 0.028014
0.027526 0.027851 0.027996
0.033435 0.033525 0.033706
0.016643 0.016013 0.015869
0.025646 0.025481 0.024961
0.014950 0.015044 0.014957
0.014337 0.014319 0.014413
0.022762 0.023199 0.023481
0.025742 0.025747 0.025758
0.035782 0.034489 0.034364
0.014765 0.014761 0.014824
0.052890 0.052950 0.052931
0.052950 0.052882 0.052624
0.020958 0.021054 0.021065
0.050171 0.049816 0.048702
0.013755 0.013516 0.013294
0.048742 0.048745 0.048766
0.034129 0.035677 0.035619
0.015798 0.015844 0.015769
0.012535 0.012437 0.012413
0.041631 0.041629 0.041741
0.014870 0.014914 0.015044
0.039384 0.037968 0.037860
0.037784 0.037864 0.038008
0.058942 0.058903 0.058194
0.015877 0.015911 0.015956
0.037511 0.036339 0.036301
0.014337 0.014100 0.014096
0.075639 0.075645 0.075650
0.016331 0.016226 0.016192
0.024580 0.024580 0.024570
0.044144 0.044702 0.045016
0.035183 0.035101 0.035097
0.020359 0.020612 0.020670
0.066980 0.066492 0.059815
0.015724 0.015692 0.016202
0.043523 0.043538 0.043702
0.014586 0.014614 0.014630
0.025538 0.025590 0.025799
0.016243 0.016239 0.016225
0.047395 0.047381 0.047364
0.044748 0.044894 0.044953
0.016832 0.016872 0.017028
0.035014 0.033258 0.033064
0.052414 0.052425 0.052448
0.022503 0.022481 0.022420
0.050245 0.052649 0.057792
0.037813 0.037551 0.037354
0.021956 0.021746 0.021649
0.016059 0.015977 0.015976
0.014020 0.014064 0.014137
0.038282 0.039580 0.039699
0.026960 0.026894 0.026234
0.012573 0.012558 0.012751
0.035445 0.035451 0.035438
0.016711 0.016668 0.016766
0.038130 0.038657 0.038309
0.025433 0.028222 0.027234
0.031657 0.031597 0.031590
0.078165 0.081710 0.084077
0.031768 0.031421 0.031366
0.014338 0.014348 0.014328
0.040683 0.040642 0.040583
0.064369 0.064941 0.065665
0.035130 0.035379 0.035472
0.017732 0.017948 0.018219
0.014573 0.014624 0.014665
0.046028 0.046036 0.046075
0.013534 0.013504 0.013523
0.015270 0.015444 0.015559
0.013825 0.013815 0.013771
