0.347984 0.344647 0.344443
0.397827 0.378385 0.374744
0.360550 0.360691 0.357184
0.278157 0.278817 0.276801
0.391323 0.390161 0.389664
0.328164 0.327612 0.323847
0.416800 0.417179 0.416855
0.388467 0.387478 0.385529
0.304081 0.303098 0.303417
0.407197 0.408384 0.409355
0.313284 0.311778 0.311425
0.305961 0.305195 0.301177
0.359859 0.360097 0.360205
0.291856 0.291880 0.292743
0.288540 0.289519 0.287057
0.310524 0.308725 0.307471
0.313188 0.313569 0.317923
0.384576 0.382419 0.391473
0.308685 0.306716 0.302743
0.329517 0.329130 0.323614
0.252138 0.251200 0.250078
0.333097 0.331293 0.334360
0.303243 0.299995 0.299472
0.356658 0.356337 0.356521
0.306527 0.308157 0.306496
0.248250 0.248723 0.252214
0.555340 0.553416 0.552957
0.367048 0.366727 0.367011
0.307875 0.306460 0.306699
0.433412 0.431907 0.445827
0.324210 0.326297 0.326308
0.327697 0.328038 0.328832
0.320298 0.326431 0.325773
0.293248 0.292885 0.294122
0.309155 0.307670 0.308778
0.285296 0.287009 0.286027
0.293221 0.293231 0.292589
0.277444 0.277178 0.276387
0.276137 0.276286 0.275593
0.270520 0.271115 0.272015
0.285461 0.289988 0.288870
0.297987 0.299595 0.296252
0.316668 0.315443 0.315465
0.402067 0.401919 0.401902
0.293493 0.294653 0.297639
0.319013 0.320672 0.321534
0.424143 0.423910 0.423669
0.401848 0.402337 0.403319
0.368473 0.366441 0.366595
0.269807 0.272567 0.273752
0.313702 0.313775 0.311619
0.350313 0.351485 0.351767
0.312180 0.315664 0.316525
0.305542 0.304599 0.307390
0.325626 0.326860 0.326160
0.300279 0.295981 0.287324
0.346258 0.352871 0.354079
0.348966 0.350891 0.351767
0.357292 0.356750 0.354500
0.343991 0.351487 0.354359
0.464358 0.464988 0.466026
0.328303 0.329469 0.328963
0.295718 0.296790 0.296641
0.376776 0.377332 0.381170
0.415789 0.416900 0.417448
0.327263 0.325059 0.324701
0.294753 0.296459 0.298652
0.390422 0.388168 0.387585
0.249385 0.250401 0.249445
0.330154 0.329849 0.329989
0.326789 0.327702 0.327429
0.356471 0.370014 0.371229
0.319049 0.319233 0.321226
0.360254 0.359324 0.358500
0.324404 0.322705 0.320754
0.451243 0.446738 0.447487
0.368703 0.369778 0.369854
0.313048 0.314736 0.312418
0.319759 0.320755 0.320317
0.368458 0.369096 0.367658
0.465564 0.463861 0.463054
0.380276 0.380498 0.380834
0.305765 0.305945 0.305908
0.277432 0.280580 0.281047
0.325062 0.322152 0.322987
0.300213 0.296823 0.295571
0.311600 0.311862 0.312558
0.288653 0.291218 0.291175
0.283385 0.284575 0.286241
0.401658 0.407856 0.412096
0.330581 0.329718 0.334249
0.273538 0.273344 0.271909
0.309086 0.309850 0.308317
0.297108 0.298399 0.297919
0.412867 0.415840 0.418659
0.357703 0.366397 0.365511
0.293412 0.295790 0.294358
0.323834 0.323560 0.323421
0.326548 0.326957 0.325721
0.328277 0.322554 0.311489
0.322680 0.321537 0.318460
0.374022 0.364430 0.363732
0.292618 0.294796 0.294921
0.345290 0.345870 0.345718
0.339981 0.337352 0.337450
0.311551 0.312148 0.312542
0.450312 0.451254 0.451988
0.313936 0.313057 0.313406
0.281544 0.277432 0.280580
0.285169 0.284697 0.283140
0.283777 0.282547 0.282053
0.319721 0.319972 0.319961
0.303432 0.304063 0.304525
0.337844 0.339099 0.340065
0.304640 0.304405 0.304115
0.380690 0.380979 0.381901
0.263975 0.263696 0.266239
0.277077 0.277567 0.277779
0.323422 0.323657 0.324310
0.441152 0.449486 0.448840
0.337132 0.336346 0.336507
0.363370 0.364218 0.364274
0.277568 0.277255 0.277199
0.277331 0.276972 0.275671
0.327148 0.326663 0.326639
0.306522 0.306301 0.301351
0.360524 0.357743 0.356675
0.345257 0.351198 0.353547
0.312580 0.311644 0.308433
0.277421 0.282870 0.275854
0.260652 0.260932 0.262424
0.531379 0.530778 0.534107
0.355769 0.356241 0.356889
0.343685 0.351275 0.352843
0.363549 0.357962 0.361079
0.257776 0.257658 0.257859
0.255329 0.253137 0.253891
0.412556 0.412581 0.411762
0.361651 0.361031 0.357249
0.324637 0.329808 0.333170
0.308849 0.308108 0.308072
0.237486 0.237638 0.245866
0.308057 0.305354 0.307204
0.356197 0.355763 0.356402
0.333482 0.331283 0.330690
0.365673 0.367353 0.367866
0.264893 0.265548 0.265981
0.280681 0.280735 0.278324
0.347998 0.346930 0.346366
0.319008 0.319535 0.320164
0.391727 0.391621 0.390443
0.317145 0.316413 0.316700
0.302544 0.301618 0.300702
0.333361 0.337739 0.347986
0.393367 0.386229 0.378853
0.262757 0.263239 0.253106
0.323462 0.315756 0.312662
0.324692 0.324296 0.325631
0.269228 0.268434 0.269802
0.314629 0.313014 0.313008
0.406858 0.407054 0.407282
0.258242 0.255246 0.255376
0.403841 0.409873 0.411528
0.333380 0.335434 0.335754
0.258620 0.258547 0.260136
0.297854 0.301619 0.301564
0.311121 0.310236 0.310584
0.362234 0.357719 0.357604
0.383046 0.391725 0.391511
0.301091 0.301289 0.301800
0.284497 0.286287 0.291578
0.333845 0.333480 0.334236
0.253204 0.253751 0.253809
0.304431 0.304318 0.302766
0.403431 0.402621 0.400211
0.286723 0.287413 0.286088
0.401453 0.399013 0.400401
0.317900 0.319158 0.320910
0.290934 0.285599 0.282836
0.257583 0.255965 0.256191
0.273328 0.273274 0.273015
0.291443 0.291762 0.292073
0.332467 0.332416 0.333634
0.345011 0.347312 0.347646
0.320530 0.318449 0.316281
0.307653 0.307206 0.306978
0.314606 0.314410 0.315412
0.300572 0.305581 0.307795
0.292816 0.293287 0.293221
0.296594 0.296694 0.296612
0.293837 0.291527 0.291185
0.355329 0.356017 0.356622
0.405424 0.405212 0.405619
0.346530 0.347066 0.346504
0.318019 0.317356 0.316448
0.441731 0.445212 0.448100
0.276698 0.275236 0.272605
0.346449 0.345347 0.346886
0.253715 0.253537 0.254405
0.455775 0.456636 0.455314
0.298398 0.297705 0.296053
0.327647 0.328594 0.328422
0.298703 0.294377 0.294830
0.291679 0.292313 0.292088
0.352522 0.352123 0.353900
0.330778 0.331640 0.326468
0.342383 0.343799 0.354847
0.304354 0.306258 0.304888
0.300591 0.299445 0.294083
0.393180 0.394289 0.395553
0.289575 0.293978 0.293565
0.286624 0.287222 0.288973
0.253861 0.253545 0.251028
0.296231 0.298531 0.296453
0.276195 0.276883 0.276222
0.337999 0.339902 0.341191
0.384143 0.384509 0.383088
0.392679 0.395492 0.395257
0.309143 0.309331 0.312151
0.312576 0.316538 0.318134
0.304769 0.304173 0.304248
0.343827 0.345543 0.352257
0.300469 0.298883 0.297402
0.369137 0.368694 0.366781
0.331447 0.331956 0.331882
0.320445 0.318621 0.314966
0.345024 0.347595 0.353741
0.386894 0.388526 0.391864
0.299658 0.298095 0.300708
0.434180 0.433916 0.429510
0.306337 0.308655 0.312445
0.361011 0.359987 0.357054
0.313789 0.316443 0.327347
0.299312 0.305783 0.307473
0.390782 0.387467 0.388199
0.475702 0.474667 0.475477
0.288679 0.287028 0.286501
0.309424 0.307759 0.305412
0.272371 0.272329 0.269615
0.396145 0.394196 0.386136
0.314475 0.309568 0.284277
0.431417 0.428798 0.428531
0.288877 0.288696 0.289579
0.327576 0.326741 0.326867
0.289678 0.290373 0.288670
0.296242 0.296576 0.297639
0.400372 0.401005 0.406015
0.267229 0.267783 0.270961
0.335727 0.339214 0.337647
0.330721 0.329325 0.325811
0.328746 0.328445 0.328324
0.361773 0.360205 0.358133
0.340206 0.336068 0.330964
0.352018 0.350186 0.351387
0.346544 0.344057 0.346787
0.323337 0.323653 0.322581
0.431085 0.433035 0.446477
0.265718 0.265879 0.266804
0.334086 0.332670 0.330183
0.320273 0.323024 0.329998
0.274140 0.278593 0.283762
0.283586 0.282494 0.282816
0.359079 0.366250 0.366438
0.339611 0.345304 0.345497
0.362910 0.364611 0.364580
0.279724 0.279277 0.278767
0.288676 0.296224 0.296450
0.250197 0.251137 0.251398
0.354958 0.362200 0.361515
0.328998 0.325890 0.326045
0.339863 0.339863 0.336196
0.353676 0.352183 0.351940
0.297581 0.297569 0.298796
0.361344 0.361689 0.357324
0.319967 0.318329 0.318756
0.330387 0.331451 0.337738
0.442615 0.443169 0.446029
0.434078 0.433603 0.435664
0.272905 0.270255 0.266348
0.322883 0.321752 0.318795
0.386257 0.392703 0.393484
0.289720 0.291958 0.297251
0.247700 0.249187 0.246734
0.319158 0.320910 0.321934
0.293064 0.291323 0.290792
0.284632 0.284943 0.282582
0.331469 0.333413 0.334011
0.339669 0.330339 0.329402
0.327364 0.328298 0.328588
0.353210 0.348040 0.341803
0.275752 0.276441 0.278811
0.284298 0.281522 0.280486
0.279926 0.280681 0.280735
0.300772 0.301197 0.301176
0.332118 0.330584 0.329201
0.334804 0.334925 0.334586
0.322222 0.319888 0.318514
0.295772 0.293886 0.291242
0.270084 0.271423 0.276415
0.392963 0.394181 0.400880
0.292130 0.295788 0.297794
0.357798 0.355932 0.355501
0.289373 0.291542 0.291026
0.336381 0.341522 0.340791
0.344173 0.348345 0.344232
0.300688 0.302523 0.302858
0.263566 0.262549 0.262617
0.284450 0.286079 0.290789
0.300989 0.301308 0.301926
0.334388 0.328863 0.327154
0.263481 0.264641 0.270562
0.462552 0.460514 0.459952
0.365635 0.365687 0.365925
0.282684 0.281447 0.280341
0.317636 0.316509 0.322925
0.320882 0.313319 0.314567
0.279173 0.280128 0.280333
0.314087 0.314277 0.317410
0.372369 0.377629 0.380417
0.413368 0.412583 0.388860
0.251180 0.252596 0.252392
0.366372 0.364305 0.362750
0.304717 0.305518 0.306336
0.404087 0.404302 0.404383
0.297579 0.298413 0.296185
0.349043 0.351847 0.352366
0.320071 0.320634 0.327239
0.279863 0.282031 0.279243
0.435703 0.436376 0.436591
0.364629 0.365076 0.361475
0.296945 0.296320 0.292916
0.338735 0.325506 0.324991
0.329261 0.328878 0.326217
0.347016 0.347776 0.348155
0.303791 0.301985 0.299940
0.326325 0.325646 0.325455
0.377078 0.375975 0.376183
0.362455 0.361946 0.363890
0.333020 0.330991 0.330209
0.329510 0.334145 0.335393
0.339583 0.341923 0.343218
0.290312 0.289773 0.289841
0.312297 0.309725 0.307481
0.289893 0.290720 0.293275
0.355074 0.354506 0.355139
0.342485 0.341089 0.335884
0.283534 0.283554 0.284635
0.282860 0.282089 0.279724
0.281428 0.281084 0.282072
0.327161 0.327877 0.338845
0.329561 0.329838 0.329451
0.325059 0.324701 0.319868
0.450694 0.453721 0.455301
0.386587 0.390881 0.390483
0.336156 0.330745 0.329374
0.304842 0.301435 0.294521
0.289830 0.289608 0.286816
0.290002 0.283101 0.280772
0.324124 0.323693 0.320561
0.325809 0.336240 0.336262
0.360933 0.361263 0.360778
0.395612 0.395232 0.395786
0.311174 0.312126 0.311593
0.365514 0.365300 0.365193
0.296710 0.300549 0.302204
0.377819 0.377376 0.377550
0.346483 0.342485 0.340761
0.404842 0.405361 0.404429
0.380442 0.378162 0.378164
0.359662 0.359096 0.360749
0.299613 0.301048 0.300140
0.328412 0.328270 0.325548
0.378747 0.379436 0.380840
0.451253 0.452807 0.452987
0.308503 0.308700 0.309895
0.466783 0.463766 0.463678
0.267806 0.266677 0.267261
0.329664 0.329899 0.329394
0.329421 0.327177 0.326992
0.300765 0.301813 0.300189
0.359307 0.358712 0.360452
0.352873 0.353770 0.357166
0.331642 0.327842 0.327679
0.317076 0.312766 0.299204
0.422942 0.421933 0.422336
0.303753 0.304572 0.304079
0.364286 0.365006 0.364291
0.338611 0.338643 0.331531
0.259404 0.261579 0.262048
0.312917 0.314587 0.322686
0.352164 0.352950 0.351246
0.416555 0.415033 0.410913
0.329958 0.326616 0.318537
0.337912 0.338532 0.340197
0.290046 0.289592 0.294470
0.326966 0.332700 0.336881
0.322702 0.326758 0.326393
0.294173 0.295171 0.295360
0.300241 0.298938 0.299468
0.461265 0.472256 0.472660
0.354119 0.355451 0.355231
0.408441 0.407749 0.405443
0.345687 0.345038 0.342107
0.319341 0.321505 0.324430
0.318139 0.317109 0.313188
0.355836 0.358794 0.356510
0.286495 0.287057 0.286173
0.288459 0.290304 0.290340
0.289641 0.289729 0.286892
0.337508 0.332564 0.333229
0.304180 0.302573 0.298274
0.311125 0.311170 0.311442
0.341740 0.341078 0.339044
0.382800 0.388902 0.389545
0.273693 0.275276 0.274696
0.533672 0.540915 0.540972
0.354647 0.354666 0.353114
0.349767 0.351254 0.349746
0.351901 0.348127 0.344629
0.399105 0.406584 0.409487
0.329797 0.333963 0.334728
0.485258 0.486616 0.486314
0.358741 0.360470 0.357711
0.323533 0.322311 0.321877
0.343986 0.343880 0.344330
0.286974 0.287956 0.287173
0.361015 0.361784 0.359629
0.335249 0.336597 0.334386
0.286023 0.286298 0.292160
0.292585 0.293222 0.293177
0.296077 0.295470 0.294162
0.352832 0.351490 0.348768
0.415971 0.412421 0.409299
0.294423 0.293760 0.293061
0.230113 0.229923 0.230039
0.324602 0.320858 0.320806
0.347310 0.347122 0.346076
0.282024 0.283142 0.284963
0.282302 0.285115 0.287223
0.329449 0.330130 0.330093
0.251313 0.256436 0.260613
0.279646 0.279939 0.281650
0.512953 0.454027 0.449331
0.328657 0.326841 0.327213
0.359838 0.368057 0.369583
0.371379 0.372112 0.372792
0.330427 0.331040 0.330636
0.406495 0.407198 0.407508
0.309778 0.310345 0.311973
0.357660 0.354970 0.353879
0.356064 0.355229 0.356619
0.239258 0.239964 0.238107
0.320193 0.318926 0.318673
0.323169 0.324712 0.325338
0.352971 0.354336 0.355668
0.277955 0.275848 0.274509
0.308287 0.309142 0.307893
0.312562 0.315821 0.317492
0.337596 0.335889 0.335217
0.353883 0.355761 0.354540
0.317323 0.314403 0.313007
0.316306 0.312519 0.312016
0.417375 0.417603 0.414158
0.290325 0.291056 0.291970
0.402307 0.403925 0.403170
0.325023 0.324933 0.325451
0.372227 0.374342 0.371821
0.386614 0.381844 0.381964
0.276392 0.276440 0.277249
0.295990 0.306382 0.306622
0.284082 0.283794 0.282970
0.371124 0.371846 0.373012
0.449536 0.445952 0.435429
0.319012 0.319300 0.320341
0.272824 0.270783 0.269165
0.302127 0.303102 0.302612
0.371347 0.367925 0.373138
0.325342 0.325349 0.325662
0.327239 0.331223 0.333173
0.369927 0.411673 0.416587
0.424910 0.420036 0.418679
0.267149 0.268458 0.269663
0.402942 0.400121 0.399186
0.353626 0.352461 0.336156
0.370989 0.369934 0.367072
0.305952 0.306236 0.306535
0.456248 0.456688 0.456421
0.270642 0.267207 0.251606
0.392416 0.390601 0.392739
0.326834 0.328351 0.329545
0.308259 0.308652 0.307890
0.336316 0.337650 0.336586
0.321041 0.314001 0.313816
0.305531 0.305961 0.307032
0.266006 0.264082 0.262232
0.289184 0.289016 0.288279
0.317167 0.317792 0.318084
0.404261 0.404072 0.403893
0.276624 0.275702 0.276426
0.356561 0.356258 0.356406
0.241750 0.244032 0.247762
0.301102 0.304427 0.308287
0.323087 0.323148 0.322156
0.303665 0.303270 0.303634
0.344057 0.344243 0.343308
0.363145 0.364058 0.364103
0.315117 0.314197 0.314055
0.280932 0.280576 0.280700
0.332378 0.334515 0.332312
0.317101 0.318026 0.316776
0.288918 0.286227 0.284718
0.330532 0.331479 0.331584
0.286288 0.284891 0.284945
0.234083 0.233291 0.233817
0.295956 0.296866 0.299094
0.320457 0.319685 0.316578
0.253405 0.251788 0.252876
0.329201 0.330391 0.331131
0.406914 0.406301 0.404869
0.280751 0.281541 0.282020
0.463660 0.462125 0.451784
0.375467 0.375369 0.373383
0.296612 0.296111 0.293107
0.338045 0.338137 0.335815
0.250224 0.249626 0.250864
0.277926 0.277034 0.299318
0.338887 0.337470 0.335646
0.378830 0.380247 0.379811
0.358989 0.358192 0.358616
0.370350 0.370333 0.371537
0.318127 0.315530 0.316167
0.325088 0.326285 0.328500
0.339320 0.337328 0.337163
0.336256 0.335990 0.329448
0.366303 0.367279 0.367536
0.325662 0.325411 0.322650
0.364595 0.365312 0.366035
0.340426 0.341211 0.340635
0.362601 0.363626 0.363367
0.285448 0.286922 0.287648
0.358731 0.360906 0.363226
0.304491 0.303410 0.303915
0.335900 0.333971 0.333712
0.303776 0.304564 0.308298
0.402987 0.406757 0.408783
0.285612 0.282506 0.283287
0.355120 0.353951 0.354078
0.346242 0.348818 0.346707
0.268995 0.268249 0.269625
0.343689 0.345851 0.349469
0.355659 0.356249 0.356095
0.264469 0.264338 0.265867
0.354259 0.357025 0.357446
0.299286 0.298836 0.298602
0.255334 0.256318 0.256052
0.290047 0.288813 0.287068
0.343417 0.341197 0.340975
0.331896 0.331967 0.331260
0.278369 0.287735 0.291562
0.284211 0.291068 0.290301
0.288762 0.291427 0.293885
0.284876 0.280181 0.280709
0.427526 0.427044 0.427133
0.328052 0.328761 0.329867
0.352023 0.355648 0.364864
0.343978 0.344270 0.344005
0.381222 0.380962 0.380327
0.351466 0.350632 0.351230
0.353534 0.351975 0.351239
0.267020 0.266973 0.270454
0.275039 0.274338 0.275390
0.281296 0.282453 0.282177
0.265383 0.264056 0.267397
0.329484 0.330030 0.330139
0.257350 0.256629 0.257478
0.341717 0.341599 0.343804
0.347990 0.348276 0.352107
0.293760 0.293061 0.296788
0.299764 0.302019 0.301008
0.376386 0.378156 0.378693
0.433408 0.433847 0.434631
0.332741 0.332448 0.336728
0.312568 0.313660 0.315175
0.318608 0.321089 0.322371
0.294993 0.291610 0.290781
0.403685 0.406332 0.406648
0.410046 0.407071 0.405560
0.298254 0.296006 0.296500
0.296167 0.295373 0.293875
0.385807 0.384557 0.387219
0.305592 0.316209 0.319553
0.322545 0.321344 0.320309
0.336593 0.333726 0.333496
0.336599 0.334087 0.331966
0.316256 0.317769 0.320394
0.276886 0.278899 0.280203
0.323057 0.320372 0.317445
0.263792 0.264443 0.265410
0.284079 0.288252 0.287366
0.301320 0.300456 0.302272
0.303442 0.301542 0.300395
0.355894 0.359091 0.355462
0.259525 0.259372 0.258784
0.280637 0.283164 0.282857
0.347339 0.346301 0.345322
0.291613 0.293388 0.295173
0.340516 0.341637 0.340127
0.296590 0.298423 0.298308
0.351161 0.358488 0.360428
0.311754 0.311621 0.311432
0.434110 0.432639 0.429518
0.302673 0.296661 0.294760
0.352447 0.350376 0.349376
0.323916 0.324507 0.327421
0.391415 0.390659 0.390704
0.366409 0.362283 0.360347
0.331176 0.329845 0.328946
0.293833 0.291055 0.296012
0.299095 0.298772 0.298949
0.343108 0.338824 0.336254
0.302023 0.299732 0.298042
0.316467 0.317810 0.316759
0.366852 0.368600 0.368272
0.304678 0.303379 0.302814
0.296483 0.291782 0.291451
0.312301 0.313077 0.313038
0.298727 0.297678 0.300458
0.426337 0.426578 0.423088
0.381055 0.387805 0.384743
0.317448 0.317902 0.319562
0.371864 0.374264 0.374248
0.330892 0.327816 0.326694
0.324787 0.323346 0.329502
0.320240 0.321187 0.324607
0.315657 0.315751 0.316431
0.486120 0.486258 0.485108
0.299643 0.300910 0.300897
0.346181 0.345105 0.344425
0.297760 0.298576 0.294318
0.373020 0.369871 0.369252
0.313660 0.315175 0.315683
0.260171 0.260185 0.258908
0.299382 0.290187 0.284673
0.401918 0.403159 0.402317
0.318155 0.317474 0.318062
0.312717 0.313723 0.314814
0.293514 0.294386 0.296465
0.260794 0.260990 0.259494
0.324830 0.325178 0.326251
0.305588 0.303016 0.301303
0.281551 0.282003 0.281732
0.351994 0.341779 0.339521
0.296728 0.297327 0.295747
0.301228 0.301289 0.301830
0.419660 0.422031 0.427323
0.355515 0.355837 0.356167
0.314857 0.312357 0.310390
0.389090 0.389618 0.390479
0.375620 0.394071 0.430035
0.316603 0.314852 0.316300
0.336958 0.334660 0.334008
0.303369 0.302336 0.307051
0.551517 0.553465 0.554186
0.288567 0.289978 0.290021
0.316887 0.319337 0.332325
0.262504 0.263622 0.262996
0.363798 0.363504 0.363826
0.273221 0.275752 0.276441
0.288323 0.280610 0.277865
0.294698 0.296590 0.298423
0.317571 0.317518 0.313010
0.360778 0.362246 0.366645
0.356005 0.358539 0.362737
0.270612 0.270565 0.270644
0.455758 0.456336 0.455953
0.297681 0.296923 0.295917
0.342673 0.341377 0.342165
0.428157 0.435841 0.439972
0.267627 0.264543 0.262370
0.361567 0.338136 0.334686
0.244032 0.247762 0.247985
0.358259 0.358227 0.358556
0.353337 0.351811 0.352137
0.296613 0.285569 0.284257
0.326769 0.326631 0.328001
0.327939 0.327790 0.328279
0.332423 0.330728 0.332888
0.323763 0.324874 0.323585
0.318742 0.318695 0.319283
0.320886 0.320824 0.318677
0.354662 0.354958 0.362200
0.261170 0.260321 0.261172
0.304086 0.305359 0.306471
0.317225 0.321626 0.323403
0.406541 0.410733 0.416477
0.311605 0.312258 0.313598
0.428271 0.428963 0.428843
0.350465 0.351466 0.350632
0.305492 0.304914 0.305998
0.332881 0.407706 0.458981
0.397837 0.392269 0.390713
0.322570 0.324425 0.325059
0.308353 0.307993 0.307946
0.346601 0.349137 0.352961
0.356393 0.355822 0.355483
0.558000 0.555367 0.558655
0.317809 0.318322 0.312723
0.369079 0.370647 0.370444
0.291820 0.292720 0.291927
0.346940 0.349356 0.350734
0.293390 0.293940 0.296027
0.287921 0.286932 0.287607
0.261352 0.260797 0.260264
0.325803 0.327280 0.330593
0.294152 0.294749 0.295523
0.346775 0.346160 0.344259
0.267968 0.261024 0.261074
0.462804 0.462740 0.462521
0.350833 0.340945 0.340081
0.310851 0.312296 0.311211
0.282476 0.282835 0.281511
0.322610 0.324167 0.324526
0.337592 0.335930 0.331536
0.280423 0.283687 0.282890
0.368905 0.367597 0.361159
0.291294 0.294061 0.295956
0.273244 0.266619 0.268065
0.278048 0.278165 0.276538
0.328885 0.329868 0.330806
0.324897 0.326228 0.326614
0.262478 0.261702 0.260978
0.345239 0.341636 0.339061
0.296710 0.291071 0.289008
0.405215 0.405703 0.406469
0.356000 0.355016 0.353853
0.264269 0.261780 0.260724
0.276199 0.276871 0.277441
0.279183 0.278249 0.278747
0.295482 0.295747 0.295627
0.342387 0.341508 0.340002
0.304884 0.304983 0.302926
0.357209 0.364407 0.363318
0.349115 0.348352 0.343603
0.521204 0.520374 0.517688
0.361814 0.360328 0.362657
0.333458 0.333380 0.335434
0.285502 0.285960 0.285366
0.296140 0.295825 0.292536
0.340998 0.342209 0.342499
0.261172 0.261798 0.261944
0.409327 0.409044 0.408407
0.393131 0.392628 0.393638
0.385621 0.391415 0.390659
0.310648 0.309695 0.309482
0.300947 0.296814 0.296783
0.308569 0.312167 0.318471
0.342382 0.342429 0.341953
0.314535 0.314919 0.314691
0.290405 0.292542 0.294761
0.240814 0.237153 0.233713
0.328119 0.327318 0.329752
0.322195 0.320873 0.320101
0.409008 0.408483 0.406643
0.301779 0.301978 0.300988
0.270483 0.271509 0.271025
0.292342 0.293236 0.293503
0.400519 0.404778 0.407462
0.316831 0.318830 0.320604
0.291528 0.290585 0.288762
0.287451 0.286279 0.284579
0.356166 0.358247 0.356541
0.340091 0.340800 0.338282
0.259069 0.258918 0.263435
0.310317 0.313137 0.311933
0.264573 0.264693 0.266044
0.260193 0.266691 0.252512
0.368733 0.368515 0.368846
0.360095 0.360434 0.361041
0.344133 0.348101 0.350290
0.407917 0.406448 0.405315
0.288161 0.289954 0.289206
0.301583 0.300156 0.284294
0.301517 0.301347 0.301470
0.294169 0.296297 0.297315
0.301339 0.300461 0.301139
0.354280 0.353180 0.353261
0.331665 0.330436 0.325176
0.355757 0.355894 0.359091
0.354769 0.356242 0.356286
0.355361 0.356022 0.356954
0.308918 0.308383 0.307604
0.341128 0.343025 0.338554
0.322919 0.321761 0.330226
0.296654 0.295815 0.296757
0.414983 0.411793 0.408555
0.331294 0.330525 0.330754
0.387759 0.387891 0.387907
0.295558 0.294002 0.297103
0.329502 0.338559 0.338724
0.340390 0.339202 0.338760
0.333201 0.332399 0.327491
0.372336 0.371069 0.371709
0.329063 0.330510 0.331604
0.337273 0.340054 0.338806
0.333738 0.335318 0.337373
0.428650 0.431027 0.431489
0.344135 0.343194 0.340283
0.350691 0.351498 0.352993
0.253143 0.254241 0.252304
0.263435 0.266821 0.271291
0.303748 0.302787 0.303601
0.345845 0.345775 0.344751
0.272239 0.272095 0.272537
0.459532 0.457264 0.455535
0.400871 0.401216 0.401882
0.303772 0.306330 0.307804
0.306655 0.306249 0.306279
0.362987 0.363376 0.364475
0.336395 0.336645 0.334308
0.342677 0.340202 0.339917
0.319337 0.332325 0.333119
0.348939 0.350633 0.354502
0.297228 0.303174 0.306735
0.274338 0.275390 0.277015
0.305778 0.308039 0.307293
0.305532 0.306004 0.306678
0.382725 0.383041 0.383344
0.332672 0.334388 0.334242
0.417183 0.412418 0.411880
0.271232 0.270765 0.271451
0.307552 0.307870 0.311650
0.247609 0.244268 0.243352
0.271614 0.270991 0.271612
0.371591 0.370648 0.381808
0.351986 0.354737 0.359375
0.258415 0.244461 0.239236
0.333737 0.333592 0.333020
0.363043 0.361327 0.361021
0.417872 0.417586 0.412453
0.277554 0.277725 0.274794
0.306249 0.306279 0.306899
0.298363 0.298624 0.299129
0.442550 0.444250 0.446621
0.329289 0.330927 0.331749
0.287912 0.288947 0.286910
0.404869 0.406656 0.406274
0.313422 0.312809 0.312716
0.348736 0.346456 0.351484
0.305679 0.306564 0.307502
0.277534 0.277822 0.277120
0.298624 0.299129 0.298204
0.308810 0.320812 0.321187
0.416666 0.415307 0.415946
0.413751 0.413308 0.412956
0.313323 0.311218 0.310994
0.331815 0.331680 0.332328
0.306315 0.304423 0.304648
0.468897 0.470347 0.474854
0.337857 0.339384 0.339617
0.301079 0.299838 0.299002
0.323361 0.317489 0.320016
0.338355 0.336577 0.335681
0.430118 0.429255 0.427995
0.420826 0.420801 0.421064
0.327833 0.328514 0.329125
0.249688 0.249002 0.248407
0.353388 0.353348 0.352907
0.299787 0.301856 0.300354
0.325106 0.324124 0.325893
0.358384 0.357109 0.356368
0.312032 0.310619 0.309229
0.319436 0.319463 0.320729
0.308764 0.307699 0.308193
0.288609 0.288941 0.289528
0.331927 0.333892 0.333496
0.301348 0.303124 0.302382
0.398923 0.398416 0.392556
0.370180 0.369309 0.361603
0.312069 0.308483 0.302753
0.319762 0.321222 0.322968
0.269369 0.267518 0.266868
0.558242 0.557420 0.555848
0.335027 0.334268 0.336086
0.387177 0.386212 0.382227
0.296398 0.297529 0.296773
0.338681 0.341012 0.341840
0.375536 0.372554 0.370994
0.317419 0.319906 0.319773
0.295022 0.299370 0.297752
0.350631 0.349024 0.348832
0.354665 0.352861 0.353396
0.352948 0.351160 0.351874
0.277293 0.282413 0.295792
0.320227 0.320841 0.321360
0.358462 0.362059 0.363260
0.340563 0.340071 0.341187
0.357638 0.356671 0.354667
0.229917 0.230185 0.232382
0.440123 0.434801 0.436683
0.289610 0.285192 0.284070
0.297696 0.297108 0.298399
0.321590 0.329873 0.333173
0.291632 0.294101 0.293248
0.325466 0.325106 0.324124
0.337925 0.337362 0.337804
0.320468 0.324163 0.335102
0.306444 0.307343 0.321002
0.308331 0.309643 0.307977
0.394346 0.395735 0.402137
0.296602 0.296269 0.297259
0.421451 0.420386 0.417731
0.274427 0.274468 0.272161
0.333025 0.335437 0.336313
0.397966 0.396628 0.396250
0.279890 0.278960 0.278715
0.351017 0.351208 0.350540
0.302357 0.299184 0.296600
0.355389 0.352315 0.351399
0.353879 0.352710 0.352845
0.348196 0.347441 0.346758
0.275231 0.275506 0.276649
0.339522 0.338847 0.335824
0.317124 0.314846 0.308041
0.359940 0.361115 0.361668
0.367820 0.355763 0.355064
0.461073 0.449717 0.449342
0.280813 0.280140 0.280772
0.359273 0.353577 0.351407
0.387293 0.386818 0.388865
0.390060 0.391065 0.389798
0.559950 0.556817 0.566213
0.269481 0.269046 0.269674
0.338028 0.338018 0.340239
0.302826 0.301460 0.295267
0.466276 0.467626 0.465941
0.289592 0.294470 0.294309
0.372238 0.366963 0.367946
0.286211 0.288039 0.285860
0.323738 0.326923 0.330490
0.390122 0.389895 0.389151
0.310358 0.309155 0.310413
0.461052 0.458486 0.457413
0.259461 0.260046 0.259869
0.352845 0.354243 0.353541
0.290254 0.290239 0.288600
0.292999 0.291242 0.290212
0.299834 0.299688 0.299371
0.341191 0.337891 0.336496
0.290049 0.288002 0.286037
0.431955 0.431571 0.433715
0.388074 0.386855 0.388578
0.283446 0.283013 0.282940
0.271435 0.270238 0.270507
0.429852 0.432418 0.432498
0.261942 0.262192 0.263053
0.300850 0.303767 0.305218
0.326922 0.334964 0.335489
0.431784 0.433091 0.436845
0.433895 0.429929 0.429423
0.305691 0.304259 0.303163
0.438986 0.440923 0.444474
0.306301 0.301351 0.299611
0.280429 0.280205 0.279481
0.264616 0.267410 0.270059
0.281535 0.282210 0.281622
0.323528 0.324077 0.324105
0.303326 0.311218 0.311757
0.286744 0.286242 0.286940
0.465941 0.465415 0.453980
0.313386 0.312293 0.315396
0.284636 0.283482 0.285528
0.297914 0.294135 0.291995
0.357077 0.359045 0.360824
0.305853 0.302807 0.293915
0.354544 0.353140 0.351525
0.322998 0.321216 0.320499
0.302829 0.300142 0.299277
0.333409 0.334652 0.333174
0.523209 0.522931 0.519947
0.364144 0.368196 0.394004
0.452901 0.450775 0.451871
0.371960 0.373012 0.369533
0.388568 0.388950 0.387007
0.356242 0.356286 0.356425
0.248681 0.245064 0.244641
0.289743 0.288510 0.290690
0.336354 0.336440 0.334464
0.368283 0.371941 0.373594
0.284540 0.284318 0.284283
0.247832 0.247096 0.246788
0.344879 0.342825 0.341181
0.324532 0.325817 0.327736
0.310600 0.312102 0.311543
0.333936 0.332527 0.330088
0.262966 0.262989 0.263719
0.281620 0.284596 0.288523
0.307687 0.306187 0.308456
0.312605 0.314857 0.312357
0.289648 0.290888 0.296350
0.296827 0.285096 0.280765
