0.042958 0.043140 0.043123
0.042543 0.042721 0.042619
0.044607 0.044814 0.044342
0.046724 0.047232 0.047383
0.040808 0.040354 0.040502
0.043664 0.043398 0.043311
0.042233 0.042228 0.042203
0.045899 0.045729 0.045881
0.046383 0.046968 0.046933
0.040981 0.041029 0.041003
0.042120 0.042136 0.042115
0.040160 0.040009 0.039980
0.044999 0.045010 0.044537
0.043528 0.043634 0.043258
0.047126 0.046692 0.046339
0.056748 0.056918 0.056920
0.048399 0.048296 0.048542
0.041990 0.042108 0.042423
0.044964 0.044722 0.044388
0.036751 0.036826 0.036704
0.039841 0.040042 0.040151
0.042586 0.043388 0.043432
0.036794 0.036621 0.036453
0.038797 0.038944 0.039046
0.049254 0.049156 0.049107
0.041774 0.041607 0.041578
0.047536 0.047522 0.047690
0.040914 0.040931 0.041247
0.037491 0.037555 0.037382
0.040571 0.040491 0.040497
0.045502 0.045631 0.045979
0.043102 0.043247 0.043114
0.046390 0.045801 0.045522
0.048337 0.048331 0.048380
0.040560 0.040716 0.040909
0.043693 0.044106 0.044464
0.040069 0.040169 0.040378
0.046988 0.046768 0.046668
0.044014 0.043928 0.045208
0.036444 0.037109 0.037053
0.052957 0.053142 0.053386
0.048501 0.048275 0.047701
0.039179 0.039707 0.039717
0.038695 0.038935 0.038847
0.038539 0.038757 0.038718
0.038598 0.038523 0.038518
0.041764 0.041912 0.042172
0.040617 0.040569 0.040839
0.040781 0.040902 0.040569
0.047445 0.047379 0.047351
0.039228 0.038741 0.038543
0.042709 0.042580 0.042395
0.039723 0.039669 0.039380
0.039382 0.039381 0.039911
0.045518 0.045450 0.045141
0.047025 0.047174 0.046991
0.040924 0.040897 0.040830
0.045708 0.045643 0.045964
0.040201 0.040338 0.040380
0.075335 0.076110 0.076762
0.036093 0.035802 0.036001
0.047040 0.046258 0.046234
0.070260 0.070671 0.070693
0.037004 0.037084 0.037122
0.040998 0.041218 0.041221
0.041929 0.041906 0.042351
0.043100 0.042880 0.042888
0.049895 0.049964 0.049819
0.037319 0.037356 0.037645
0.045805 0.045828 0.045618
0.043428 0.044091 0.044730
0.037121 0.036848 0.036600
0.044520 0.044747 0.044872
0.038501 0.038505 0.038440
0.042480 0.042471 0.042163
0.040046 0.040085 0.040260
0.040725 0.040839 0.041039
0.044300 0.044560 0.044479
0.046116 0.045996 0.046113
0.040080 0.040092 0.040326
0.043653 0.043571 0.043836
0.039115 0.039141 0.039010
0.036803 0.036915 0.037183
0.043305 0.043650 0.044191
0.037994 0.037670 0.037499
0.040839 0.040580 0.040348
0.039610 0.039773 0.039520
0.045563 0.045422 0.045830
0.048345 0.048217 0.048082
0.042875 0.042641 0.042525
0.039500 0.039701 0.039596
0.040707 0.040530 0.040469
0.039172 0.039123 0.039288
0.039602 0.039646 0.039430
0.041022 0.041147 0.041474
0.059088 0.058846 0.058815
0.038484 0.038404 0.038212
0.041731 0.041729 0.041491
0.041189 0.041176 0.041335
0.039366 0.039996 0.041056
0.076481 0.076718 0.076230
0.040453 0.040458 0.040678
0.050723 0.049890 0.049770
0.040511 0.040857 0.040482
0.043790 0.043800 0.043008
0.041981 0.042107 0.042149
0.045580 0.045800 0.045494
0.044601 0.044706 0.044988
0.042173 0.042251 0.042379
0.045769 0.045880 0.045591
0.041180 0.041141 0.040813
0.040341 0.040006 0.039771
0.048506 0.047862 0.047745
0.041716 0.041860 0.042183
0.041779 0.041744 0.042030
0.043261 0.043747 0.043745
0.039780 0.040150 0.040159
0.039792 0.039471 0.039043
0.062125 0.062127 0.062268
0.042313 0.042656 0.042701
0.040858 0.041377 0.041515
0.035905 0.035747 0.035548
0.041393 0.042182 0.043248
0.049051 0.049256 0.049155
0.061876 0.061947 0.062146
0.041564 0.041598 0.041393
0.056584 0.056189 0.055976
0.041468 0.041274 0.041427
0.042403 0.042327 0.042433
0.043310 0.043258 0.043235
0.075627 0.075865 0.075428
0.039906 0.039763 0.039642
0.053209 0.053450 0.053469
0.042306 0.042505 0.042753
0.039792 0.039890 0.040474
0.063606 0.063723 0.063935
0.044974 0.044889 0.043623
0.044886 0.044892 0.044694
0.039954 0.039902 0.039329
0.040447 0.040243 0.040135
0.046637 0.046832 0.046712
0.040088 0.040131 0.040198
0.040175 0.040318 0.040422
0.040475 0.040519 0.040586
0.034763 0.034724 0.034770
0.042698 0.042793 0.042838
0.042993 0.042828 0.042301
0.039661 0.039438 0.039227
0.038202 0.038312 0.038077
0.042601 0.041742 0.041968
0.040855 0.040944 0.040709
0.046697 0.046765 0.046732
0.078056 0.076270 0.075438
0.042987 0.042837 0.042786
0.043985 0.044003 0.044002
0.043561 0.043657 0.043909
0.038632 0.038834 0.038575
0.040808 0.041287 0.041505
0.041813 0.041863 0.041763
0.040988 0.040675 0.041446
0.046303 0.046141 0.046188
0.039100 0.039085 0.039773
0.037043 0.036834 0.036303
0.039624 0.039601 0.039626
0.041942 0.042006 0.041864
0.042912 0.042936 0.042932
0.040392 0.040440 0.040432
0.043994 0.044005 0.043392
0.053025 0.053202 0.053363
0.040866 0.041240 0.040586
0.038254 0.038368 0.038156
0.041894 0.041608 0.041615
0.040647 0.040532 0.040271
0.049443 0.046747 0.046375
0.038803 0.038696 0.038593
0.062201 0.060269 0.058182
0.040112 0.040420 0.040373
0.039562 0.039802 0.039899
0.047223 0.047384 0.047392
0.040196 0.040225 0.040357
0.051986 0.051832 0.051824
0.042150 0.041965 0.041618
0.037671 0.037886 0.037868
0.043093 0.043078 0.042976
0.038188 0.038632 0.038766
0.042018 0.041864 0.041717
0.045821 0.045965 0.045976
0.038112 0.038415 0.038449
0.054374 0.054167 0.053036
0.043258 0.043628 0.043391
0.046622 0.046852 0.046630
0.036728 0.036580 0.036738
0.040664 0.040897 0.041145
0.041623 0.041608 0.040919
0.041141 0.041236 0.041151
0.043100 0.043270 0.043380
0.050721 0.050956 0.054826
0.048138 0.048266 0.048079
0.043158 0.042674 0.042567
0.040526 0.040630 0.040566
0.047201 0.048166 0.048603
0.035958 0.035738 0.035710
0.043021 0.042360 0.042615
0.044895 0.044846 0.044757
0.040005 0.040050 0.039937
0.042885 0.042607 0.042540
0.041911 0.042050 0.042062
0.041739 0.042081 0.042080
0.044946 0.043994 0.044005
0.040188 0.040103 0.039147
0.045479 0.045560 0.045527
0.043383 0.043910 0.044310
0.041915 0.041901 0.041896
0.048711 0.048395 0.048858
0.042809 0.042351 0.042022
0.043108 0.042609 0.041899
0.039622 0.039428 0.039647
0.045849 0.045661 0.045632
0.037191 0.037255 0.037205
0.045854 0.045934 0.045770
0.048319 0.048495 0.048961
0.087481 0.087637 0.087690
0.056002 0.055034 0.054600
0.035410 0.036070 0.036258
0.042008 0.042012 0.041939
0.039396 0.039363 0.039327
0.042921 0.043002 0.043312
0.041247 0.041445 0.041035
0.036999 0.036787 0.036746
0.040486 0.040811 0.040856
0.040130 0.040324 0.040225
0.037651 0.038095 0.038183
0.046311 0.045873 0.045954
0.040255 0.039629 0.039466
0.047839 0.047837 0.047908
0.043112 0.042684 0.042856
0.044981 0.045388 0.045494
0.039640 0.039619 0.039451
0.044176 0.044429 0.044516
0.039993 0.039916 0.040037
0.052730 0.051935 0.051880
0.047484 0.047849 0.047833
0.044052 0.043636 0.043525
0.049951 0.049860 0.049785
0.045033 0.045037 0.045668
0.054238 0.054089 0.053467
0.039595 0.039609 0.040154
0.040681 0.040927 0.040779
0.040855 0.040286 0.040198
0.041863 0.041818 0.041752
0.051431 0.051017 0.050313
0.044667 0.044781 0.044739
0.042011 0.042001 0.041966
0.043418 0.043333 0.043162
0.045974 0.044952 0.044210
0.048400 0.048480 0.048360
0.038757 0.038718 0.038938
0.041580 0.041879 0.042058
0.051067 0.051143 0.051241
0.048339 0.048295 0.048070
0.036956 0.036914 0.036771
0.039763 0.039712 0.039724
0.047746 0.047733 0.047492
0.042094 0.041940 0.042136
0.039971 0.039468 0.039311
0.037382 0.037624 0.037343
0.045053 0.044968 0.044876
0.040554 0.040451 0.040321
0.042815 0.041428 0.040717
0.049769 0.049804 0.049778
0.039340 0.039351 0.039732
0.042052 0.041853 0.041815
0.046719 0.046847 0.046531
0.041202 0.041308 0.041026
0.039372 0.039297 0.039575
0.065139 0.065195 0.065153
0.039029 0.039393 0.039456
0.040646 0.040583 0.040531
0.042588 0.042495 0.042901
0.038128 0.038747 0.037872
0.039176 0.039264 0.039413
0.041957 0.041909 0.041916
0.039826 0.039931 0.040052
0.042707 0.042784 0.042926
0.041925 0.041930 0.042039
0.039301 0.039318 0.039708
0.042039 0.041679 0.042102
0.043445 0.043553 0.043392
0.041428 0.041555 0.041600
0.046667 0.046486 0.046537
0.044693 0.044530 0.044332
0.048630 0.048308 0.048293
0.042234 0.042437 0.042370
0.041577 0.041488 0.041177
0.043273 0.043260 0.043202
0.040374 0.040542 0.040297
0.044393 0.044283 0.044379
0.043192 0.043276 0.043376
0.038051 0.037870 0.037959
0.039546 0.039451 0.039438
0.044575 0.044489 0.044308
0.043078 0.043182 0.043602
0.043427 0.043780 0.043768
0.040058 0.040111 0.040344
0.041857 0.041764 0.041823
0.043222 0.043197 0.043092
0.042887 0.042668 0.042670
0.041901 0.041117 0.041248
0.056778 0.057012 0.056941
0.041099 0.041078 0.041091
0.046000 0.047573 0.048046
0.043280 0.043042 0.043392
0.046801 0.046880 0.047572
0.048195 0.048055 0.047756
0.044533 0.044884 0.045217
0.039332 0.039707 0.039711
0.040695 0.040962 0.041004
0.036808 0.037993 0.038000
0.043693 0.043946 0.043690
0.043950 0.044122 0.044411
0.043120 0.042562 0.041942
0.038443 0.038253 0.038534
0.041966 0.042092 0.042621
0.042920 0.042724 0.042892
0.067616 0.067401 0.066860
0.041674 0.042477 0.042729
0.040165 0.040323 0.040384
0.043202 0.043308 0.043217
0.039904 0.039947 0.039449
0.043059 0.043197 0.043280
0.042872 0.043144 0.043407
0.035750 0.036161 0.036562
0.061915 0.061974 0.061922
0.035775 0.035619 0.035530
0.042896 0.043035 0.043283
0.045456 0.045516 0.044910
0.041486 0.041497 0.041161
0.041526 0.041682 0.041552
0.035833 0.035979 0.035800
0.049630 0.049829 0.049931
0.044287 0.044386 0.044652
0.038094 0.038331 0.037383
0.041510 0.041428 0.041555
0.039368 0.039396 0.039363
0.038140 0.038219 0.037434
0.037915 0.038677 0.038917
0.039106 0.039377 0.039588
0.039738 0.040293 0.040989
0.043194 0.043357 0.043253
0.041225 0.041034 0.041031
0.042687 0.042455 0.043390
0.041151 0.041473 0.041409
0.046250 0.046097 0.046564
0.040216 0.039954 0.039902
0.037809 0.037547 0.037541
0.044780 0.044171 0.044002
0.036719 0.036572 0.036628
0.039632 0.039647 0.039544
0.042222 0.042444 0.042904
0.041994 0.041474 0.041401
0.042359 0.042414 0.042458
0.040420 0.040811 0.040718
0.049979 0.049920 0.049984
0.037010 0.036969 0.036366
0.040418 0.040464 0.040196
0.040038 0.040237 0.040496
0.039672 0.039953 0.040271
0.044310 0.044515 0.044649
0.040153 0.040186 0.040157
0.041033 0.040927 0.040552
0.039731 0.039798 0.039729
0.041295 0.041610 0.042528
0.042292 0.042196 0.042352
0.042819 0.043921 0.043995
0.042005 0.043188 0.043738
0.044401 0.044448 0.044298
0.039803 0.039598 0.040209
0.043309 0.043012 0.043018
0.041607 0.041522 0.042020
0.039016 0.038911 0.037959
0.078966 0.078740 0.078023
0.041017 0.040853 0.040868
0.036076 0.035582 0.035479
0.039799 0.039830 0.039890
0.040619 0.040886 0.040809
0.049440 0.047538 0.046390
0.042884 0.042782 0.042597
0.038507 0.038569 0.038499
0.045592 0.045749 0.044966
0.060079 0.060266 0.059838
0.040093 0.039242 0.039039
0.036948 0.036887 0.036905
0.038819 0.040022 0.039851
0.045268 0.045580 0.045800
0.036624 0.036318 0.036036
0.041533 0.041935 0.041890
0.041913 0.042331 0.042779
0.043322 0.042979 0.043198
0.042954 0.042993 0.042861
0.044163 0.044047 0.044115
0.047137 0.047147 0.047531
0.042239 0.042017 0.042030
0.041740 0.041738 0.041401
0.045164 0.044907 0.044946
0.043996 0.044069 0.044274
0.040054 0.039494 0.039665
0.043423 0.043449 0.043222
0.040478 0.040620 0.040872
0.035166 0.035393 0.035140
0.042036 0.041948 0.042759
0.046122 0.046003 0.045503
0.042877 0.042949 0.043159
0.041114 0.041502 0.041570
0.037067 0.036796 0.036120
0.043529 0.043356 0.043238
0.041240 0.040112 0.039729
0.041149 0.041097 0.042464
0.038313 0.037682 0.038472
0.040725 0.040978 0.040992
0.046375 0.046535 0.046617
0.039690 0.039842 0.039586
0.044929 0.044722 0.044753
0.041335 0.041325 0.041517
0.037709 0.037351 0.037215
0.040662 0.040842 0.040889
0.039297 0.039529 0.039536
0.038835 0.038804 0.038846
0.040862 0.040779 0.040586
0.048864 0.049063 0.048686
0.048787 0.048825 0.047878
0.042502 0.042729 0.042746
0.038308 0.038518 0.038392
0.037128 0.036935 0.037488
0.037934 0.038404 0.038476
0.038784 0.038741 0.038868
0.040530 0.040813 0.040937
0.051979 0.052496 0.052296
0.041718 0.041913 0.041897
0.041798 0.041564 0.041312
0.042095 0.042139 0.041901
0.037021 0.037140 0.037588
0.047702 0.047714 0.047743
0.077214 0.078199 0.080331
0.038474 0.037985 0.037905
0.041021 0.040827 0.040500
0.041669 0.041669 0.041714
0.045709 0.045987 0.046248
0.041953 0.042381 0.041934
0.040508 0.040326 0.039994
0.046163 0.046135 0.046244
0.062846 0.062956 0.062439
0.039531 0.039439 0.039168
0.043316 0.043364 0.043352
0.039439 0.039202 0.039116
0.040466 0.040769 0.041346
0.040550 0.040405 0.040420
0.037111 0.036718 0.036539
0.046413 0.046270 0.046203
0.042722 0.042750 0.042945
0.040245 0.040223 0.040288
0.041616 0.041733 0.041419
0.040862 0.040953 0.040989
0.037825 0.037246 0.037235
0.040157 0.040149 0.039899
0.043834 0.043529 0.043474
0.049063 0.048978 0.049211
0.042843 0.042853 0.043111
0.040503 0.040586 0.040178
0.045516 0.045192 0.045282
0.038699 0.038616 0.038870
0.045633 0.045724 0.045691
0.050881 0.050893 0.050695
0.047273 0.047706 0.047918
0.046009 0.044982 0.044587
0.061877 0.061704 0.061739
0.039911 0.039728 0.039835
0.038653 0.038781 0.038754
0.040132 0.040322 0.040324
0.044414 0.044388 0.044153
0.042012 0.042366 0.042435
0.045830 0.045818 0.046164
0.039627 0.039519 0.039687
0.040078 0.039818 0.039483
0.043341 0.043034 0.043040
0.048929 0.049034 0.049128
0.038476 0.038504 0.038866
0.040498 0.040632 0.040588
0.062158 0.062104 0.061597
0.048151 0.048226 0.048358
0.044400 0.044344 0.044531
0.040814 0.040854 0.040774
0.038525 0.038260 0.038201
0.040274 0.040511 0.040682
0.039881 0.039700 0.039429
0.036097 0.035870 0.036226
0.050226 0.050521 0.050500
0.042509 0.042339 0.042438
0.040022 0.040283 0.040259
0.039192 0.039063 0.038851
0.040567 0.040612 0.040801
0.050968 0.049703 0.048632
0.042684 0.042777 0.042894
0.041726 0.041353 0.040871
0.041648 0.040947 0.040721
0.039781 0.040037 0.040481
0.051398 0.051247 0.051234
0.040705 0.039857 0.039698
0.040323 0.040102 0.040144
0.042794 0.042216 0.042150
0.039667 0.039299 0.039493
0.044140 0.044251 0.044375
0.043065 0.042801 0.042589
0.042371 0.042575 0.042557
0.040080 0.038899 0.038796
0.047050 0.046527 0.046538
0.036699 0.036794 0.037033
0.048482 0.048355 0.048624
0.038070 0.038138 0.037745
0.037910 0.037757 0.037823
0.043787 0.043864 0.043931
0.037570 0.037742 0.037634
0.041120 0.041268 0.040835
0.043991 0.044073 0.043866
0.038544 0.038523 0.038399
0.049383 0.049620 0.049712
0.043036 0.043008 0.043254
0.037690 0.036613 0.036707
0.036541 0.036429 0.036883
0.046631 0.046015 0.045800
0.040770 0.041071 0.041146
0.043426 0.043416 0.043020
0.040317 0.040407 0.040466
0.050704 0.050721 0.050956
0.040914 0.040757 0.040563
0.043122 0.043592 0.044577
0.044617 0.044865 0.045283
0.040425 0.040169 0.040678
0.046006 0.045885 0.045766
0.042130 0.042053 0.041697
0.044228 0.043752 0.043575
0.043894 0.044075 0.043894
0.039883 0.040028 0.039752
0.047888 0.048015 0.048192
0.043453 0.043100 0.042780
0.047303 0.047134 0.047394
0.041179 0.041191 0.041011
0.037778 0.037233 0.037294
0.038222 0.038068 0.038078
0.045826 0.045806 0.046212
0.050197 0.049979 0.049920
0.042934 0.042831 0.042955
0.037880 0.038025 0.037955
0.051627 0.051631 0.051667
0.043544 0.043350 0.043167
0.047297 0.047341 0.047436
0.039902 0.040367 0.040823
0.039493 0.039382 0.039714
0.044734 0.044830 0.045015
0.045553 0.045967 0.045927
0.040503 0.040319 0.040038
0.048634 0.048298 0.048221
0.044403 0.044323 0.044090
0.038593 0.038504 0.038420
0.041009 0.040954 0.041749
0.041307 0.041372 0.041368
0.040721 0.040513 0.040453
0.037390 0.037580 0.037480
0.039454 0.039103 0.039216
0.048004 0.047947 0.048345
0.037005 0.037200 0.037280
0.044502 0.044729 0.044889
0.043580 0.043516 0.043420
0.046772 0.046637 0.046832
0.055906 0.055889 0.056243
0.041169 0.041293 0.041770
0.039218 0.039078 0.039087
0.045124 0.044185 0.043659
0.039772 0.039695 0.040058
0.040146 0.040345 0.039872
0.039578 0.039770 0.040790
0.054664 0.054604 0.054558
0.042529 0.042400 0.042365
0.039169 0.038761 0.038390
0.039223 0.038757 0.038666
0.046924 0.046465 0.046268
0.039816 0.039656 0.039947
0.054563 0.054495 0.054544
0.043973 0.043978 0.043830
0.042366 0.042419 0.041953
0.047297 0.047148 0.047239
0.052089 0.051986 0.051832
0.051832 0.051824 0.051871
0.039898 0.039639 0.039729
0.040717 0.040594 0.040226
0.042096 0.042121 0.042183
0.045370 0.045358 0.044998
0.038433 0.038510 0.038640
0.037608 0.037646 0.037731
0.041983 0.041838 0.042592
0.045170 0.044715 0.044928
0.037764 0.037835 0.037827
0.039475 0.039172 0.039123
0.041682 0.041552 0.041129
0.040354 0.040305 0.040693
0.039883 0.039995 0.040072
0.038126 0.038281 0.037631
0.038649 0.038559 0.038842
0.042026 0.042029 0.042166
0.041708 0.042173 0.041858
0.040843 0.040833 0.040942
0.039735 0.039499 0.039518
0.040138 0.040014 0.039992
0.041054 0.041211 0.040838
0.039338 0.039456 0.039623
0.043304 0.043102 0.043257
0.039571 0.039951 0.039838
0.037319 0.037338 0.037565
0.050161 0.050415 0.050457
0.039891 0.039899 0.039567
0.036827 0.036494 0.036871
0.046211 0.046787 0.047048
0.038212 0.039123 0.039142
0.037447 0.037943 0.037921
0.039522 0.039641 0.039989
0.050069 0.050016 0.049929
0.043030 0.042916 0.042943
0.038908 0.038442 0.038517
0.042858 0.042713 0.042883
0.040468 0.040449 0.040379
0.043225 0.043369 0.043356
0.039498 0.039412 0.039336
0.040057 0.040204 0.040382
0.038309 0.038473 0.038473
0.041294 0.041632 0.041828
0.038616 0.038498 0.038145
0.041909 0.041685 0.041880
0.036582 0.036731 0.037051
0.041992 0.041982 0.041739
0.044581 0.044587 0.044441
0.040610 0.040254 0.040295
0.045643 0.045964 0.046104
0.045476 0.045479 0.045579
0.040570 0.040630 0.040510
0.039765 0.039645 0.039626
0.039667 0.039857 0.039881
0.042745 0.043068 0.043163
0.042690 0.042402 0.043301
0.040439 0.041476 0.041789
0.040009 0.039980 0.039913
0.044863 0.044978 0.044045
0.039031 0.039020 0.039169
0.043210 0.043519 0.043143
0.040750 0.040906 0.041175
0.043983 0.043963 0.043881
0.043398 0.043226 0.043234
0.041586 0.041483 0.041261
0.043866 0.043540 0.043753
0.040087 0.040265 0.040212
0.036990 0.036588 0.036549
0.038403 0.038399 0.038165
0.045009 0.045412 0.045620
0.040965 0.040708 0.040715
0.049690 0.049362 0.049439
0.061724 0.060464 0.059319
0.041929 0.042005 0.042218
0.043083 0.043701 0.043497
0.045463 0.044912 0.044918
0.042097 0.042066 0.042232
0.040013 0.040195 0.040073
0.045623 0.045974 0.045895
0.041298 0.041417 0.041648
0.048068 0.047911 0.047933
0.045109 0.044477 0.044437
0.040653 0.040660 0.040420
0.038968 0.039095 0.039312
0.041409 0.041239 0.041370
0.047816 0.047928 0.047914
0.037704 0.037736 0.037628
0.059769 0.059785 0.059065
0.042525 0.042489 0.042354
0.040431 0.039925 0.040135
0.042334 0.042346 0.042858
0.042985 0.043031 0.042982
0.038334 0.038457 0.038484
0.040350 0.040088 0.040057
0.044946 0.044855 0.044678
0.038995 0.039124 0.039325
0.040590 0.040575 0.040579
0.039638 0.039467 0.039801
0.045871 0.045883 0.045983
0.039021 0.038205 0.038073
0.047621 0.047598 0.047198
0.042745 0.042718 0.042804
0.043799 0.043863 0.045160
0.042593 0.042613 0.042612
0.039920 0.039583 0.039802
0.046023 0.045945 0.045745
0.048796 0.049395 0.049265
0.039780 0.039709 0.039049
0.044110 0.044091 0.044098
0.044866 0.044642 0.044924
0.047315 0.046483 0.044842
0.038901 0.038822 0.039020
0.043213 0.043229 0.043198
0.042258 0.041933 0.042162
0.054710 0.054333 0.053935
0.037739 0.038218 0.038134
0.039845 0.039912 0.039965
0.043151 0.043628 0.043564
0.040753 0.040532 0.040214
0.041606 0.041899 0.041447
0.074677 0.074990 0.075029
0.047279 0.047342 0.047271
0.050008 0.049673 0.049523
0.040037 0.040026 0.040026
0.036943 0.036987 0.037023
0.040630 0.040813 0.040832
0.039341 0.039961 0.039467
0.043752 0.043783 0.043833
0.039004 0.039075 0.038933
0.041881 0.042233 0.042214
0.039131 0.039192 0.039088
0.038902 0.039136 0.039112
0.043277 0.043153 0.042673
0.043121 0.043119 0.043310
0.043740 0.042834 0.042384
0.039488 0.039293 0.039541
0.039403 0.039437 0.039379
0.042434 0.042271 0.041913
0.037579 0.038722 0.039016
0.042113 0.042283 0.042350
0.039925 0.039912 0.039568
0.042703 0.042693 0.042469
0.040210 0.040066 0.040088
0.039056 0.038874 0.039120
0.041993 0.041853 0.041793
0.039384 0.039307 0.039568
0.058732 0.058776 0.058902
0.039660 0.039768 0.038929
0.040455 0.040668 0.040773
0.049228 0.049434 0.049423
0.041410 0.040938 0.041116
0.042880 0.042569 0.042473
0.039301 0.039738 0.039620
0.040169 0.040207 0.040276
0.087792 0.088515 0.088632
0.041313 0.041328 0.041071
0.041134 0.041592 0.042236
0.056233 0.056258 0.056499
0.044826 0.044951 0.044913
0.048237 0.048339 0.048201
0.043183 0.043261 0.043148
0.046180 0.046009 0.044982
0.046546 0.046608 0.046466
0.054680 0.054691 0.054744
0.042137 0.041648 0.041959
0.042925 0.042744 0.042584
0.038559 0.038579 0.038558
0.039217 0.039735 0.039759
0.042327 0.042250 0.042195
0.043368 0.043330 0.043859
0.053897 0.053238 0.052716
0.042804 0.042788 0.043035
0.041024 0.040638 0.040348
0.045185 0.045248 0.045394
0.044646 0.044420 0.044070
0.045798 0.046117 0.046027
0.048037 0.048011 0.047953
0.045149 0.044423 0.043872
0.042718 0.042593 0.042629
0.041547 0.041639 0.041440
0.039743 0.039938 0.040018
0.041690 0.041712 0.041831
0.038923 0.038952 0.038218
0.038932 0.039138 0.039247
0.038910 0.038298 0.038146
0.040470 0.039829 0.039320
0.043089 0.043049 0.043267
0.048020 0.048284 0.048030
0.048045 0.048418 0.048368
0.037458 0.037608 0.037334
0.040600 0.040640 0.040484
0.039592 0.039640 0.039619
0.045469 0.045248 0.045174
0.041866 0.041854 0.041762
0.047594 0.047647 0.047899
0.038924 0.038820 0.038753
0.046100 0.046722 0.047613
0.043604 0.044302 0.044143
0.041157 0.040968 0.040557
0.047704 0.047860 0.047832
0.040790 0.040353 0.040219
0.041405 0.041908 0.041826
0.038756 0.038721 0.038653
0.040946 0.041151 0.041203
0.036214 0.036092 0.035587
0.046703 0.046679 0.046683
0.049364 0.050177 0.050561
0.039808 0.039871 0.040524
0.044356 0.044487 0.044518
0.039265 0.039368 0.039512
0.048893 0.049086 0.049255
0.044296 0.043848 0.043980
0.041813 0.041591 0.041222
0.049442 0.049445 0.049650
0.049428 0.049643 0.049195
0.037848 0.037904 0.038376
0.037692 0.036612 0.036684
0.054590 0.054380 0.054376
0.058705 0.065560 0.068451
0.040219 0.040133 0.040581
0.045392 0.045863 0.045975
0.041949 0.041780 0.042466
0.045872 0.045947 0.045577
0.044299 0.044356 0.044487
0.072594 0.073685 0.073608
0.041477 0.041023 0.040963
0.044486 0.044600 0.043928
0.040355 0.040053 0.039888
0.037820 0.037850 0.037743
0.036079 0.036226 0.036152
0.042964 0.043387 0.043374
0.040718 0.040615 0.040707
0.045983 0.046074 0.046447
0.036229 0.036242 0.036446
0.043927 0.044065 0.043867
0.049011 0.049443 0.049255
0.039970 0.039480 0.039456
0.039819 0.039877 0.039776
0.042955 0.043155 0.042906
0.047164 0.047171 0.046744
0.049128 0.049150 0.050129
0.042193 0.041905 0.042200
0.057715 0.058884 0.059519
0.046968 0.046603 0.046358
0.038592 0.038335 0.038669
0.041939 0.041581 0.041300
0.041251 0.041123 0.040900
0.073608 0.073530 0.073433
0.039776 0.039763 0.040045
0.038310 0.038786 0.038780
0.041177 0.040920 0.040803
0.040068 0.039849 0.039702
0.043311 0.042754 0.042209
0.047408 0.047779 0.047694
0.049669 0.048257 0.047866
0.050791 0.051329 0.051681
0.040004 0.040156 0.040274
0.040764 0.040578 0.040582
0.040554 0.040378 0.040207
0.036924 0.037266 0.036990
0.041277 0.041278 0.041304
0.039218 0.039028 0.038998
0.039204 0.039341 0.039752
0.042215 0.041381 0.041521
0.043253 0.043923 0.043972
0.050532 0.050424 0.050297
0.050018 0.050103 0.050042
0.042398 0.042380 0.042410
0.042568 0.042258 0.041933
0.041643 0.040868 0.040873
0.047867 0.047843 0.047587
0.065104 0.064393 0.063020
0.038120 0.038247 0.037884
0.040548 0.040635 0.040509
0.054615 0.054590 0.054386
0.043455 0.043303 0.043437
0.039021 0.038873 0.038836
0.062035 0.062115 0.062036
0.043138 0.043116 0.042878
0.077011 0.077092 0.077097
0.042612 0.042705 0.042601
0.041884 0.041901 0.041117
0.041777 0.042070 0.041963
0.042943 0.043538 0.043773
0.044174 0.044981 0.045531
0.048290 0.048601 0.048660
0.040816 0.040969 0.041351
0.042932 0.042817 0.043260
0.041487 0.041291 0.041167
0.044569 0.044358 0.044225
0.043456 0.042985 0.042798
0.039686 0.039798 0.040078
0.042389 0.042371 0.042575
0.067338 0.067424 0.067442
0.042394 0.042738 0.042633
0.038021 0.038030 0.037833
0.040117 0.039938 0.039800
0.043956 0.043810 0.043773
0.038939 0.038454 0.038595
0.061831 0.061764 0.061926
0.040448 0.040468 0.040497
0.048906 0.049018 0.048864
0.041515 0.041754 0.041813
0.038400 0.038320 0.038432
0.047413 0.047238 0.047218
0.044057 0.044183 0.044044
0.040343 0.041180 0.041141
0.038387 0.038596 0.038794
0.037833 0.037823 0.037720
0.040177 0.040227 0.040139
0.046302 0.046505 0.046182
0.042556 0.042550 0.042374
0.039991 0.040104 0.039983
0.043528 0.043721 0.043993
0.046643 0.046869 0.046604
0.040442 0.040244 0.040036
0.035758 0.036659 0.036856
0.042491 0.042458 0.042076
0.042387 0.042529 0.042400
0.040966 0.040789 0.040807
0.042953 0.044054 0.044352
0.046485 0.046261 0.046159
0.039219 0.039009 0.039575
0.037210 0.037202 0.037105
0.040312 0.040815 0.041168
0.043077 0.043372 0.043624
0.044307 0.044497 0.044595
0.041449 0.041463 0.041531
0.040304 0.040172 0.040144
0.042767 0.042766 0.042143
0.039881 0.039755 0.039501
0.045148 0.045085 0.045077
0.087531 0.087466 0.087582
0.037155 0.037082 0.037534
0.052500 0.052058 0.051908
0.038879 0.039163 0.038701
0.039571 0.039632 0.039647
0.037138 0.037060 0.037572
0.040118 0.039753 0.039798
0.042196 0.042352 0.042345
0.047840 0.047945 0.048002
0.043774 0.043534 0.043516
0.039228 0.039050 0.039490
0.040139 0.040069 0.040069
0.045268 0.045579 0.045704
0.041130 0.041199 0.041406
0.042810 0.042720 0.042766
0.040609 0.040722 0.040508
0.044818 0.044376 0.044268
0.043454 0.043606 0.043890
0.050640 0.050322 0.050193
0.042735 0.042595 0.042488
0.052570 0.053024 0.053855
0.045419 0.045030 0.044532
0.038097 0.038129 0.038548
0.043183 0.043095 0.043095
0.040409 0.039852 0.038329
0.047018 0.047536 0.047522
0.053146 0.053265 0.053727
0.039462 0.039470 0.039427
0.047811 0.047684 0.047792
0.045206 0.045161 0.045031
0.040030 0.039923 0.039543
0.040135 0.039731 0.040120
0.063723 0.063935 0.064941
0.061702 0.061723 0.061748
0.036082 0.036197 0.036577
0.042388 0.042564 0.042635
0.042991 0.042593 0.042359
0.045373 0.045538 0.045133
0.040792 0.040461 0.040207
0.045639 0.045657 0.045603
0.042762 0.043781 0.043813
0.038998 0.039041 0.038962
0.043022 0.042822 0.042625
0.037721 0.037721 0.038163
0.043174 0.043304 0.043293
0.045829 0.046090 0.047284
0.039662 0.039839 0.039849
0.042039 0.041745 0.042117
0.040503 0.040409 0.040204
0.040689 0.040988 0.040950
0.044021 0.044019 0.044266
0.040536 0.040384 0.040363
0.045213 0.044938 0.044830
0.040154 0.040541 0.040808
0.039305 0.039581 0.040630
0.040015 0.040133 0.039946
0.039810 0.040044 0.040051
0.039192 0.039142 0.039486
0.040733 0.040765 0.040570
0.042735 0.043374 0.043424
0.039266 0.039200 0.039105
0.039198 0.039202 0.039708
0.040998 0.041850 0.042071
0.038177 0.038194 0.038653
0.042667 0.042901 0.042540
0.061835 0.061970 0.062018
0.039322 0.039129 0.039308
0.042586 0.042156 0.041969
0.043357 0.042670 0.042740
0.038630 0.038657 0.038930
0.041151 0.041185 0.041173
0.042655 0.042746 0.042810
0.039534 0.039292 0.039021
0.042438 0.042387 0.041592
0.039670 0.039393 0.039490
0.041389 0.041508 0.041600
0.045774 0.045520 0.045746
