0.188113 0.187021 0.188426
0.202155 0.203089 0.202908
0.157855 0.157769 0.159476
0.177138 0.176474 0.175762
0.188137 0.186589 0.186723
0.198628 0.195775 0.196652
0.203587 0.203377 0.202904
0.185063 0.185930 0.187355
0.181278 0.180179 0.175123
0.165412 0.164289 0.163794
0.195880 0.195186 0.195161
0.185938 0.185591 0.187216
0.196415 0.195377 0.194870
0.163777 0.164772 0.162892
0.179557 0.179493 0.178658
0.147519 0.148517 0.149267
0.190611 0.190874 0.190360
0.190130 0.190584 0.191412
0.181957 0.184358 0.185205
0.177171 0.176155 0.176944
0.202304 0.204376 0.203822
0.187650 0.187233 0.186588
0.203898 0.203257 0.203917
0.185414 0.185605 0.184964
0.199661 0.199619 0.199032
0.186208 0.188008 0.187959
0.176834 0.178616 0.176927
0.215434 0.216004 0.216033
0.174884 0.174200 0.172968
0.189302 0.189557 0.190514
0.176979 0.174272 0.173651
0.197705 0.197966 0.197088
0.182996 0.185169 0.185196
0.180691 0.181474 0.181522
0.161063 0.162960 0.164060
0.172558 0.174273 0.175289
0.199281 0.199329 0.200286
0.180439 0.178705 0.177849
0.171704 0.170447 0.169855
0.169215 0.169435 0.169578
0.176246 0.176399 0.175044
0.204308 0.202952 0.200149
0.183331 0.182859 0.180525
0.190425 0.191057 0.192444
0.179302 0.179079 0.178144
0.174465 0.173702 0.174156
0.175428 0.173633 0.173948
0.178196 0.179710 0.175536
0.173481 0.173841 0.172920
0.169006 0.169267 0.167088
0.177790 0.177383 0.176595
0.201102 0.201067 0.200357
0.162261 0.162490 0.162116
0.171924 0.171123 0.171000
0.169730 0.171337 0.171104
0.187989 0.186973 0.188192
0.184258 0.183454 0.183779
0.187465 0.186898 0.186304
0.178773 0.178886 0.180764
0.177295 0.177359 0.177609
0.191865 0.192448 0.192188
0.173881 0.175076 0.176309
0.198167 0.198422 0.199377
0.184094 0.184434 0.184597
0.193119 0.192658 0.193203
0.182404 0.182147 0.181414
0.208355 0.208589 0.212388
0.173595 0.174532 0.173961
0.172019 0.170848 0.173276
0.186029 0.186650 0.187122
0.210993 0.207078 0.206995
0.203928 0.204731 0.203351
0.173437 0.171997 0.172572
0.156291 0.154602 0.154135
0.173431 0.173520 0.173549
0.170136 0.172756 0.168579
0.162603 0.161875 0.161533
0.185912 0.185377 0.185181
0.187451 0.187673 0.187087
0.180542 0.179982 0.178270
0.169379 0.169419 0.170854
0.173630 0.174130 0.172187
0.161879 0.161546 0.160082
0.193041 0.192950 0.192886
0.178764 0.178695 0.178112
0.176528 0.176817 0.176770
0.193224 0.190404 0.190193
0.175342 0.175231 0.174924
0.200261 0.200634 0.199944
0.176965 0.176776 0.175573
0.172816 0.173149 0.173699
0.203544 0.203513 0.203786
0.171355 0.171876 0.171691
0.184766 0.188488 0.191275
0.185591 0.187216 0.189363
0.177328 0.176752 0.176264
0.181775 0.179000 0.178623
0.169578 0.171357 0.173461
0.189322 0.187595 0.187170
0.185672 0.185442 0.184995
0.178551 0.178808 0.183849
0.186947 0.185425 0.186222
0.166750 0.167227 0.166784
0.182686 0.182595 0.183150
0.177909 0.177865 0.177493
0.172130 0.171563 0.175510
0.171784 0.172505 0.173708
0.174444 0.171714 0.171107
0.173587 0.172785 0.172907
0.187259 0.186857 0.186648
0.179395 0.178116 0.177948
0.183631 0.182882 0.183596
0.183148 0.183012 0.184494
0.172739 0.172603 0.170056
0.172417 0.172495 0.172622
0.192061 0.192931 0.190945
0.180986 0.180263 0.180237
0.176397 0.177663 0.177138
0.169488 0.170046 0.168088
0.169963 0.170412 0.170738
0.174205 0.176149 0.176032
0.178386 0.179603 0.179116
0.164136 0.162403 0.165746
0.157421 0.158855 0.159563
0.173644 0.172899 0.172785
0.177739 0.179329 0.179261
0.211623 0.210233 0.206895
0.183563 0.182121 0.180643
0.160884 0.161781 0.163181
0.176207 0.176499 0.174375
0.178651 0.176992 0.176422
0.176111 0.175515 0.174871
0.161586 0.162999 0.164036
0.180905 0.180817 0.180618
0.183405 0.185069 0.184677
0.175612 0.172534 0.172256
0.176560 0.175810 0.174088
0.161741 0.161291 0.161180
0.182882 0.182431 0.182997
0.182467 0.184618 0.184870
0.178725 0.178510 0.178919
0.200504 0.203660 0.204743
0.171449 0.172224 0.172328
0.187794 0.185008 0.183316
0.160514 0.159061 0.158747
0.182759 0.183628 0.180338
0.180222 0.180009 0.179774
0.178748 0.178281 0.178188
0.176303 0.176639 0.176447
0.182960 0.183957 0.182345
0.177019 0.176527 0.176741
0.181743 0.182973 0.182538
0.193493 0.192177 0.191805
0.177449 0.178048 0.179268
0.176898 0.175494 0.175903
0.194421 0.193889 0.193429
0.183450 0.183370 0.183632
0.191349 0.191970 0.192190
0.174938 0.174801 0.175003
0.185633 0.185929 0.183111
0.200901 0.202155 0.203089
0.192218 0.191339 0.191099
0.192882 0.192197 0.193425
0.202779 0.202120 0.202818
0.185131 0.184998 0.186539
0.198012 0.198506 0.198475
0.204508 0.203521 0.204955
0.190373 0.192327 0.192397
0.165550 0.166761 0.167819
0.164409 0.162529 0.162335
0.175259 0.177080 0.175613
0.183770 0.182308 0.182107
0.158747 0.158867 0.154386
0.175336 0.178092 0.177196
0.178643 0.179132 0.179737
0.175111 0.174201 0.172749
0.184010 0.185663 0.186085
0.170072 0.169139 0.168953
0.189652 0.189180 0.189812
0.181805 0.181077 0.181523
0.166077 0.166200 0.163981
0.170189 0.171484 0.174457
0.170518 0.169988 0.171645
0.181518 0.180453 0.179446
0.158221 0.161176 0.160896
0.185332 0.183827 0.182785
0.170129 0.169241 0.168687
0.180891 0.181215 0.181189
0.175007 0.175139 0.177371
0.169587 0.165124 0.163453
0.191180 0.190163 0.189940
0.183121 0.182458 0.185929
0.159962 0.158278 0.159973
0.164157 0.165603 0.167734
0.180496 0.179138 0.178334
0.190333 0.190013 0.188641
0.156814 0.157328 0.160507
0.193350 0.191399 0.192362
0.183077 0.184346 0.183502
0.197535 0.196589 0.196025
0.173111 0.172246 0.172850
0.200919 0.200227 0.200072
0.161142 0.160485 0.160549
0.163521 0.163626 0.164119
0.151129 0.151424 0.151490
0.163339 0.164010 0.165194
0.214616 0.215538 0.215306
0.161233 0.161589 0.160921
0.176017 0.174900 0.173910
0.182623 0.181216 0.180998
0.171439 0.172153 0.172068
0.186722 0.186930 0.187104
0.166643 0.167326 0.166324
0.186139 0.188016 0.182483
0.209282 0.211533 0.211687
0.185710 0.185363 0.185140
0.184815 0.182511 0.182669
0.175221 0.173707 0.172763
0.170422 0.170539 0.171514
0.182235 0.181751 0.181523
0.173160 0.174104 0.174942
0.209591 0.209559 0.208636
0.177427 0.177553 0.175266
0.163065 0.162575 0.161786
0.173992 0.175556 0.174870
0.177249 0.177601 0.176666
0.173193 0.172191 0.172161
0.170879 0.169974 0.170066
0.178198 0.177491 0.177552
0.181347 0.180248 0.181636
0.174454 0.175303 0.175301
0.158241 0.156830 0.156287
0.170207 0.171336 0.172580
0.192683 0.192314 0.197535
0.196630 0.197405 0.197926
0.168632 0.168688 0.169378
0.170793 0.170025 0.172395
0.172808 0.173029 0.173022
0.181454 0.182708 0.183231
0.184768 0.185227 0.185652
0.169700 0.170089 0.170758
0.188349 0.187702 0.188764
0.170942 0.171796 0.171880
0.179727 0.177775 0.176202
0.187725 0.187481 0.186924
0.176385 0.176059 0.176237
0.182266 0.181628 0.182469
0.184004 0.183593 0.182958
0.168424 0.168347 0.167752
0.163114 0.163529 0.162712
0.175648 0.177070 0.177089
0.189143 0.189569 0.189043
0.195988 0.196643 0.196998
0.179899 0.179668 0.177651
0.183006 0.183278 0.183276
0.196978 0.196960 0.196773
0.169259 0.168171 0.168365
0.192191 0.192156 0.191968
0.173388 0.174205 0.176149
0.179145 0.179318 0.178346
0.178559 0.177905 0.181877
0.175453 0.176487 0.176967
0.193684 0.196002 0.197260
0.164285 0.165331 0.165513
0.184069 0.184356 0.182695
0.161127 0.160759 0.161365
0.172041 0.172670 0.172564
0.168498 0.167442 0.166790
0.168612 0.169768 0.170246
0.183088 0.184657 0.182181
0.172749 0.171135 0.171549
0.178154 0.177791 0.176601
0.183337 0.182883 0.183871
0.164756 0.161966 0.161959
0.177612 0.179439 0.178475
0.204739 0.205093 0.205711
0.187241 0.187442 0.187540
0.169648 0.170673 0.169218
0.183765 0.182865 0.182253
0.178211 0.180193 0.176621
0.158124 0.158024 0.157663
0.167408 0.168496 0.168193
0.179470 0.179102 0.179372
0.188553 0.188216 0.187046
0.192093 0.192602 0.191754
0.177299 0.177666 0.177180
0.197994 0.198593 0.199339
0.168879 0.167717 0.169483
0.153902 0.154432 0.153862
0.178851 0.178507 0.178019
0.187912 0.189065 0.189000
0.181665 0.181025 0.180147
0.172474 0.174562 0.174760
0.174021 0.173543 0.174329
0.158455 0.158300 0.158045
0.177066 0.176384 0.176740
0.179586 0.182527 0.181272
0.170004 0.169922 0.167947
0.183687 0.182926 0.183959
0.175493 0.176862 0.177590
0.158852 0.159462 0.160368
0.182821 0.184838 0.184308
0.170838 0.171550 0.175958
0.178816 0.178455 0.177672
0.198389 0.198888 0.198856
0.169122 0.169373 0.168967
0.170730 0.167782 0.167233
0.175980 0.175309 0.174239
0.206034 0.205952 0.210190
0.177976 0.177619 0.176734
0.186820 0.186554 0.186416
0.180650 0.179993 0.180594
0.196166 0.196607 0.195667
0.155416 0.155335 0.155428
0.182807 0.184118 0.184271
0.178860 0.179114 0.178117
0.161001 0.161809 0.160928
0.171704 0.173643 0.172367
0.192742 0.195972 0.195777
0.168192 0.168717 0.168810
0.184250 0.185689 0.185921
0.173461 0.173471 0.175353
0.193173 0.195508 0.195710
0.175454 0.176056 0.175849
0.174337 0.175391 0.175791
0.169695 0.169478 0.169356
0.202549 0.201219 0.199719
0.186787 0.186875 0.186226
0.206284 0.205768 0.205253
0.200286 0.200515 0.200642
0.162606 0.163583 0.163597
0.190117 0.190288 0.191194
0.195794 0.196830 0.195520
0.179249 0.179776 0.179579
0.191706 0.192310 0.194088
0.172566 0.172635 0.173785
0.176993 0.177688 0.178540
0.163497 0.167366 0.169423
0.195089 0.195300 0.196333
0.198626 0.200755 0.200765
0.158329 0.158142 0.157934
0.185299 0.186625 0.185689
0.182331 0.183239 0.183831
0.177744 0.181115 0.181957
0.178434 0.176836 0.177453
0.190079 0.187377 0.185326
0.190775 0.190601 0.190641
0.167920 0.167335 0.167889
0.198788 0.198596 0.199208
0.187666 0.187358 0.185445
0.195205 0.197558 0.201039
0.158406 0.157855 0.157769
0.207109 0.209037 0.207315
0.175285 0.175037 0.176110
0.194078 0.194350 0.194535
0.175537 0.174614 0.175075
0.171524 0.174767 0.175606
0.196811 0.196598 0.196359
0.197784 0.198714 0.201545
0.147200 0.147519 0.148539
0.182822 0.182509 0.182243
0.183881 0.185295 0.186556
0.176141 0.175553 0.175501
0.182146 0.184125 0.186580
0.172536 0.171676 0.172619
0.173276 0.173427 0.178398
0.164888 0.164540 0.163650
0.187207 0.189396 0.191583
0.167578 0.169756 0.168470
0.175484 0.175699 0.175704
0.196573 0.196522 0.196547
0.187801 0.187260 0.185891
0.181650 0.180131 0.179877
0.201314 0.204487 0.204079
0.196389 0.195911 0.192966
0.167007 0.166643 0.167326
0.168992 0.167588 0.167152
0.209784 0.210658 0.209773
0.183668 0.183109 0.183507
0.175457 0.173575 0.173292
0.179024 0.179803 0.179249
0.199663 0.198452 0.198423
0.183613 0.185995 0.186356
0.170486 0.169641 0.170052
0.188163 0.188672 0.185598
0.175617 0.175803 0.176433
0.186447 0.185313 0.185377
0.176543 0.176894 0.176557
0.200347 0.200349 0.201429
0.175474 0.175730 0.177243
0.157123 0.155749 0.152993
0.193122 0.193021 0.192212
0.174704 0.174470 0.175358
0.189131 0.189350 0.189001
0.208533 0.207473 0.204356
0.173475 0.174108 0.175437
0.169013 0.169352 0.169627
0.182057 0.184262 0.183866
0.180262 0.179771 0.180441
0.169337 0.168893 0.170722
0.187992 0.187480 0.186880
0.180980 0.180946 0.180569
0.172319 0.171730 0.171977
0.187004 0.187670 0.188646
0.202201 0.204783 0.210177
0.175625 0.175269 0.177339
0.185314 0.185256 0.185413
0.186509 0.186386 0.186195
0.203238 0.201830 0.200109
0.196543 0.196295 0.196644
0.165221 0.164836 0.164618
0.184210 0.183833 0.186055
0.156910 0.157557 0.158156
0.196328 0.196291 0.196852
0.163889 0.166874 0.168848
0.176732 0.175864 0.178070
0.158787 0.159163 0.161150
0.176011 0.173906 0.172222
0.174781 0.174555 0.174718
0.173563 0.173613 0.171792
0.177613 0.176143 0.175284
0.182595 0.182581 0.181683
0.190277 0.191320 0.192014
0.167952 0.170676 0.170668
0.197362 0.195768 0.194869
0.176963 0.177209 0.177893
0.188442 0.188590 0.189488
0.166655 0.166932 0.167749
0.170560 0.167617 0.167474
0.171982 0.171832 0.171802
0.183074 0.183878 0.184506
0.177436 0.178381 0.178863
0.163719 0.163092 0.162362
0.178420 0.174446 0.175305
0.183613 0.182854 0.178573
0.186907 0.186666 0.186979
0.182730 0.184313 0.184718
0.175150 0.176543 0.177749
0.174163 0.175638 0.178380
0.180903 0.180323 0.179957
0.184666 0.184979 0.185020
0.183865 0.182444 0.182028
0.180949 0.181225 0.183873
0.173387 0.174557 0.174506
0.163672 0.161892 0.162215
0.191511 0.191764 0.192797
0.179246 0.179739 0.178771
0.186795 0.187389 0.187124
0.203293 0.205644 0.205984
0.156415 0.157163 0.156910
0.190412 0.190686 0.191166
0.179701 0.180279 0.179812
0.171488 0.171589 0.171225
0.204661 0.207574 0.206847
0.177422 0.176159 0.176831
0.166247 0.165224 0.167235
0.179053 0.179225 0.178764
0.178213 0.177559 0.176830
0.189600 0.191125 0.193140
0.185835 0.183744 0.182884
0.195915 0.195288 0.194835
0.182181 0.177947 0.178651
0.177291 0.177973 0.177626
0.194646 0.192191 0.192156
0.173758 0.172366 0.173276
0.173946 0.172957 0.175747
0.171913 0.172283 0.172780
0.155054 0.155459 0.155620
0.199822 0.198221 0.197047
0.184775 0.185754 0.187123
0.175777 0.175813 0.178225
0.171509 0.171531 0.171682
0.182995 0.180514 0.180489
0.205365 0.204749 0.204391
0.171205 0.169729 0.166618
0.188687 0.188455 0.189639
0.177274 0.177064 0.176803
0.181205 0.182564 0.184883
0.178854 0.180952 0.184157
0.185671 0.185960 0.186649
0.178502 0.177320 0.178791
0.215402 0.216224 0.216353
0.187937 0.187803 0.187207
0.167936 0.167201 0.168045
0.184592 0.184853 0.185416
0.205099 0.204933 0.204674
0.172861 0.171912 0.170814
0.181274 0.181678 0.182772
0.171911 0.176846 0.177929
0.198221 0.197047 0.195967
0.174538 0.175295 0.173418
0.164979 0.165872 0.166866
0.179187 0.180145 0.180472
0.190865 0.191557 0.193231
0.179321 0.178668 0.179306
0.195672 0.195038 0.194896
0.177627 0.179112 0.176530
0.175686 0.177618 0.176287
0.178029 0.177504 0.177567
0.164950 0.163983 0.161603
0.197042 0.197862 0.198044
0.192578 0.189065 0.188239
0.191532 0.191083 0.191152
0.176257 0.175651 0.175502
0.187631 0.189652 0.190329
0.184091 0.183027 0.181749
0.184282 0.182808 0.182782
0.164519 0.165878 0.165453
0.179080 0.179276 0.179320
0.177285 0.175871 0.176643
0.172208 0.173475 0.175072
0.163081 0.163988 0.165034
0.178493 0.177439 0.173440
0.182494 0.184072 0.184605
0.195711 0.195890 0.195191
0.177664 0.178090 0.177116
0.177739 0.178436 0.176128
0.186336 0.185602 0.185717
0.179537 0.178782 0.178478
0.170302 0.170065 0.170051
0.160441 0.159266 0.157359
0.179145 0.178996 0.177707
0.182168 0.180385 0.180069
0.200253 0.197577 0.196219
0.192478 0.190991 0.190343
0.169406 0.170099 0.167915
0.157516 0.158765 0.158464
0.159097 0.159434 0.160366
0.192350 0.191316 0.189732
0.169394 0.165385 0.166319
0.182478 0.184619 0.184885
0.197789 0.197157 0.195400
0.177808 0.177872 0.175234
0.191916 0.189891 0.190441
0.189052 0.188533 0.188293
0.188538 0.188733 0.189203
0.189201 0.187913 0.189006
0.195733 0.195555 0.195684
0.199406 0.200073 0.201139
0.176183 0.177048 0.177595
0.204274 0.204044 0.204160
0.193598 0.193290 0.192363
0.173730 0.174080 0.175370
0.204409 0.200331 0.199561
0.184163 0.184398 0.182376
0.204674 0.203928 0.204731
0.149267 0.149836 0.149675
0.166050 0.165548 0.164166
0.181575 0.181764 0.184852
0.170091 0.168746 0.169252
0.173483 0.173414 0.172522
0.176998 0.177513 0.175951
0.191408 0.192790 0.193270
0.185123 0.184229 0.182984
0.190604 0.191309 0.190299
0.167861 0.168298 0.168582
0.193270 0.192578 0.189065
0.183842 0.184978 0.185150
0.175604 0.175639 0.173602
0.186612 0.186117 0.185836
0.174754 0.175027 0.175717
0.179126 0.179394 0.179922
0.155027 0.154718 0.155664
0.174105 0.173193 0.174676
0.192482 0.190106 0.187578
0.171400 0.173346 0.176041
0.179475 0.177921 0.176502
0.184076 0.185405 0.186605
0.191681 0.193199 0.194357
0.184115 0.183139 0.182837
0.180472 0.180178 0.180326
0.185788 0.186224 0.185967
0.176947 0.174799 0.174700
0.178368 0.177812 0.178055
0.170937 0.172650 0.172835
0.175083 0.173675 0.174494
0.173498 0.173254 0.173969
0.173203 0.173631 0.174378
0.198042 0.196915 0.194848
0.190047 0.190861 0.192269
0.176075 0.175595 0.176844
0.176110 0.176702 0.175787
0.191759 0.191509 0.189224
0.181575 0.179332 0.177221
0.174518 0.175734 0.175158
0.201861 0.201946 0.200926
0.178197 0.179525 0.178739
0.172110 0.173290 0.174936
0.201584 0.203482 0.203536
0.177956 0.176207 0.175716
0.186037 0.186408 0.187010
0.161897 0.161556 0.160593
0.170947 0.171842 0.171802
0.175620 0.175631 0.175530
0.159397 0.159001 0.159461
0.195090 0.194616 0.196323
0.184346 0.182189 0.181063
0.177966 0.177861 0.178016
0.176771 0.173154 0.170791
0.176160 0.177362 0.179003
0.180602 0.180597 0.178590
0.173681 0.173998 0.174806
0.173901 0.171899 0.171739
0.170533 0.167927 0.168406
0.159167 0.159355 0.157800
0.183172 0.183135 0.183877
0.161487 0.163055 0.164061
0.191455 0.190708 0.192677
0.163695 0.163714 0.164335
0.162692 0.163045 0.162104
0.178753 0.178863 0.177007
0.176206 0.174705 0.174206
0.196137 0.196584 0.196127
0.176139 0.177806 0.178088
0.189884 0.188968 0.191022
0.188304 0.189024 0.192084
0.184065 0.184248 0.185842
0.177065 0.176942 0.177185
0.180321 0.181312 0.180449
0.172296 0.171565 0.172917
0.166772 0.168012 0.167221
0.202190 0.200269 0.196817
0.176721 0.177245 0.177151
0.170368 0.170516 0.171939
0.178164 0.177466 0.176307
0.173568 0.172959 0.172094
0.169452 0.169749 0.170793
0.157702 0.158928 0.160132
0.190839 0.191706 0.192310
0.189679 0.191409 0.191554
0.172526 0.172405 0.172910
0.181311 0.180760 0.181690
0.174837 0.174226 0.175752
0.215484 0.214797 0.216009
0.175938 0.175116 0.175776
0.180984 0.183191 0.183257
0.184164 0.183977 0.183813
0.185785 0.185321 0.187080
0.170734 0.170001 0.170657
0.161243 0.162882 0.164203
0.182665 0.185774 0.187940
0.180354 0.182232 0.181846
0.175065 0.174588 0.173584
0.171819 0.170039 0.168764
0.170412 0.169954 0.171276
0.197867 0.197608 0.196568
0.171579 0.174180 0.173072
0.191556 0.195283 0.195407
0.195182 0.195594 0.195955
0.173655 0.173721 0.175151
0.183971 0.181280 0.178173
0.190965 0.191551 0.191318
0.190977 0.191385 0.191406
0.166443 0.166890 0.167540
0.158927 0.159924 0.160508
0.180164 0.180650 0.180589
0.197748 0.196785 0.197071
0.193507 0.192438 0.191323
0.158034 0.158111 0.157809
0.187924 0.188473 0.188271
0.180873 0.178982 0.173402
0.172083 0.172485 0.174363
0.180903 0.182532 0.178486
0.199837 0.199166 0.198916
0.187425 0.185463 0.184305
0.193496 0.192137 0.190160
0.181979 0.178236 0.179365
0.164535 0.165261 0.168072
0.172632 0.170560 0.167617
0.187172 0.186673 0.187679
0.205059 0.205126 0.205548
0.194776 0.196592 0.198349
0.170426 0.170254 0.170240
0.181900 0.182102 0.182690
0.168340 0.168308 0.168907
0.204963 0.203954 0.201701
0.176082 0.175944 0.177126
0.191478 0.191617 0.192826
0.170503 0.169028 0.169037
0.191770 0.192888 0.195784
0.190597 0.191344 0.190393
0.170431 0.170547 0.170184
0.179781 0.178193 0.181551
0.173750 0.175392 0.175487
0.186428 0.184331 0.180089
0.186230 0.185697 0.185464
0.179470 0.179040 0.179467
0.195336 0.196561 0.196479
0.198741 0.199390 0.199587
0.182878 0.183065 0.182634
0.175878 0.177614 0.177092
0.167774 0.169197 0.169499
0.178135 0.178895 0.179624
0.191096 0.194727 0.195832
0.180201 0.180148 0.180586
0.190642 0.190008 0.192656
0.175699 0.176283 0.175762
0.191833 0.192448 0.191673
0.177454 0.176385 0.176904
0.211228 0.206919 0.206021
0.193958 0.193549 0.194786
0.173088 0.171715 0.172354
0.186415 0.186435 0.183570
0.174405 0.172619 0.171187
0.178114 0.178198 0.177941
0.189298 0.193407 0.193424
0.193911 0.194638 0.194652
0.160588 0.161919 0.160826
0.183462 0.182645 0.184318
0.207867 0.207108 0.206436
0.174361 0.176208 0.176754
0.192124 0.191453 0.188554
0.200841 0.200891 0.200656
0.174656 0.177449 0.176322
0.192489 0.192210 0.190208
0.172954 0.171861 0.171605
0.182603 0.182530 0.183745
0.167697 0.168107 0.167893
0.185676 0.186246 0.187083
0.180534 0.180147 0.178039
0.176213 0.177540 0.178415
0.167893 0.167653 0.169886
0.172994 0.172935 0.173876
0.176435 0.175557 0.172038
0.191479 0.191810 0.190980
0.182405 0.181945 0.180244
0.191965 0.192218 0.191339
0.165720 0.165574 0.165656
0.164035 0.163523 0.167636
0.175989 0.177059 0.178602
0.164288 0.164038 0.164285
0.174154 0.175447 0.175493
0.197061 0.197108 0.194903
0.182490 0.184865 0.187175
0.180844 0.181126 0.183363
0.177401 0.177107 0.177780
0.171283 0.170734 0.170001
0.199399 0.197650 0.196488
0.193558 0.191428 0.192835
0.187053 0.187526 0.187777
0.201991 0.202633 0.205776
0.202084 0.202623 0.201589
0.180192 0.181854 0.181844
0.191326 0.195623 0.197994
0.175734 0.175158 0.175677
0.181862 0.180182 0.179642
0.179480 0.181164 0.181563
0.153868 0.153656 0.153690
0.180669 0.180061 0.180611
0.172205 0.173843 0.172464
0.174075 0.174154 0.175447
0.189261 0.189684 0.189832
0.191893 0.197486 0.198015
0.184305 0.185209 0.184693
0.174277 0.170884 0.169501
0.192306 0.192635 0.190685
0.196500 0.196446 0.196814
0.185298 0.187749 0.188953
0.174511 0.174654 0.175338
0.192166 0.190669 0.192690
0.182074 0.183861 0.181935
0.185253 0.186017 0.186325
0.164719 0.162430 0.162371
0.176097 0.176602 0.177792
0.169632 0.171131 0.171487
0.173051 0.170065 0.170060
0.182997 0.181984 0.179856
0.180501 0.182325 0.182513
0.179261 0.179060 0.178601
0.177125 0.179834 0.179688
0.178880 0.179564 0.183999
0.179151 0.178341 0.183139
0.196570 0.196500 0.196446
0.205922 0.204607 0.204098
0.170311 0.169911 0.170057
0.193223 0.193270 0.193413
0.155458 0.156492 0.157351
0.198943 0.201366 0.202002
0.179258 0.178811 0.177593
0.175561 0.174735 0.174945
0.182408 0.181582 0.180672
0.199750 0.199406 0.200073
0.172678 0.172622 0.171907
0.179496 0.178169 0.177129
0.195381 0.195186 0.194323
0.191074 0.191631 0.190647
0.178357 0.176202 0.177447
0.183634 0.182445 0.183803
0.180262 0.179144 0.179853
0.183560 0.184333 0.183050
0.187647 0.188936 0.190699
0.171943 0.173401 0.175453
0.183883 0.183186 0.183965
0.191125 0.193140 0.193373
0.176715 0.177057 0.177138
0.173454 0.174344 0.180120
0.175604 0.175295 0.175541
0.192981 0.193777 0.193173
0.196086 0.195702 0.196010
0.173214 0.171746 0.172191
0.186105 0.186759 0.187334
0.187003 0.187526 0.185892
0.179487 0.179529 0.179686
0.178462 0.177613 0.176143
0.154718 0.155664 0.157267
0.166578 0.163597 0.164170
0.172925 0.172912 0.171963
0.184017 0.183472 0.182789
0.187273 0.188866 0.189219
0.159173 0.159131 0.158690
0.185979 0.185898 0.186543
0.196592 0.198349 0.199283
0.179214 0.178911 0.179128
0.188786 0.185773 0.183970
0.167798 0.166614 0.166660
0.174277 0.176372 0.176177
0.184473 0.184828 0.186215
0.192595 0.189237 0.187908
0.161367 0.162627 0.163001
0.175037 0.176110 0.176715
0.183783 0.183761 0.182495
0.175838 0.175586 0.175267
0.178130 0.176740 0.176654
0.190649 0.191346 0.190547
0.169651 0.167083 0.167257
0.183232 0.182743 0.181797
0.174220 0.173547 0.173587
0.210169 0.209628 0.209591
0.165513 0.165207 0.163879
0.177129 0.178046 0.177154
0.170096 0.171559 0.172352
0.191296 0.191220 0.191682
0.171115 0.171058 0.171428
0.166442 0.166126 0.166292
0.162804 0.163115 0.163124
0.171472 0.171317 0.169428
0.176771 0.177629 0.178510
0.176228 0.175697 0.179531
0.184763 0.185134 0.186873
0.169271 0.168561 0.167171
0.186066 0.188683 0.187860
0.200835 0.200972 0.199589
0.183003 0.181917 0.180152
0.172953 0.173051 0.173015
0.173104 0.174214 0.172723
0.193691 0.195311 0.193721
0.172473 0.171397 0.168685
0.175510 0.175945 0.176213
0.169825 0.170801 0.170118
0.172952 0.173721 0.174076
0.156610 0.157700 0.160713
0.175565 0.174130 0.172673
0.177855 0.179174 0.177340
0.172246 0.172850 0.172433
0.177436 0.176800 0.176077
0.176569 0.175750 0.175484
0.167757 0.167756 0.170174
0.171236 0.171704 0.173643
0.173596 0.173070 0.173422
0.167904 0.165417 0.165214
0.176306 0.177226 0.175550
0.181304 0.183861 0.182792
0.194890 0.194795 0.196890
0.186385 0.187146 0.186797
0.179539 0.183041 0.183239
0.156053 0.156862 0.158571
0.201174 0.200137 0.198757
0.158272 0.157114 0.155322
0.181828 0.182501 0.182592
0.191075 0.190369 0.189887
0.195858 0.195666 0.195868
0.191501 0.191915 0.191709
0.171368 0.171120 0.170873
0.189442 0.188982 0.190381
0.181316 0.180905 0.181029
0.184601 0.181338 0.182490
0.185856 0.185928 0.186996
0.177815 0.177164 0.176552
0.192502 0.192880 0.193480
0.173744 0.174937 0.175007
0.180908 0.180041 0.179874
0.176716 0.176815 0.175442
0.216234 0.214899 0.215874
0.159131 0.158690 0.158455
0.180272 0.181449 0.182507
0.196558 0.196358 0.196361
0.196531 0.196281 0.196872
0.178516 0.176925 0.176985
0.182973 0.182538 0.182903
0.190279 0.189579 0.189521
0.184672 0.185969 0.186824
0.182950 0.183539 0.185691
0.178507 0.178019 0.177193
0.192388 0.192143 0.192413
0.178507 0.177834 0.177765
0.160386 0.159540 0.159225
0.190255 0.191553 0.191556
0.182335 0.181216 0.180042
0.178053 0.176560 0.176296
0.183882 0.184010 0.185663
0.216624 0.215231 0.214634
0.180823 0.180128 0.179003
0.170301 0.170380 0.170739
0.176909 0.176591 0.177046
0.195013 0.193035 0.193219
0.168696 0.169932 0.168524
0.201818 0.203893 0.204100
0.173966 0.175241 0.174781
0.186889 0.186333 0.187127
0.166784 0.165452 0.167665
0.187228 0.186414 0.187843
0.182327 0.181969 0.182254
0.186324 0.185414 0.185605
0.198038 0.196419 0.196461
0.178410 0.177372 0.178663
0.183195 0.183152 0.182455
0.180190 0.180724 0.180410
0.183029 0.183106 0.182252
0.172878 0.173374 0.173126
0.181234 0.180146 0.181526
0.164337 0.163672 0.161892
0.190660 0.190362 0.190021
0.196622 0.197006 0.196935
0.173414 0.172522 0.172815
0.178646 0.179974 0.179826
0.187397 0.186573 0.187137
0.184236 0.182860 0.182467
0.175477 0.175320 0.174646
0.196594 0.196754 0.195441
0.176473 0.176197 0.177316
0.170633 0.170528 0.170260
0.177426 0.178106 0.176820
0.200330 0.199079 0.198638
0.183710 0.183814 0.187234
0.183216 0.180465 0.179079
0.189637 0.188532 0.190119
0.178815 0.181979 0.185367
0.173591 0.173397 0.173211
0.204360 0.203288 0.203526
0.171833 0.172538 0.174336
0.170351 0.170947 0.170971
0.182688 0.183270 0.183559
0.191117 0.192474 0.191306
0.202507 0.202694 0.200002
0.163325 0.164843 0.164792
0.195283 0.195407 0.195043
0.202633 0.205776 0.208445
0.176507 0.177400 0.180407
0.177254 0.176167 0.176583
0.198839 0.197049 0.196801
0.177961 0.177902 0.174342
0.161963 0.163081 0.164007
0.191686 0.192018 0.192795
0.189208 0.191583 0.191730
0.163030 0.165432 0.165462
0.169978 0.171207 0.171898
0.194690 0.194609 0.194678
0.183529 0.183616 0.183099
0.166590 0.162866 0.163842
0.166299 0.166875 0.167383
0.183675 0.183008 0.183453
0.199554 0.198510 0.197286
0.184750 0.184183 0.184044
0.184536 0.185418 0.187943
0.185618 0.186259 0.186373
0.173947 0.173708 0.174473
0.185059 0.184237 0.186486
0.185938 0.186372 0.184915
0.196561 0.196479 0.196321
0.186272 0.186395 0.187028
0.180959 0.180888 0.179402
0.192235 0.192264 0.192169
0.172332 0.172476 0.172351
0.178851 0.177162 0.176492
0.173727 0.171947 0.170163
0.176594 0.176952 0.176477
0.180943 0.182326 0.181712
0.163057 0.163864 0.162853
0.169584 0.169601 0.170472
0.168688 0.168499 0.170199
0.157974 0.158250 0.158566
0.175826 0.176208 0.175959
0.185237 0.185680 0.185604
0.168299 0.169196 0.168501
0.190496 0.190404 0.189266
0.185329 0.185422 0.184324
0.201194 0.202722 0.203218
0.165192 0.167667 0.168688
0.198502 0.199086 0.198421
0.188470 0.188050 0.187977
0.201148 0.200694 0.200171
0.176110 0.175637 0.176495
0.173924 0.172491 0.172526
0.187727 0.184525 0.182474
0.175774 0.177064 0.179000
0.169693 0.166005 0.166130
0.188397 0.192098 0.190125
0.182884 0.182453 0.182460
0.197793 0.193680 0.190687
0.199155 0.199555 0.200200
