0.198416 0.197306 0.198273
0.186685 0.186288 0.186167
0.188619 0.190274 0.190392
0.195519 0.196224 0.194885
0.197912 0.198836 0.198794
0.191611 0.189678 0.186735
0.213595 0.217240 0.217684
0.211058 0.211410 0.212400
0.213515 0.213818 0.214512
0.226348 0.225714 0.225354
0.240654 0.235298 0.234183
0.202214 0.202444 0.203719
0.236518 0.238390 0.239341
0.186199 0.186521 0.187305
0.217275 0.208642 0.204307
0.177112 0.175254 0.175280
0.257727 0.258413 0.258543
0.192614 0.193714 0.193702
0.202390 0.198482 0.196454
0.230883 0.229681 0.228482
0.198105 0.196095 0.194069
0.194823 0.194933 0.193885
0.229869 0.229153 0.228784
0.291735 0.293061 0.291774
0.218112 0.219243 0.219812
0.184306 0.183814 0.183936
0.224675 0.225623 0.224638
0.194501 0.197886 0.199223
0.198672 0.193217 0.192782
0.197051 0.197122 0.198592
0.199208 0.200052 0.200299
0.200729 0.201957 0.204475
0.207105 0.205832 0.203402
0.191989 0.199446 0.202468
0.230846 0.234304 0.232722
0.238685 0.236961 0.223615
0.197748 0.198685 0.199375
0.189255 0.186764 0.186729
0.231806 0.243322 0.243563
0.204178 0.204698 0.205137
0.232931 0.233010 0.231876
0.189085 0.190073 0.189371
0.177063 0.178312 0.180464
0.203557 0.203377 0.206365
0.213165 0.213587 0.213390
0.198151 0.199730 0.200750
0.206788 0.197670 0.186754
0.238848 0.246568 0.248070
0.216283 0.217863 0.220802
0.240367 0.239471 0.238969
0.238092 0.240967 0.240361
0.225411 0.225613 0.228795
0.190589 0.188257 0.188891
0.237164 0.236355 0.236052
0.221224 0.220822 0.219830
0.184526 0.185808 0.185876
0.187618 0.186428 0.186375
0.179806 0.180492 0.184127
0.208881 0.213619 0.216007
0.227550 0.228215 0.229817
0.237897 0.237395 0.237738
0.217211 0.216784 0.217531
0.196377 0.196825 0.195446
0.179229 0.179027 0.179791
0.219793 0.222504 0.222807
0.194187 0.194841 0.194533
0.211273 0.206154 0.206905
0.242346 0.242348 0.242785
0.173729 0.173786 0.173707
0.195329 0.197325 0.196378
0.177304 0.177567 0.175989
0.220594 0.220329 0.220370
0.206996 0.207020 0.207554
0.185690 0.171891 0.170492
0.248924 0.248971 0.247005
0.213496 0.215804 0.215049
0.255164 0.254958 0.254948
0.223446 0.224246 0.222669
0.226737 0.226955 0.228086
0.205137 0.203878 0.203164
0.192533 0.194226 0.198356
0.187502 0.192157 0.195071
0.210321 0.209913 0.209428
0.191548 0.191361 0.190393
0.193302 0.199998 0.199827
0.231740 0.231243 0.231417
0.210747 0.210575 0.207759
0.204445 0.204246 0.202757
0.198072 0.198381 0.198423
0.228471 0.228411 0.226465
0.202195 0.202638 0.202692
0.244367 0.243168 0.233071
0.218053 0.225730 0.230882
0.212275 0.208070 0.206568
0.246577 0.243589 0.243323
0.247604 0.240514 0.239841
0.190086 0.192820 0.196915
0.214456 0.221592 0.224140
0.188168 0.188992 0.191836
0.195065 0.194888 0.194945
0.205804 0.205572 0.201442
0.205990 0.206296 0.206095
0.190408 0.193045 0.193298
0.221148 0.222105 0.231249
0.190983 0.191097 0.191079
0.222899 0.221502 0.221615
0.206087 0.205674 0.203942
0.211356 0.212150 0.213484
0.207794 0.207390 0.208296
0.225650 0.222832 0.220918
0.210775 0.211029 0.211514
0.223046 0.223568 0.223313
0.209146 0.208689 0.208729
0.168468 0.169690 0.175185
0.203539 0.202796 0.198815
0.195809 0.195606 0.196266
0.197627 0.195227 0.195565
0.220893 0.220281 0.220441
0.199021 0.199448 0.199340
0.198597 0.202902 0.203941
0.177459 0.180010 0.179589
0.178961 0.179740 0.180627
0.184361 0.183325 0.183655
0.219144 0.221749 0.223590
0.234038 0.236037 0.236491
0.194260 0.194655 0.195925
0.237248 0.237043 0.236310
0.175758 0.173814 0.175720
0.215536 0.213794 0.213154
0.174473 0.172281 0.170011
0.220208 0.220494 0.219019
0.203276 0.203799 0.203101
0.208157 0.208384 0.208184
0.206065 0.208416 0.207187
0.218884 0.219023 0.219144
0.186740 0.185690 0.171891
0.196227 0.200047 0.201217
0.203977 0.208808 0.208429
0.164044 0.162640 0.161717
0.281656 0.283396 0.288063
0.180337 0.181022 0.179598
0.200354 0.199015 0.196138
0.227526 0.227787 0.227763
0.216078 0.214675 0.206780
0.161174 0.160395 0.160812
0.177038 0.177303 0.178842
0.215392 0.213793 0.205275
0.206031 0.205982 0.206321
0.202142 0.202867 0.202402
0.186258 0.186516 0.187520
0.230934 0.227290 0.226107
0.225759 0.225704 0.224473
0.236384 0.233814 0.232966
0.219607 0.219972 0.218092
0.186895 0.187520 0.187711
0.178133 0.177108 0.176995
0.221479 0.221661 0.221485
0.229442 0.229529 0.227793
0.187150 0.188195 0.188708
0.188118 0.188586 0.190367
0.207584 0.211638 0.220670
0.268416 0.268683 0.269020
0.227857 0.227598 0.229397
0.209035 0.201033 0.201610
0.221537 0.222100 0.222026
0.176392 0.176407 0.176702
0.211820 0.210960 0.210649
0.244071 0.245297 0.245860
0.195879 0.195394 0.195612
0.180256 0.171341 0.168179
0.219020 0.217792 0.217412
0.207370 0.207192 0.205578
0.222484 0.218332 0.216677
0.253208 0.252430 0.255346
0.200277 0.199866 0.199963
0.178416 0.177900 0.177746
0.213454 0.215768 0.218732
0.230992 0.229997 0.230470
0.205356 0.203511 0.204309
0.238605 0.238064 0.236058
0.223224 0.226940 0.227530
0.186387 0.186355 0.187095
0.207298 0.212231 0.217219
0.254535 0.253586 0.253531
0.218721 0.220166 0.220790
0.214575 0.212090 0.208726
0.212941 0.206540 0.193428
0.189137 0.189137 0.190747
0.172601 0.173911 0.174464
0.239611 0.237719 0.241456
0.212177 0.210931 0.206326
0.206808 0.205406 0.204866
0.220309 0.217653 0.215419
0.194242 0.193686 0.192930
0.199524 0.193096 0.191545
0.203290 0.201278 0.201345
0.235494 0.235316 0.235088
0.235315 0.239824 0.240386
0.238631 0.239812 0.239156
0.194675 0.194246 0.184189
0.229586 0.229683 0.230758
0.211415 0.213037 0.213710
0.222551 0.222963 0.223263
0.226220 0.225232 0.222516
0.250061 0.251350 0.248608
0.187796 0.186492 0.185694
0.205223 0.203650 0.200438
0.178779 0.164427 0.162846
0.217935 0.218705 0.218368
0.218633 0.220113 0.220092
0.217384 0.215769 0.216680
0.195422 0.195614 0.194337
0.202049 0.202504 0.200494
0.227113 0.227152 0.233582
0.177050 0.177406 0.177030
0.186192 0.186518 0.191078
0.183688 0.180983 0.184427
0.271388 0.271942 0.273147
0.208037 0.209588 0.209523
0.253437 0.252620 0.243814
0.157414 0.154386 0.154179
0.232805 0.232699 0.231841
0.211994 0.218906 0.218869
0.212785 0.212753 0.213820
0.186095 0.185389 0.184841
0.185430 0.186138 0.184426
0.197248 0.196992 0.196957
0.201771 0.203869 0.204598
0.230596 0.233578 0.235418
0.212902 0.212963 0.215462
0.220621 0.223745 0.226801
0.228641 0.230550 0.231952
0.203325 0.201342 0.200224
0.207592 0.206958 0.206471
0.188095 0.184750 0.184647
0.198992 0.197043 0.196140
0.224788 0.224750 0.224906
0.206839 0.207985 0.208724
0.196783 0.196036 0.194855
0.195215 0.195021 0.194929
0.188107 0.189085 0.190073
0.199203 0.198080 0.195073
0.215846 0.213509 0.212322
0.192148 0.191828 0.191932
0.233405 0.231533 0.230613
0.206037 0.206104 0.206073
0.205569 0.208726 0.213996
0.214718 0.210937 0.210118
0.216045 0.215984 0.214898
0.199160 0.198988 0.197874
0.227616 0.229556 0.231824
0.236449 0.235060 0.236798
0.196304 0.193165 0.193244
0.224724 0.227895 0.231394
0.288911 0.288747 0.290321
0.194379 0.197593 0.204206
0.217559 0.224466 0.227306
0.186583 0.185787 0.185137
0.186872 0.186836 0.187907
0.228676 0.227528 0.226702
0.182765 0.183565 0.186188
0.221695 0.221120 0.220520
0.190644 0.191159 0.192514
0.203868 0.204089 0.205266
0.235387 0.236784 0.241042
0.177111 0.178908 0.177870
0.242240 0.242693 0.243194
0.197333 0.194836 0.194380
0.187496 0.187471 0.187506
0.191943 0.190161 0.186395
0.179878 0.180745 0.186307
0.237773 0.236876 0.240648
0.247914 0.248154 0.247689
0.220793 0.216238 0.213884
0.157116 0.157203 0.157491
0.201208 0.201062 0.200785
0.183821 0.184570 0.186470
0.247365 0.247408 0.247546
0.236594 0.238244 0.239467
0.183834 0.184263 0.184861
0.207196 0.208115 0.208984
0.188232 0.188087 0.189439
0.234730 0.233958 0.236191
0.209688 0.209439 0.208268
0.198098 0.199208 0.200052
0.224449 0.225149 0.225126
0.196618 0.198733 0.198365
0.187835 0.187336 0.187838
0.238530 0.238206 0.236563
0.213319 0.215162 0.213997
0.226649 0.229879 0.230339
0.181167 0.179530 0.178659
0.199671 0.199635 0.198547
0.232373 0.233057 0.234344
0.215672 0.211156 0.200505
0.271335 0.271394 0.272199
0.197395 0.198782 0.198741
0.187585 0.187709 0.187094
0.189395 0.189411 0.189847
0.200737 0.201231 0.201874
0.218518 0.216059 0.218538
0.186218 0.185251 0.183872
0.192765 0.191371 0.188067
0.183136 0.183081 0.185842
0.230783 0.229426 0.226761
0.207268 0.207894 0.207987
0.169073 0.167549 0.165478
0.211466 0.211288 0.212076
0.220307 0.221031 0.221155
0.195997 0.196234 0.196573
0.220633 0.224372 0.225280
0.233326 0.232984 0.231805
0.195550 0.196134 0.196897
0.221131 0.220884 0.221002
0.159466 0.159112 0.158859
0.201710 0.200618 0.199459
0.202595 0.202906 0.202082
0.248014 0.247929 0.247985
0.204169 0.205344 0.206677
0.222610 0.221025 0.219259
0.212569 0.211558 0.209188
0.219024 0.221033 0.224099
0.270745 0.271934 0.270831
0.181567 0.181769 0.181354
0.203645 0.203715 0.200458
0.196351 0.196556 0.195139
0.227454 0.227182 0.227265
0.222213 0.221798 0.219968
0.195885 0.195187 0.193934
0.193939 0.194241 0.193155
0.209265 0.190118 0.187888
0.182857 0.181155 0.180073
0.239840 0.239914 0.239764
0.258973 0.258609 0.258630
0.209083 0.209419 0.209067
0.202149 0.198119 0.202735
0.189990 0.189475 0.187515
0.214787 0.214409 0.215956
0.241285 0.241373 0.240983
0.184877 0.185271 0.182092
0.221633 0.220507 0.224966
0.215910 0.216176 0.216670
0.186082 0.185974 0.185360
0.208230 0.208097 0.208341
0.221628 0.220414 0.222598
0.218924 0.216966 0.214344
0.213940 0.212748 0.212695
0.182010 0.182241 0.181978
0.230034 0.228583 0.228708
0.221901 0.223693 0.225135
0.199314 0.199246 0.199693
0.192208 0.191969 0.190843
0.215483 0.215156 0.215889
0.187097 0.194211 0.196007
0.203395 0.203588 0.205305
0.202274 0.202058 0.202960
0.242036 0.241564 0.241718
0.220520 0.220347 0.220664
0.192104 0.189277 0.190271
0.176416 0.175410 0.175320
0.195327 0.193512 0.194195
0.163623 0.165154 0.164887
0.186801 0.186571 0.185276
0.181674 0.181961 0.183618
0.220184 0.219384 0.220800
0.176233 0.176333 0.176392
0.240423 0.238331 0.237996
0.195943 0.196266 0.196452
0.244726 0.249921 0.262604
0.245618 0.245874 0.245671
0.222875 0.226283 0.227302
0.234407 0.237444 0.238895
0.164860 0.165748 0.165800
0.178073 0.177607 0.177531
0.212700 0.211068 0.207866
0.254289 0.254981 0.256047
0.224416 0.224246 0.223983
0.200760 0.200605 0.200366
0.196296 0.196705 0.194585
0.224656 0.226406 0.229442
0.247445 0.248049 0.248023
0.207392 0.207362 0.207367
0.220755 0.223383 0.225128
0.189234 0.188248 0.187432
0.173086 0.172450 0.173235
0.209414 0.210247 0.210766
0.229475 0.230875 0.233090
0.242815 0.243076 0.244946
0.260224 0.253197 0.252159
0.194745 0.193510 0.192559
0.238294 0.237104 0.239283
0.183754 0.184530 0.186086
0.184399 0.185030 0.185226
0.192328 0.191392 0.186617
0.224205 0.222101 0.218989
0.204338 0.203634 0.202741
0.208412 0.203445 0.203857
0.190868 0.190510 0.190617
0.186259 0.186206 0.186679
0.164875 0.164588 0.165584
0.175256 0.174931 0.174669
0.189858 0.190466 0.189792
0.192825 0.190969 0.190949
0.185039 0.184221 0.183861
0.195213 0.193415 0.191693
0.217620 0.222471 0.225157
0.189385 0.189825 0.190420
0.202958 0.203309 0.203207
0.235313 0.237042 0.238016
0.201335 0.202474 0.200567
0.180097 0.179862 0.179330
0.202661 0.202832 0.203199
0.170780 0.170358 0.170194
0.214287 0.214602 0.216604
0.229377 0.230602 0.232886
0.195331 0.195119 0.192853
0.249214 0.248909 0.247671
0.191097 0.189982 0.189762
0.214763 0.212835 0.210509
0.217473 0.221425 0.221918
0.211169 0.211244 0.207322
0.217498 0.215842 0.214546
0.189497 0.188695 0.189503
0.191016 0.192304 0.192335
0.209780 0.209728 0.209325
0.228629 0.228478 0.226750
0.231269 0.231268 0.229716
0.211874 0.211108 0.211077
0.219988 0.221652 0.228284
0.193393 0.194148 0.198711
0.204442 0.204524 0.203183
0.195267 0.199248 0.200047
0.203546 0.203146 0.219284
0.245105 0.245239 0.245313
0.218669 0.218941 0.219016
0.193308 0.193567 0.194019
0.186501 0.185969 0.186887
0.184263 0.184861 0.184872
0.184647 0.185300 0.185253
0.203501 0.204998 0.206520
0.216594 0.216644 0.215717
0.187182 0.189120 0.189500
0.187432 0.186798 0.187076
0.195051 0.195099 0.195007
0.229530 0.226707 0.225647
0.223601 0.221866 0.214506
0.202936 0.205078 0.212066
0.228792 0.229834 0.230328
0.187245 0.187164 0.188016
0.195703 0.198610 0.207520
0.223003 0.223812 0.224062
0.225295 0.225242 0.225012
0.214898 0.213236 0.210630
0.203057 0.204531 0.209370
0.206250 0.205548 0.205048
0.188041 0.187650 0.187464
0.180210 0.177598 0.178597
0.205572 0.201442 0.201261
0.189591 0.190367 0.191178
0.208864 0.206092 0.205259
0.211001 0.212291 0.214516
0.195028 0.195697 0.197466
0.223748 0.222649 0.223627
0.205961 0.198324 0.195353
0.192776 0.194863 0.195358
0.188995 0.189139 0.188737
0.217067 0.216471 0.215482
0.213637 0.213228 0.205930
0.214019 0.213279 0.213302
0.202644 0.202010 0.202454
0.223985 0.225062 0.225621
0.209359 0.190558 0.188580
0.239993 0.240371 0.240545
0.221405 0.221529 0.221559
0.242495 0.240698 0.236968
0.201886 0.201853 0.202044
0.218131 0.217632 0.217220
0.204240 0.204263 0.204167
0.178548 0.176416 0.175410
0.215533 0.212440 0.211436
0.207589 0.208061 0.208875
0.234186 0.235725 0.235373
0.221273 0.221220 0.221368
0.208968 0.208513 0.206635
0.201367 0.195355 0.195741
0.196873 0.197450 0.197714
0.233471 0.233434 0.233357
0.205760 0.206041 0.206181
0.202480 0.202384 0.202407
0.208296 0.209393 0.210310
0.169258 0.170433 0.172486
0.152564 0.154353 0.154554
0.203095 0.202680 0.202341
0.284610 0.282935 0.281290
0.216371 0.217851 0.218153
0.201613 0.201149 0.200989
0.219762 0.219849 0.222448
0.225277 0.227252 0.223625
0.205165 0.205100 0.205181
0.205678 0.206116 0.206458
0.191384 0.191878 0.192458
0.250179 0.248472 0.244422
0.225461 0.225103 0.224541
0.218527 0.221945 0.221070
0.246788 0.246861 0.247036
0.200360 0.200399 0.201021
0.187577 0.189379 0.190694
0.175434 0.175340 0.175160
0.222400 0.223657 0.225632
0.192344 0.194745 0.197465
0.202926 0.202370 0.209014
0.242173 0.244191 0.244862
0.191691 0.192071 0.191897
0.266710 0.259605 0.257046
0.221743 0.221717 0.222103
0.192064 0.192774 0.195373
0.224030 0.223313 0.220996
0.225596 0.224700 0.224962
0.197946 0.196210 0.195619
0.256246 0.256063 0.256811
0.190058 0.188900 0.187766
0.195897 0.193918 0.192121
0.241160 0.242898 0.244897
0.220744 0.220730 0.219849
0.201133 0.200796 0.200650
0.179561 0.179386 0.179598
0.215977 0.212326 0.212005
0.193778 0.195082 0.197930
0.241269 0.235612 0.228869
0.234161 0.234999 0.234624
0.217720 0.230597 0.233893
0.237251 0.237219 0.237516
0.220784 0.223233 0.221750
0.224573 0.225034 0.225984
0.190612 0.189784 0.190623
0.202613 0.211261 0.211371
0.219229 0.219627 0.219206
0.238253 0.240873 0.241859
0.222955 0.225671 0.225747
0.195940 0.196472 0.196523
0.229119 0.229150 0.228043
0.188424 0.188345 0.187801
0.215233 0.216841 0.218091
0.210580 0.210606 0.212073
0.202162 0.202040 0.199127
0.215499 0.215300 0.213536
0.206215 0.207728 0.207893
0.216642 0.219096 0.220964
0.218382 0.217539 0.214504
0.203445 0.203857 0.206348
0.199025 0.196812 0.196062
0.206081 0.206626 0.206428
0.236881 0.238101 0.238398
0.188447 0.188328 0.187317
0.220987 0.219410 0.212676
0.270084 0.269231 0.270007
0.180380 0.180020 0.178990
0.211887 0.213474 0.218067
0.219939 0.219192 0.219387
0.170880 0.172996 0.175564
0.172211 0.172089 0.173591
0.231367 0.229781 0.229599
0.181444 0.181601 0.181687
0.216934 0.217201 0.216476
0.215381 0.215642 0.226533
0.211490 0.212381 0.212569
0.206364 0.205978 0.205738
0.221133 0.213344 0.211838
0.201874 0.200937 0.200842
0.253197 0.252159 0.252422
0.204064 0.203758 0.200338
0.181285 0.179055 0.178862
0.254315 0.256519 0.259119
0.225351 0.225492 0.225239
0.205472 0.204978 0.204832
0.194026 0.194392 0.194359
0.178643 0.179611 0.181008
0.201905 0.201180 0.201330
0.225803 0.224091 0.223940
0.198189 0.199123 0.200578
0.243735 0.244986 0.245623
0.226055 0.224482 0.224380
0.221960 0.224143 0.227449
0.212797 0.211742 0.212470
0.214978 0.218161 0.218647
0.238460 0.238156 0.236891
0.220041 0.217137 0.217926
0.178086 0.180105 0.183962
0.203352 0.204981 0.206585
0.205387 0.204119 0.204207
0.249935 0.252744 0.253225
0.184172 0.186330 0.186549
0.212933 0.212083 0.210690
0.196622 0.196630 0.196273
0.193415 0.195137 0.196675
0.231013 0.231353 0.229923
0.219644 0.220658 0.223397
0.194013 0.194318 0.190368
0.194652 0.192181 0.190810
0.217037 0.215538 0.214976
0.224187 0.225016 0.225418
0.194807 0.195425 0.194783
0.207791 0.206474 0.201726
0.208022 0.209381 0.210064
0.221515 0.221691 0.221721
0.201761 0.200816 0.191375
0.168947 0.168941 0.169476
0.205001 0.209349 0.211658
0.210926 0.209588 0.209733
0.213350 0.215272 0.215618
0.214910 0.214689 0.214677
0.174214 0.176030 0.177567
0.219370 0.218959 0.217842
0.227902 0.228231 0.227042
0.214542 0.213653 0.209579
0.185540 0.185294 0.185146
0.171743 0.174269 0.178940
0.216615 0.215978 0.215282
0.186959 0.183012 0.181230
0.182121 0.183239 0.185078
0.219859 0.220901 0.221404
0.209585 0.209158 0.210059
0.185039 0.183178 0.181135
0.268010 0.268405 0.273932
0.232788 0.228055 0.225972
0.241788 0.241397 0.240793
0.186747 0.189397 0.190807
0.258020 0.258042 0.258171
0.248903 0.243774 0.243591
0.203209 0.203165 0.203295
0.245404 0.246342 0.246502
0.173673 0.173021 0.173434
0.214356 0.215452 0.217045
0.235873 0.235535 0.234935
0.196435 0.197022 0.206582
0.207434 0.207399 0.206774
0.224000 0.223500 0.222147
0.202851 0.204427 0.204216
0.211273 0.210174 0.213610
0.225481 0.226098 0.225126
0.227932 0.228768 0.229304
0.178146 0.177111 0.177079
0.199807 0.199411 0.198931
0.224675 0.224792 0.225072
0.192152 0.191022 0.190210
0.213179 0.213194 0.213482
0.227263 0.226290 0.225783
0.166580 0.166392 0.166626
0.190157 0.191442 0.191739
0.175909 0.175419 0.175276
0.232831 0.233956 0.234217
0.221891 0.221535 0.221195
0.219597 0.219237 0.218039
0.202662 0.203455 0.203678
0.239499 0.238837 0.239959
0.239102 0.239058 0.237332
0.209227 0.204145 0.219170
0.228260 0.228870 0.228632
0.201140 0.201935 0.201782
0.259440 0.259882 0.261160
0.202732 0.203834 0.203838
0.196959 0.194956 0.195951
0.226605 0.226376 0.225719
0.240016 0.240799 0.243049
0.190305 0.191269 0.191110
0.197264 0.198721 0.199020
0.226947 0.218037 0.219258
0.235065 0.236839 0.237311
0.257280 0.258453 0.260932
0.200655 0.201200 0.201970
0.193777 0.195539 0.197291
0.189242 0.188766 0.187617
0.216775 0.215214 0.213909
0.190705 0.189596 0.188834
0.233326 0.233903 0.234597
0.241784 0.237514 0.237304
0.187460 0.187029 0.191655
0.208510 0.208194 0.206979
0.172089 0.173591 0.177895
0.219837 0.220015 0.220054
0.211395 0.211595 0.212033
0.225700 0.225312 0.225508
0.172669 0.173122 0.176939
0.237806 0.236698 0.229358
0.192093 0.189902 0.188036
0.184506 0.186491 0.187204
0.200353 0.200295 0.200992
0.210438 0.210340 0.210291
0.189931 0.190042 0.191456
0.209337 0.209272 0.210483
0.198712 0.196902 0.196107
0.214670 0.213132 0.212986
0.225855 0.226283 0.230729
0.205846 0.210472 0.211508
0.217266 0.218886 0.218964
0.218704 0.221179 0.222255
0.182204 0.180128 0.179601
0.193230 0.193296 0.192571
0.215513 0.215469 0.217272
0.202823 0.201399 0.200216
0.213129 0.214337 0.215748
0.196297 0.198088 0.197907
0.221582 0.228218 0.232297
0.233419 0.235204 0.228585
0.212397 0.209309 0.203788
0.193499 0.193572 0.193167
0.185812 0.186449 0.195518
0.157503 0.157268 0.157855
0.192190 0.193270 0.195845
0.232187 0.232525 0.232688
0.261514 0.261404 0.260743
0.190790 0.191080 0.191966
0.193345 0.193538 0.193553
0.179220 0.181371 0.183159
0.226700 0.224313 0.219621
0.193695 0.195270 0.197031
0.285002 0.283502 0.283181
0.240274 0.241511 0.239451
0.240497 0.238962 0.238438
0.212002 0.212093 0.208152
0.204295 0.204284 0.203724
0.185834 0.183406 0.183449
0.251139 0.256521 0.257384
0.186260 0.184603 0.185083
0.235782 0.232251 0.232372
0.215107 0.215509 0.215525
0.210323 0.209993 0.208494
0.215578 0.223536 0.222203
0.183081 0.180478 0.184708
0.189364 0.190609 0.191542
0.252893 0.253400 0.251701
0.221351 0.220799 0.220581
0.198364 0.198452 0.198548
0.196694 0.194452 0.191096
0.181507 0.182645 0.182616
0.182124 0.182769 0.184141
0.194610 0.195710 0.194804
0.242424 0.240612 0.239241
0.197188 0.197299 0.194004
0.215342 0.216020 0.217141
0.210770 0.207298 0.204050
0.202524 0.201736 0.199025
0.208199 0.205971 0.202719
0.178836 0.180090 0.184272
0.178522 0.178580 0.176071
0.179772 0.179727 0.179800
0.239939 0.239829 0.240120
0.202688 0.203009 0.202717
0.194278 0.193680 0.194426
0.197621 0.198060 0.198737
0.220127 0.218659 0.217560
0.203174 0.203331 0.203370
0.232303 0.232895 0.234163
0.225299 0.226204 0.227860
0.198474 0.198700 0.200114
0.202181 0.201264 0.200880
0.236478 0.238678 0.238908
0.181409 0.180213 0.180582
0.201204 0.202518 0.202638
0.233252 0.232545 0.232299
0.205971 0.202719 0.197790
0.207249 0.207273 0.208435
0.221829 0.222036 0.220885
0.200095 0.201905 0.202231
0.226940 0.227530 0.227277
0.219379 0.219961 0.222326
0.218158 0.221735 0.219950
0.231339 0.230387 0.229736
0.233694 0.234390 0.234814
0.171740 0.173250 0.172321
0.189776 0.204499 0.206057
0.203251 0.204629 0.207230
0.210880 0.209708 0.210373
0.221361 0.220536 0.219085
0.192372 0.194401 0.193844
0.201017 0.201443 0.201970
0.219410 0.212676 0.211844
0.202959 0.203396 0.203083
0.270799 0.269630 0.268676
0.178428 0.176249 0.177767
0.230895 0.224498 0.223434
0.169227 0.168883 0.167942
0.186544 0.186427 0.184265
0.177930 0.176119 0.175240
0.182473 0.184085 0.189893
0.177030 0.175591 0.172875
0.223069 0.223771 0.222789
0.180201 0.179666 0.178887
0.229249 0.231027 0.229495
0.177324 0.177369 0.179170
0.228479 0.228599 0.228576
0.195594 0.196936 0.198101
0.233100 0.232555 0.232216
0.219712 0.220086 0.217707
0.201107 0.199852 0.198960
0.213494 0.213122 0.214760
0.188421 0.187114 0.187214
0.174357 0.171611 0.170377
0.168578 0.169172 0.169016
0.197634 0.197214 0.197046
0.179023 0.178748 0.178094
0.203268 0.203759 0.199809
0.181889 0.182010 0.182241
0.186832 0.187891 0.187433
0.208045 0.209076 0.210785
0.196448 0.199000 0.199240
0.190482 0.190552 0.190957
0.274537 0.274677 0.274932
0.233727 0.233326 0.232984
0.169561 0.167771 0.167423
0.189210 0.189503 0.192182
0.214095 0.215044 0.215533
0.237813 0.238975 0.239227
0.243323 0.242845 0.242311
0.195188 0.196978 0.196212
0.196529 0.196614 0.196714
0.172780 0.173963 0.174318
0.190138 0.189934 0.189489
0.224012 0.221971 0.221677
0.223825 0.223764 0.223549
0.196713 0.197510 0.196811
0.203617 0.201439 0.203855
0.205500 0.205717 0.207549
0.230733 0.228308 0.227600
0.172438 0.175033 0.179407
0.195096 0.196527 0.196777
0.215956 0.218520 0.218958
0.232412 0.233013 0.233587
0.217431 0.212591 0.208986
0.213353 0.213466 0.215524
0.205841 0.200968 0.200999
0.205791 0.205804 0.205572
0.218729 0.219021 0.220005
0.168340 0.168579 0.167866
0.178016 0.178982 0.179806
0.201812 0.202069 0.202812
0.176099 0.175817 0.175743
0.218687 0.218210 0.218386
0.207903 0.207050 0.207075
0.181969 0.182101 0.183018
0.225432 0.228154 0.229913
0.177065 0.177596 0.178835
0.226869 0.230852 0.230983
0.244334 0.244439 0.244526
0.248593 0.248741 0.248073
0.219676 0.222049 0.221098
0.233380 0.231292 0.227405
0.204845 0.205494 0.205983
0.204300 0.202954 0.201677
0.208629 0.210934 0.212861
0.184155 0.184036 0.182143
0.152571 0.154038 0.154269
0.213989 0.215419 0.215790
0.228302 0.225951 0.223661
0.242480 0.243700 0.243065
0.174994 0.176602 0.176935
0.238419 0.238780 0.238713
0.197015 0.195753 0.195257
0.212101 0.211980 0.211630
0.202802 0.203190 0.203769
0.217181 0.217665 0.218157
0.189419 0.189396 0.189909
0.189646 0.188790 0.188760
0.225236 0.220691 0.221382
0.233015 0.232652 0.232006
0.178105 0.176613 0.176858
0.208168 0.210203 0.211745
0.217981 0.216779 0.216602
0.185728 0.186066 0.184505
0.175079 0.169674 0.168384
0.186346 0.187797 0.190886
0.214487 0.213903 0.214376
0.201536 0.200236 0.198516
0.207297 0.205551 0.200915
0.189411 0.189847 0.189754
0.256291 0.254690 0.255966
0.196655 0.194345 0.191047
0.204327 0.205527 0.207353
0.193858 0.195803 0.196839
0.213824 0.214287 0.216028
0.193124 0.193009 0.193979
0.169351 0.167752 0.168399
0.188694 0.186590 0.186275
0.235962 0.239551 0.240405
0.195510 0.199655 0.200849
0.183861 0.184268 0.184600
0.186980 0.187308 0.186583
0.205411 0.206869 0.208629
0.288771 0.288263 0.290082
0.208786 0.218628 0.218881
0.217561 0.222220 0.221348
0.217292 0.218959 0.220162
0.220321 0.220389 0.220276
0.193205 0.193903 0.193966
0.231934 0.233393 0.234289
0.242983 0.241382 0.240314
0.203832 0.201719 0.201761
0.246822 0.244357 0.242133
0.215470 0.215493 0.215540
0.218759 0.219263 0.219022
0.160364 0.161486 0.163516
0.205249 0.206949 0.220847
0.188671 0.192202 0.191621
0.223259 0.226268 0.231838
0.228585 0.223824 0.217587
0.204823 0.205165 0.205100
0.223313 0.227136 0.230305
0.245756 0.245870 0.246570
0.231545 0.231267 0.229607
0.243011 0.238375 0.237167
0.199126 0.199354 0.201202
0.178222 0.179791 0.184923
0.230766 0.228939 0.228029
0.247966 0.249737 0.251182
0.195355 0.195741 0.198840
0.200286 0.201495 0.202788
0.229175 0.227262 0.225948
0.218479 0.219401 0.219140
0.240812 0.246262 0.246896
0.204294 0.204430 0.204693
0.211084 0.211271 0.212382
0.186865 0.184054 0.178890
0.186189 0.190193 0.190042
0.219613 0.219534 0.218840
0.193062 0.192583 0.191564
0.197644 0.196714 0.189981
0.169714 0.167804 0.169856
0.177367 0.178100 0.179910
0.198158 0.199530 0.201294
0.246497 0.246760 0.250362
0.210576 0.207978 0.201771
0.202317 0.201805 0.202455
0.238306 0.232942 0.232416
0.197564 0.194712 0.193963
0.193972 0.192802 0.193252
0.209205 0.209072 0.208950
0.182046 0.173641 0.173064
0.226800 0.227826 0.227472
0.223877 0.218514 0.218265
0.179878 0.179965 0.180293
0.223342 0.223360 0.226907
0.205374 0.205333 0.205628
0.191192 0.189608 0.183081
0.245297 0.245860 0.244959
0.172701 0.168430 0.164384
0.179550 0.178975 0.177262
0.220363 0.222413 0.222695
0.161488 0.162118 0.161503
0.213187 0.213335 0.213319
0.186810 0.186189 0.190193
0.185936 0.183977 0.183289
0.227544 0.223759 0.220094
0.240447 0.238229 0.237150
0.261491 0.261269 0.261223
0.202713 0.202889 0.202989
0.227846 0.226093 0.227209
0.208593 0.211765 0.213538
0.202498 0.204720 0.205050
0.231548 0.230361 0.228535
0.202980 0.204392 0.204882
0.200364 0.202539 0.205626
0.191173 0.191207 0.189300
0.200991 0.201686 0.202463
0.210219 0.207935 0.208158
0.222595 0.221802 0.221133
0.227527 0.226277 0.224463
0.179229 0.179003 0.179477
0.203952 0.205747 0.206546
0.198120 0.198460 0.198568
0.206462 0.209034 0.208509
0.202950 0.202728 0.201811
0.209923 0.211329 0.209120
0.197887 0.196492 0.197357
0.192606 0.192837 0.195517
0.205929 0.205254 0.203931
0.193416 0.193143 0.192458
0.206309 0.204352 0.201772
0.191951 0.192244 0.190981
0.202374 0.202136 0.198876
0.220563 0.218564 0.214905
0.230893 0.230150 0.228755
0.180835 0.181138 0.181649
0.193331 0.194427 0.194936
0.195309 0.196126 0.200408
0.245431 0.242541 0.240753
0.195246 0.193270 0.194406
0.196466 0.196567 0.196529
0.171978 0.169582 0.169278
0.210253 0.211146 0.211387
0.231956 0.232775 0.233405
0.200179 0.201107 0.199852
0.197467 0.198370 0.200070
0.229854 0.230710 0.231448
0.242795 0.243229 0.253602
0.228080 0.228954 0.230301
0.178587 0.178537 0.178348
0.220872 0.221884 0.225930
0.213205 0.213627 0.212652
0.230279 0.228287 0.226220
0.203145 0.203206 0.204083
