0.012403 0.012573 0.012615
0.013562 0.013531 0.013517
0.016917 0.016891 0.016827
0.012919 0.012918 0.012930
0.012920 0.012937 0.012735
0.013286 0.013330 0.013269
0.015119 0.015382 0.015495
0.013627 0.013540 0.013395
0.013772 0.013890 0.013857
0.013436 0.013401 0.013344
0.014393 0.014326 0.014389
0.013151 0.013199 0.013128
0.014790 0.014869 0.014918
0.013344 0.013398 0.013534
0.014164 0.014297 0.014286
0.015454 0.015431 0.015361
0.014669 0.014640 0.014573
0.012798 0.012722 0.012531
0.012096 0.012167 0.012242
0.014004 0.013880 0.013956
0.022875 0.022858 0.023100
0.014487 0.014454 0.014414
0.017222 0.017230 0.017266
0.013341 0.013324 0.013452
0.011938 0.011879 0.011825
0.014252 0.014364 0.014360
0.014680 0.014843 0.014825
0.013053 0.013000 0.013001
0.016268 0.016376 0.016310
0.014120 0.014523 0.014550
0.015801 0.015814 0.015832
0.013255 0.013231 0.013322
0.012916 0.012965 0.013020
0.013140 0.013187 0.013185
0.013670 0.013664 0.013782
0.013838 0.013750 0.013855
0.014925 0.014879 0.014659
0.014532 0.014602 0.014702
0.015099 0.015189 0.015163
0.015988 0.016017 0.016080
0.012888 0.012867 0.012824
0.015076 0.015028 0.014961
0.013929 0.013781 0.013736
0.014316 0.014352 0.014366
0.014950 0.014867 0.014742
0.012458 0.012320 0.012298
0.014621 0.014599 0.014596
0.014743 0.014806 0.014823
0.012473 0.012591 0.012612
0.016446 0.016357 0.016418
0.014506 0.014543 0.014554
0.013939 0.014134 0.014140
0.012523 0.012681 0.012705
0.014756 0.014789 0.014870
0.014548 0.014516 0.014450
0.013061 0.013072 0.013107
0.017348 0.017322 0.017372
0.011743 0.011587 0.011514
0.012164 0.012162 0.012126
0.017498 0.017485 0.017454
0.015031 0.014974 0.014950
0.016190 0.016290 0.016341
0.019099 0.019081 0.019092
0.013879 0.013930 0.014016
0.013696 0.013781 0.013954
0.016328 0.016369 0.016437
0.016785 0.016788 0.016644
0.016178 0.016224 0.016218
0.015430 0.015389 0.015330
0.012819 0.012795 0.012719
0.014751 0.014794 0.014810
0.015765 0.015708 0.015426
0.015846 0.015751 0.015794
0.013927 0.014028 0.014053
0.013623 0.013486 0.013508
0.014297 0.014202 0.014136
0.016156 0.016096 0.016050
0.014442 0.014668 0.014669
0.012810 0.012925 0.012885
0.011443 0.011555 0.011645
0.015295 0.015208 0.015062
0.014875 0.014792 0.014926
0.014497 0.014593 0.014547
0.016073 0.015974 0.015733
0.013501 0.013489 0.013514
0.013575 0.013533 0.013550
0.011943 0.012011 0.011914
0.012953 0.012973 0.013002
0.014743 0.014754 0.014925
0.013635 0.013410 0.013394
0.015189 0.015178 0.015227
0.013413 0.013321 0.013305
0.013672 0.013633 0.013680
0.012055 0.012041 0.012181
0.014724 0.014936 0.014800
0.015458 0.015368 0.015402
0.015190 0.015158 0.015213
0.014987 0.014947 0.014951
0.012956 0.012803 0.012733
0.011819 0.011822 0.011953
0.011599 0.011648 0.011766
0.012689 0.012732 0.012861
0.013997 0.014007 0.014104
0.014504 0.014551 0.014565
0.014806 0.014788 0.014794
0.014308 0.014327 0.014408
0.014200 0.014323 0.014462
0.013007 0.012988 0.012992
0.017614 0.017532 0.017535
0.019143 0.019116 0.019210
0.013722 0.013678 0.013540
0.013262 0.013315 0.013312
0.015490 0.015347 0.015416
0.013491 0.013605 0.013603
0.012039 0.011961 0.011733
0.016447 0.016454 0.016474
0.015146 0.015170 0.015133
0.013945 0.014001 0.014011
0.013580 0.013723 0.013743
0.013661 0.013472 0.013297
0.022560 0.022382 0.022334
0.016439 0.016450 0.016641
0.012241 0.012333 0.012524
0.014390 0.014362 0.014373
0.014580 0.014545 0.014671
0.014060 0.014058 0.014122
0.015124 0.015200 0.015154
0.013709 0.013761 0.013853
0.015941 0.015952 0.015965
0.017207 0.017570 0.017540
0.015422 0.015531 0.015498
0.012131 0.012157 0.012247
0.014987 0.014942 0.014777
0.014465 0.014485 0.014384
0.014122 0.014156 0.014165
0.014270 0.014514 0.014579
0.014784 0.014792 0.014725
0.014398 0.014392 0.014336
0.012308 0.012246 0.012176
0.016583 0.016635 0.016630
0.014522 0.014550 0.014475
0.016081 0.015732 0.015734
0.012823 0.012823 0.012900
0.013167 0.013133 0.013083
0.014230 0.014237 0.014190
0.014075 0.014230 0.014197
0.016234 0.016166 0.016125
0.015973 0.015693 0.015486
0.017186 0.017374 0.017431
0.015962 0.015955 0.015867
0.015986 0.015974 0.015920
0.014786 0.014832 0.014801
0.016816 0.016526 0.016323
0.016113 0.015996 0.015496
0.016675 0.016629 0.016646
0.012093 0.012194 0.012103
0.014905 0.014804 0.015019
0.013375 0.013416 0.013414
0.015088 0.015180 0.015293
0.012527 0.012466 0.012489
0.015778 0.015758 0.015816
0.015309 0.015059 0.014925
0.014160 0.014297 0.014340
0.015455 0.015180 0.015133
0.013689 0.013648 0.013680
0.015280 0.015180 0.015086
0.014228 0.014186 0.014204
0.017092 0.017053 0.017182
0.012876 0.012791 0.012938
0.012392 0.012412 0.012476
0.013779 0.013692 0.013817
0.014101 0.014036 0.013932
0.015906 0.015931 0.015998
0.013880 0.013895 0.013859
0.012845 0.012968 0.012966
0.016214 0.016279 0.016257
0.014145 0.014120 0.014265
0.012937 0.012964 0.013047
0.016247 0.016240 0.016271
0.015261 0.015293 0.015301
0.014480 0.014487 0.014454
0.014718 0.014821 0.014882
0.015536 0.015533 0.015549
0.014281 0.014301 0.014317
0.016716 0.016740 0.016684
0.014263 0.014280 0.014394
0.014408 0.014573 0.014676
0.014855 0.014819 0.014806
0.014795 0.014658 0.014811
0.014859 0.014761 0.014781
0.016347 0.016423 0.016385
0.014535 0.014508 0.014494
0.014752 0.014706 0.014686
0.014863 0.014675 0.014675
0.016412 0.016424 0.016312
0.016267 0.016226 0.016307
0.014595 0.014487 0.014402
0.013307 0.013219 0.013181
0.015628 0.015620 0.015629
0.016610 0.016347 0.016293
0.014000 0.014030 0.014197
0.017051 0.016967 0.016977
0.013813 0.013783 0.013912
0.015643 0.015685 0.015570
0.019321 0.019346 0.019289
0.014984 0.015009 0.015007
0.014874 0.014841 0.014894
0.013147 0.013150 0.013184
0.014401 0.014371 0.014481
0.014116 0.014075 0.013984
0.016936 0.016992 0.017002
0.014893 0.014874 0.014921
0.013275 0.013367 0.013214
0.014426 0.014416 0.014422
0.012774 0.012762 0.012945
0.011875 0.011968 0.011995
0.014922 0.014968 0.015090
0.013875 0.013872 0.013822
0.013001 0.013138 0.013062
0.015392 0.015259 0.015037
0.014297 0.014219 0.014255
0.013579 0.013632 0.013721
0.015012 0.015138 0.015141
0.014864 0.014494 0.014218
0.015162 0.015255 0.015351
0.015332 0.015453 0.015554
0.015704 0.015692 0.015672
0.014983 0.014965 0.014954
0.012676 0.012650 0.012811
0.014812 0.014811 0.014803
0.014578 0.014575 0.014574
0.012375 0.012377 0.012362
0.011745 0.011735 0.011732
0.014356 0.014342 0.014326
0.015186 0.015091 0.015083
0.017591 0.017583 0.017445
0.013809 0.013849 0.013883
0.014554 0.014626 0.014987
0.014556 0.014506 0.014569
0.014407 0.014423 0.014201
0.014370 0.014327 0.014351
0.015055 0.015349 0.015528
0.016191 0.016271 0.016274
0.018979 0.019138 0.019122
0.015541 0.015592 0.015609
0.013969 0.014007 0.014034
0.013159 0.013225 0.013302
0.014205 0.014230 0.014267
0.013184 0.013207 0.013247
0.013380 0.013478 0.013310
0.014429 0.014343 0.014314
0.014059 0.014095 0.014040
0.013143 0.013128 0.013335
0.015501 0.015525 0.015640
0.015470 0.015571 0.015358
0.016137 0.016222 0.016300
0.017415 0.017414 0.017465
0.014160 0.013999 0.013972
0.013689 0.013634 0.013704
0.014838 0.014777 0.014798
0.015708 0.015703 0.015797
0.014496 0.014408 0.014354
0.016217 0.016551 0.016838
0.014529 0.014529 0.014449
0.011903 0.011826 0.011815
0.012574 0.012545 0.012457
0.014942 0.014817 0.014671
0.015367 0.015375 0.015303
0.015203 0.015354 0.015320
0.014946 0.015052 0.015046
0.013186 0.013144 0.013164
0.014647 0.014514 0.014473
0.014202 0.014243 0.014137
0.016183 0.015938 0.015719
0.012270 0.012165 0.012172
0.014013 0.014017 0.014184
0.014198 0.014173 0.014131
0.014555 0.014544 0.014325
0.013668 0.013676 0.013675
0.014472 0.014570 0.014685
0.013974 0.013880 0.013813
0.015165 0.015152 0.015132
0.015856 0.015884 0.015855
0.016077 0.015938 0.015760
0.012904 0.012899 0.012850
0.014007 0.013944 0.013814
0.015235 0.015309 0.015277
0.013579 0.013519 0.013493
0.015413 0.015232 0.015106
0.012921 0.012737 0.012720
0.013664 0.013645 0.013702
0.015279 0.015073 0.014994
0.013196 0.013107 0.013252
0.012625 0.012581 0.012600
0.015990 0.015943 0.015821
0.015209 0.015267 0.015269
0.013369 0.013305 0.013568
0.013518 0.013628 0.013612
0.015129 0.015066 0.014853
0.017605 0.017618 0.017569
0.014735 0.014785 0.014738
0.014804 0.014747 0.014756
0.013116 0.013042 0.013007
0.013008 0.012886 0.012948
0.014567 0.014670 0.014725
0.016614 0.016760 0.016808
0.014081 0.014200 0.014098
0.015191 0.015178 0.015271
0.011505 0.011456 0.011469
0.014389 0.014338 0.014359
0.015139 0.015145 0.015225
0.013601 0.013300 0.013263
0.021737 0.022196 0.022457
0.013041 0.012989 0.013024
0.015217 0.015228 0.014957
0.013607 0.013527 0.013486
0.011792 0.011738 0.011746
0.013164 0.013150 0.013117
0.015742 0.015811 0.015862
0.013610 0.013635 0.013770
0.014866 0.014765 0.014817
0.016841 0.016872 0.016906
0.014863 0.014906 0.014922
0.013231 0.013247 0.013244
0.014230 0.014267 0.014335
0.014659 0.014634 0.014356
0.014644 0.014601 0.014625
0.012637 0.012657 0.012986
0.014319 0.014135 0.014020
0.016291 0.016113 0.016050
0.013176 0.013141 0.013169
0.013647 0.013855 0.014001
0.015639 0.015615 0.015392
0.015162 0.015083 0.014884
0.014122 0.014164 0.014306
0.014479 0.014516 0.014581
0.013380 0.013407 0.013372
0.015244 0.015290 0.015337
0.016000 0.015911 0.016012
0.016210 0.016175 0.016108
0.011999 0.012204 0.012327
0.013993 0.014030 0.013891
0.014892 0.014811 0.014775
0.015653 0.015571 0.015486
0.014470 0.014508 0.014559
0.014907 0.014968 0.014977
0.014425 0.014411 0.014410
0.014786 0.014804 0.014785
0.014058 0.013919 0.013741
0.014408 0.014613 0.014731
0.015035 0.014973 0.015039
0.014449 0.014430 0.014501
0.015808 0.015780 0.015623
0.012965 0.012909 0.012843
0.015104 0.014955 0.014951
0.015710 0.015824 0.015860
0.014132 0.014062 0.014057
0.012303 0.012268 0.012259
0.016303 0.016126 0.015997
0.015719 0.015748 0.015878
0.013085 0.013149 0.013123
0.014823 0.014821 0.014857
0.011412 0.011428 0.011365
0.019445 0.019427 0.019411
0.013643 0.013658 0.013623
0.013902 0.013909 0.014030
0.014752 0.014682 0.014584
0.012830 0.012870 0.012777
0.013218 0.013229 0.013201
0.016055 0.015516 0.015376
0.012524 0.012432 0.012509
0.015023 0.015037 0.015076
0.016579 0.016597 0.016586
0.017977 0.018028 0.018058
0.019200 0.019276 0.019672
0.013755 0.013711 0.013813
0.016036 0.016002 0.015941
0.015345 0.015342 0.015308
0.013545 0.013588 0.013672
0.012919 0.012819 0.012792
0.016275 0.016298 0.016085
0.015286 0.015384 0.015389
0.015037 0.015006 0.014718
0.014348 0.014176 0.014180
0.014695 0.014741 0.014857
0.016814 0.016799 0.016679
0.012356 0.012432 0.012488
0.017084 0.017063 0.017068
0.015482 0.015453 0.015287
0.016520 0.016478 0.016408
0.015598 0.015613 0.015612
0.013667 0.013799 0.013799
0.015930 0.015880 0.016032
0.015179 0.015189 0.015291
0.013089 0.013081 0.013112
0.012599 0.012552 0.012420
0.015830 0.015851 0.015785
0.014822 0.014856 0.014907
0.014988 0.014950 0.014944
0.014134 0.014091 0.013991
0.015300 0.015265 0.015309
0.015839 0.015723 0.015574
0.015634 0.015670 0.015759
0.013881 0.013814 0.013852
0.014016 0.013936 0.013859
0.014852 0.014881 0.014996
0.013695 0.013891 0.013868
0.015269 0.015263 0.015240
0.011672 0.011646 0.011693
0.014145 0.014182 0.014001
0.013098 0.013063 0.013115
0.015514 0.015384 0.015331
0.015615 0.015436 0.015449
0.013480 0.013419 0.013403
0.015882 0.015881 0.015892
0.015539 0.015458 0.015470
0.014016 0.014022 0.014086
0.013051 0.013133 0.013186
0.014779 0.014838 0.014772
0.012906 0.013021 0.013056
0.015773 0.015722 0.015701
0.014558 0.014421 0.014356
0.016186 0.016167 0.016120
0.013007 0.013144 0.013242
0.015316 0.015299 0.015337
0.013634 0.013531 0.013481
0.014638 0.014624 0.014829
0.013504 0.013479 0.013406
0.011987 0.011918 0.011858
0.013192 0.014214 0.015435
0.014202 0.014503 0.014573
0.012375 0.012314 0.012313
0.016599 0.016594 0.016784
0.013733 0.013670 0.013639
0.012723 0.012702 0.012688
0.014543 0.014549 0.014599
0.014123 0.014225 0.014281
0.013418 0.013403 0.013427
0.014701 0.014819 0.014858
0.014289 0.014230 0.014179
0.012821 0.012849 0.012832
0.016116 0.016077 0.016119
0.014739 0.014653 0.014414
0.012818 0.012955 0.012956
0.013378 0.013258 0.013227
0.013959 0.013966 0.013777
0.015305 0.015344 0.015158
0.012688 0.012648 0.012608
0.015156 0.015106 0.015018
0.015372 0.015354 0.015312
0.014442 0.014626 0.014671
0.013366 0.013449 0.013344
0.014693 0.014762 0.014596
0.014862 0.014953 0.014944
0.015164 0.015173 0.015137
0.014178 0.014112 0.014155
0.013816 0.013693 0.013735
0.013442 0.013473 0.013496
0.013291 0.013349 0.013338
0.012649 0.012736 0.012697
0.015077 0.015159 0.015168
0.014723 0.014786 0.014697
0.013150 0.013134 0.013146
0.013181 0.013193 0.013224
0.013469 0.013447 0.013519
0.016772 0.016818 0.016790
0.015195 0.015176 0.015154
0.015547 0.015476 0.015500
0.015381 0.015392 0.015326
0.013369 0.013384 0.013457
0.014204 0.014169 0.014185
0.013139 0.013112 0.013090
0.013598 0.013519 0.013586
0.014658 0.014816 0.014907
0.012331 0.012320 0.012391
0.013821 0.013753 0.013542
0.014461 0.014440 0.014429
0.013253 0.013178 0.013172
0.022739 0.022686 0.022672
0.012953 0.012904 0.012938
0.015543 0.015573 0.015553
0.015789 0.015888 0.015954
0.014915 0.014879 0.014891
0.016301 0.016210 0.016051
0.016727 0.016852 0.016737
0.014807 0.014767 0.014956
0.013998 0.014144 0.014304
0.015735 0.015654 0.015663
0.015526 0.015334 0.015260
0.013309 0.013172 0.013129
0.012358 0.012331 0.012375
0.013737 0.013605 0.013612
0.015090 0.015186 0.015123
0.015368 0.015296 0.015183
0.014562 0.014530 0.014557
0.014494 0.014477 0.014535
0.015251 0.015378 0.015460
0.013873 0.013958 0.014006
0.013612 0.013723 0.013817
0.014510 0.014618 0.014676
0.016119 0.015724 0.015676
0.014859 0.014836 0.014901
0.016294 0.016311 0.016447
0.017321 0.017382 0.017360
0.013182 0.013241 0.013263
0.015778 0.015792 0.015777
0.013247 0.013315 0.013348
0.011789 0.011879 0.011922
0.014671 0.014639 0.014634
0.013091 0.013028 0.013169
0.012034 0.012072 0.012061
0.016468 0.016406 0.016233
0.012131 0.012004 0.012010
0.015177 0.015123 0.015265
0.013841 0.013955 0.013981
0.016270 0.016291 0.016261
0.014065 0.014113 0.014347
0.013617 0.013683 0.013668
0.015796 0.015726 0.015827
0.016030 0.016196 0.016173
0.015411 0.015541 0.015523
0.012188 0.012185 0.012241
0.014961 0.014908 0.014657
0.022794 0.022813 0.022776
0.016321 0.016285 0.016234
0.012310 0.012368 0.012458
0.014312 0.014181 0.014086
0.012477 0.012533 0.012470
0.016114 0.016020 0.015867
0.011832 0.011889 0.011950
0.013101 0.013026 0.012971
0.014500 0.014537 0.014421
0.014156 0.014090 0.014117
0.015511 0.015448 0.015412
0.016797 0.016817 0.016856
0.014382 0.014344 0.014240
0.021624 0.021688 0.021720
0.015685 0.015879 0.015886
0.015797 0.015664 0.015721
0.015559 0.015502 0.015485
0.013647 0.013752 0.013936
0.012866 0.012772 0.012783
0.013472 0.013526 0.013484
0.015177 0.015207 0.015206
0.012611 0.012699 0.012635
0.015093 0.015030 0.014969
0.018079 0.018186 0.018130
0.012951 0.013041 0.013089
0.014672 0.014572 0.014536
0.015364 0.015190 0.015211
0.016328 0.016280 0.016201
0.014834 0.014935 0.014932
0.016220 0.016240 0.016499
0.014780 0.014732 0.014732
0.020066 0.019777 0.019667
0.013476 0.013453 0.013447
0.017076 0.016817 0.016678
0.012735 0.012716 0.012755
0.014819 0.015091 0.015184
0.014556 0.014497 0.014455
0.013505 0.013494 0.013494
0.015181 0.015281 0.015266
0.012923 0.012949 0.012954
0.013964 0.014011 0.013980
0.015312 0.015383 0.015637
0.014231 0.014350 0.014292
0.013172 0.013041 0.013006
0.013129 0.013187 0.013229
0.012304 0.012280 0.012310
0.016825 0.016809 0.016850
0.013378 0.013348 0.013318
0.016302 0.016307 0.016265
0.014302 0.014268 0.014262
0.016348 0.016268 0.016543
0.015890 0.015916 0.015903
0.015601 0.015587 0.015572
0.014523 0.014550 0.014755
0.012729 0.012765 0.012883
0.016008 0.016034 0.016029
0.014668 0.014663 0.014760
0.011604 0.011593 0.011740
0.014830 0.014669 0.014708
0.014983 0.014928 0.014933
0.015134 0.015084 0.015096
0.015668 0.015687 0.015713
0.023068 0.022934 0.022620
0.011932 0.011917 0.011851
0.014890 0.014906 0.014926
0.014965 0.014836 0.014750
0.015048 0.015062 0.015101
0.013214 0.013186 0.013113
0.013317 0.013407 0.013486
0.014976 0.015058 0.015004
0.013966 0.013934 0.013776
0.013401 0.013403 0.013412
0.014868 0.014900 0.014781
0.015403 0.015492 0.015729
0.014647 0.014628 0.014735
0.015794 0.015954 0.015852
0.015823 0.015698 0.015692
0.011516 0.011501 0.011567
0.014765 0.014874 0.014798
0.014809 0.014781 0.014761
0.012213 0.012131 0.012157
0.013703 0.013750 0.013576
0.015020 0.015363 0.015479
0.011582 0.011715 0.011669
0.012934 0.012926 0.013045
0.016770 0.016695 0.016589
0.016338 0.016216 0.016165
0.015581 0.015613 0.015606
0.015130 0.015408 0.015559
0.013289 0.013384 0.013412
0.014813 0.014871 0.014794
0.012090 0.011816 0.011844
0.014444 0.014342 0.014199
0.016751 0.016752 0.016733
0.014730 0.014747 0.014887
0.015315 0.015258 0.015286
0.015326 0.015426 0.015221
0.013045 0.013062 0.012992
0.013678 0.013747 0.013625
0.013472 0.013456 0.013403
0.015654 0.015742 0.015811
0.016020 0.016094 0.016115
0.014488 0.014452 0.014446
0.014338 0.014380 0.014369
0.015191 0.015077 0.015045
0.011637 0.011766 0.011980
0.013228 0.013196 0.013160
0.015601 0.015667 0.015731
0.014952 0.014964 0.014893
0.015658 0.015769 0.015825
0.013899 0.014036 0.014183
0.013455 0.013434 0.013458
0.015664 0.015691 0.015815
0.015545 0.015513 0.015466
0.015071 0.015098 0.015183
0.016811 0.016760 0.016610
0.014363 0.014357 0.014389
0.012735 0.012672 0.012694
0.013647 0.013715 0.013639
0.014784 0.014774 0.014780
0.012819 0.012921 0.012834
0.013733 0.013731 0.013651
0.014356 0.014456 0.014437
0.015815 0.015680 0.015804
0.011819 0.011791 0.011745
0.013827 0.013896 0.013894
0.016402 0.016656 0.016466
0.014928 0.014822 0.014922
0.016333 0.016242 0.016025
0.015257 0.015305 0.015485
0.015167 0.015159 0.015016
0.012246 0.012178 0.012203
0.016149 0.015843 0.015720
0.016090 0.015987 0.015897
0.014652 0.014521 0.014527
0.013660 0.013946 0.014038
0.013916 0.013820 0.013760
0.013169 0.012986 0.012971
0.014680 0.014667 0.014693
0.015033 0.015006 0.015014
0.014969 0.014603 0.014560
0.012766 0.012740 0.012742
0.013790 0.013782 0.013789
0.013097 0.013073 0.012970
0.014950 0.015044 0.015086
0.016055 0.015648 0.015556
0.013995 0.014071 0.014052
0.015597 0.015876 0.016067
0.013353 0.013161 0.013084
0.015873 0.015938 0.016060
0.015370 0.015250 0.015260
0.022569 0.022590 0.022657
0.015036 0.015033 0.014993
0.013996 0.014014 0.014130
0.017839 0.017842 0.017861
0.013749 0.013775 0.013869
0.014228 0.014217 0.014222
0.014774 0.014762 0.014658
0.015105 0.015131 0.015146
0.013394 0.013333 0.013529
0.015056 0.015026 0.015087
0.014017 0.013954 0.013895
0.015209 0.015317 0.015509
0.015271 0.015260 0.015297
0.014091 0.013937 0.014086
0.012552 0.013129 0.012960
0.012888 0.012967 0.012970
0.014176 0.014195 0.014313
0.014076 0.014073 0.014238
0.014268 0.014360 0.014432
0.012914 0.012993 0.012977
0.014345 0.014485 0.014558
0.013559 0.013578 0.013551
0.016238 0.016725 0.016885
0.016858 0.017122 0.017244
0.015879 0.015876 0.015921
0.013465 0.013580 0.013437
0.013800 0.013585 0.013337
0.013349 0.013338 0.013373
0.012837 0.012711 0.012637
0.012955 0.012997 0.013012
0.016854 0.016860 0.016894
0.014895 0.015021 0.015021
0.021758 0.020679 0.019851
0.014897 0.014907 0.014906
0.012583 0.012505 0.012468
0.011722 0.011736 0.011835
0.013087 0.013144 0.013292
0.015262 0.014971 0.015003
0.013069 0.013103 0.013239
0.016850 0.016953 0.017077
0.014592 0.014644 0.014569
0.014177 0.014133 0.014131
0.014927 0.014720 0.014438
0.013585 0.013408 0.013415
0.013576 0.013611 0.013745
0.013139 0.013197 0.013297
0.014542 0.014514 0.014485
0.015148 0.015174 0.015132
0.015580 0.015706 0.015746
0.013137 0.013164 0.013077
0.012905 0.012784 0.012482
0.014197 0.014116 0.014155
0.015765 0.015676 0.015627
0.013347 0.013532 0.013541
0.014750 0.014579 0.014555
0.013542 0.013491 0.013545
0.013412 0.013697 0.013715
0.018923 0.018981 0.018970
0.014661 0.014595 0.014487
0.014256 0.014237 0.014266
0.015640 0.015616 0.015579
0.013320 0.013385 0.013391
0.012964 0.013047 0.013049
0.014176 0.014265 0.014211
0.010967 0.010886 0.010923
0.014722 0.014660 0.014585
0.013675 0.013666 0.013609
0.017162 0.017200 0.017223
0.017137 0.017141 0.017083
0.014040 0.013888 0.013567
0.015818 0.015920 0.015987
0.015350 0.015194 0.015269
0.017567 0.017609 0.016750
0.013731 0.013979 0.014089
0.012174 0.012212 0.012263
0.016894 0.016898 0.017013
0.013730 0.013547 0.013502
0.014997 0.014990 0.015030
0.015132 0.014980 0.014968
0.014291 0.014279 0.014228
0.016931 0.016888 0.016815
0.011851 0.011899 0.011962
0.013799 0.013795 0.013944
0.013866 0.013743 0.013762
0.014623 0.014630 0.014761
0.016211 0.016149 0.016171
0.015587 0.015519 0.015323
0.013832 0.013670 0.013645
0.015638 0.015683 0.015687
0.014876 0.014897 0.015022
0.013695 0.013593 0.013600
0.014377 0.014305 0.014295
0.013409 0.013273 0.013218
0.013856 0.013866 0.013679
0.016819 0.016971 0.016956
0.015163 0.014920 0.014780
0.015879 0.015923 0.015850
0.015023 0.015008 0.014909
0.011912 0.011915 0.011868
0.014120 0.014162 0.014178
0.015383 0.015379 0.015293
0.012625 0.012683 0.012682
0.012515 0.012480 0.012462
0.013200 0.013171 0.013156
0.014299 0.014319 0.014285
0.014136 0.014154 0.014129
0.013293 0.013274 0.013217
0.015666 0.015665 0.015645
0.014490 0.014337 0.014253
0.014055 0.014138 0.014152
0.015648 0.015553 0.015528
0.018310 0.017284 0.016462
0.013835 0.013951 0.013985
0.015768 0.015819 0.016045
0.013182 0.013139 0.012978
0.014948 0.014921 0.015056
0.014638 0.014588 0.014613
0.014065 0.014117 0.014167
0.016089 0.016053 0.015852
0.014371 0.014481 0.014538
0.015498 0.015478 0.015498
0.012340 0.012277 0.012277
0.014354 0.014275 0.014211
0.012283 0.012130 0.012101
0.013980 0.013931 0.013860
0.015779 0.015648 0.015586
0.013884 0.013966 0.013986
0.013580 0.013564 0.013356
0.015222 0.015260 0.015308
0.013930 0.014047 0.014070
0.015354 0.015312 0.015352
0.014913 0.014925 0.014967
0.015876 0.015921 0.015880
0.014605 0.014552 0.014588
0.017847 0.017826 0.017904
0.015068 0.014992 0.014898
0.013675 0.013660 0.013631
0.013554 0.013520 0.013341
0.013154 0.013085 0.013071
0.014091 0.013991 0.013857
0.014332 0.014155 0.014032
0.015510 0.015475 0.015465
0.013676 0.013693 0.013812
0.013718 0.013826 0.013760
0.015777 0.015654 0.015571
0.014859 0.014822 0.014804
0.013270 0.013250 0.013286
0.015073 0.014988 0.014952
0.017473 0.017497 0.017524
0.014964 0.014901 0.014862
0.014855 0.014903 0.014937
0.014448 0.014550 0.014732
0.011104 0.011175 0.011326
0.016414 0.016380 0.016327
0.015556 0.015540 0.015536
0.015009 0.015010 0.015024
0.012282 0.012320 0.012270
0.011420 0.011427 0.011415
0.013092 0.013183 0.013137
0.013646 0.013621 0.013701
0.014743 0.014790 0.014861
0.015787 0.015797 0.015637
0.015326 0.015455 0.015470
0.013119 0.013106 0.013170
0.011774 0.011696 0.011585
0.014969 0.015018 0.015170
0.015432 0.015514 0.015547
0.013218 0.013250 0.013238
0.015987 0.016058 0.016237
0.014767 0.014647 0.014537
0.015679 0.015779 0.015844
0.014849 0.014600 0.014591
0.015137 0.015093 0.015129
0.013848 0.014173 0.014398
0.015644 0.015605 0.015515
0.014376 0.014716 0.014651
0.014210 0.014208 0.014213
0.016041 0.015809 0.015794
0.012740 0.012769 0.012738
0.015791 0.015814 0.015851
0.014971 0.014876 0.014938
0.015924 0.015992 0.016062
0.012478 0.012528 0.012536
0.014157 0.014018 0.014065
0.013152 0.013167 0.013130
0.016656 0.016663 0.016703
0.013941 0.013752 0.013752
0.015748 0.015759 0.015626
0.013241 0.013332 0.013323
0.016158 0.016199 0.016186
0.014971 0.014949 0.014903
0.014150 0.014180 0.014134
0.011828 0.011828 0.011744
0.014562 0.014461 0.014547
0.013765 0.013703 0.013613
0.012241 0.012280 0.012302
0.011942 0.012079 0.012127
0.015500 0.015507 0.015540
0.014341 0.014285 0.014297
0.014676 0.014707 0.014746
0.015577 0.015529 0.015526
0.015999 0.016081 0.016145
0.014546 0.014972 0.014983
0.012618 0.012656 0.012595
0.016605 0.016585 0.016586
0.014718 0.014778 0.014753
0.014509 0.014491 0.014453
0.013056 0.013078 0.013118
0.011997 0.012000 0.012043
0.014344 0.014507 0.014421
0.013423 0.013482 0.013445
0.013608 0.013510 0.013589
0.014094 0.014043 0.014117
0.015570 0.015566 0.015523
0.012531 0.012398 0.012296
0.012837 0.013137 0.013158
0.014161 0.014282 0.014304
0.014230 0.014163 0.014194
0.013793 0.013690 0.013635
0.016989 0.016582 0.016333
0.013008 0.012969 0.012901
0.016134 0.016180 0.016062
0.015045 0.015007 0.015000
0.016059 0.016064 0.015966
0.014462 0.014409 0.014407
0.014799 0.014810 0.014875
0.013534 0.013530 0.013607
0.012793 0.012960 0.013123
0.014678 0.014671 0.014242
0.012882 0.012833 0.012786
0.013400 0.013374 0.013236
0.014134 0.014104 0.014158
0.013520 0.013477 0.013457
0.013288 0.013351 0.013300
0.014128 0.014419 0.014459
0.014900 0.014781 0.014844
0.014548 0.014568 0.014470
0.012367 0.012659 0.012791
0.016850 0.016832 0.016664
0.014999 0.014914 0.014587
0.013526 0.013419 0.013373
0.015727 0.015805 0.015830
0.012344 0.012191 0.011999
0.014649 0.014580 0.014515
0.015226 0.015227 0.015254
0.013220 0.013205 0.013357
0.012759 0.012698 0.012839
0.012698 0.012698 0.012681
0.015261 0.015314 0.015422
0.016342 0.016288 0.016158
0.014431 0.014406 0.014372
0.013126 0.012947 0.012852
0.011851 0.011656 0.011634
0.013635 0.013594 0.013783
0.015255 0.015260 0.015292
0.014568 0.014567 0.014594
0.012819 0.012868 0.012883
0.016577 0.016449 0.015930
0.013170 0.013151 0.013137
0.015980 0.015949 0.015936
0.014788 0.014751 0.014715
0.014095 0.014094 0.014052
0.015184 0.015065 0.014983
0.014722 0.014675 0.014505
0.015751 0.015720 0.015627
0.012056 0.012060 0.012197
0.012274 0.012214 0.012192
0.015739 0.015727 0.015810
0.014237 0.014189 0.014234
0.014428 0.014515 0.014530
0.014883 0.014964 0.014933
0.012721 0.012746 0.012849
0.016018 0.016012 0.015995
0.010955 0.010780 0.010802
0.015051 0.015043 0.014829
0.013562 0.013586 0.013519
0.017546 0.017932 0.018108
0.013343 0.013239 0.013237
0.012682 0.012745 0.012996
0.011740 0.011730 0.011643
0.013287 0.013261 0.013265
0.015136 0.015194 0.015122
0.015674 0.014773 0.014753
0.014117 0.014131 0.014505
0.012886 0.012969 0.013005
0.016070 0.015969 0.015960
0.015489 0.015540 0.015579
0.014922 0.015006 0.014970
0.014978 0.014920 0.014821
0.013568 0.013543 0.013542
0.019339 0.019304 0.019327
0.014007 0.014065 0.014098
0.016786 0.016736 0.016716
0.012234 0.012302 0.012217
0.014942 0.014899 0.014940
0.014224 0.014350 0.014553
0.014917 0.014880 0.014842
0.013616 0.013557 0.013530
0.015083 0.015383 0.015253
0.015615 0.015485 0.015463
0.012765 0.012688 0.012732
0.014575 0.014463 0.014469
0.018206 0.018181 0.018198
0.012313 0.012262 0.012277
0.013241 0.013133 0.013123
0.011737 0.011859 0.011797
0.011249 0.011319 0.011394
0.012956 0.012932 0.012947
0.016424 0.016301 0.016210
0.013026 0.013006 0.012990
0.014464 0.014548 0.014673
0.012824 0.012955 0.013137
0.013515 0.013548 0.013624
0.015069 0.015069 0.014701
0.013539 0.013716 0.013755
0.015856 0.015950 0.016132
0.011809 0.011790 0.011911
0.022640 0.022659 0.022588
0.013136 0.013137 0.013149
0.015585 0.015592 0.015710
0.013343 0.013418 0.013452
0.014658 0.014673 0.014646
0.012593 0.012556 0.012499
0.018104 0.017956 0.018005
0.014646 0.014692 0.014727
0.014862 0.014869 0.014891
