0.292591 0.293025 0.292925
0.267734 0.270251 0.269959
0.244822 0.240312 0.237039
0.302344 0.300826 0.300636
0.317254 0.314034 0.316554
0.307515 0.307245 0.305800
0.280355 0.283770 0.284278
0.282598 0.280199 0.280019
0.326352 0.326815 0.327810
0.253122 0.251258 0.248366
0.218986 0.218578 0.218556
0.341833 0.344613 0.344789
0.295678 0.295793 0.294812
0.443168 0.444120 0.446712
0.208969 0.209117 0.210700
0.244175 0.239999 0.238670
0.165137 0.165051 0.167421
0.349885 0.352809 0.355099
0.217632 0.219074 0.223622
0.354109 0.350726 0.347593
0.372073 0.370732 0.356260
0.279151 0.278405 0.270772
0.388743 0.390562 0.390919
0.343908 0.343408 0.340616
0.214345 0.213605 0.214159
0.367781 0.382304 0.376270
0.390771 0.385028 0.369973
0.291507 0.291347 0.290070
0.246323 0.245809 0.245505
0.246675 0.247245 0.247172
0.366447 0.376682 0.381104
0.351267 0.345964 0.342579
0.367212 0.365479 0.366644
0.336272 0.339614 0.344877
0.286222 0.285258 0.285150
0.305126 0.303356 0.302700
0.288753 0.289044 0.289211
0.347326 0.346960 0.343523
0.331098 0.335510 0.334425
0.197375 0.192363 0.191945
0.209449 0.209504 0.210786
0.334104 0.329125 0.331877
0.309585 0.310599 0.312852
0.246743 0.245435 0.243154
0.224417 0.224763 0.224854
0.237023 0.235468 0.233302
0.213110 0.213472 0.213401
0.241502 0.242123 0.247207
0.292973 0.293032 0.292098
0.347366 0.347822 0.348431
0.210357 0.210073 0.210557
0.248112 0.246872 0.245173
0.467628 0.468315 0.467972
0.247275 0.242784 0.236269
0.404628 0.394371 0.394982
0.269133 0.268609 0.267482
0.234657 0.233276 0.232320
0.430562 0.431078 0.431904
0.357817 0.357007 0.355874
0.206796 0.207172 0.206242
0.233442 0.222812 0.221698
0.330598 0.330948 0.330218
0.225449 0.228716 0.224355
0.325889 0.326155 0.324360
0.319609 0.320515 0.320396
0.175538 0.177673 0.179435
0.375928 0.375938 0.374345
0.319735 0.320008 0.321998
0.409597 0.410674 0.415024
0.323766 0.326578 0.327788
0.232445 0.231919 0.231739
0.223130 0.224565 0.222062
0.329385 0.328521 0.328460
0.386208 0.385937 0.388741
0.286297 0.282523 0.280767
0.307140 0.312234 0.314480
0.206092 0.198558 0.197482
0.209804 0.209858 0.209789
0.232446 0.227131 0.210426
0.250549 0.248682 0.246722
0.172550 0.170780 0.171688
0.278950 0.278895 0.277111
0.259920 0.260571 0.260925
0.357164 0.357359 0.349432
0.351858 0.351463 0.348842
0.327503 0.330039 0.339349
0.334275 0.334826 0.334739
0.341301 0.339825 0.336926
0.223711 0.223643 0.221190
0.387418 0.388742 0.394504
0.325873 0.324900 0.323668
0.200027 0.200808 0.199925
0.190787 0.192793 0.194105
0.239755 0.239284 0.237957
0.191020 0.191093 0.192431
0.335749 0.333611 0.328096
0.336491 0.331611 0.329291
0.194833 0.194092 0.192758
0.297780 0.297330 0.296615
0.320469 0.318826 0.318017
0.185865 0.185671 0.185577
0.392572 0.384103 0.363712
0.211943 0.210950 0.211920
0.313452 0.314418 0.314925
0.341053 0.342584 0.347638
0.218322 0.222497 0.226297
0.339579 0.338684 0.339843
0.383020 0.380626 0.381020
0.295348 0.294652 0.295045
0.441503 0.440505 0.441205
0.346490 0.347809 0.345773
0.182902 0.185222 0.187170
0.315902 0.315990 0.314169
0.347852 0.346049 0.343910
0.219039 0.220612 0.220654
0.371093 0.376742 0.376325
0.357208 0.356375 0.355744
0.365450 0.361952 0.362535
0.205349 0.205275 0.205363
0.211173 0.212265 0.212805
0.369973 0.367415 0.364571
0.252391 0.251904 0.250438
0.220827 0.223479 0.225659
0.242290 0.242200 0.244188
0.136342 0.147047 0.151314
0.213696 0.213629 0.213044
0.366943 0.368394 0.368154
0.407873 0.404776 0.402393
0.263850 0.259528 0.258568
0.296176 0.297737 0.299123
0.222378 0.223235 0.219057
0.250517 0.251302 0.252325
0.219595 0.219684 0.218694
0.203796 0.204819 0.207721
0.222847 0.224320 0.225123
0.327103 0.331362 0.307444
0.349888 0.346046 0.345305
0.363056 0.363120 0.361648
0.319403 0.319112 0.322364
0.353521 0.352028 0.345614
0.187925 0.185954 0.185372
0.306679 0.305245 0.302946
0.308418 0.306157 0.299467
0.304603 0.304152 0.309315
0.241198 0.242633 0.241575
0.242949 0.242578 0.242415
0.382615 0.373326 0.354765
0.205052 0.204481 0.205548
0.424997 0.418352 0.408353
0.226074 0.226595 0.226608
0.355658 0.375417 0.380366
0.258397 0.262659 0.266329
0.301823 0.301370 0.297822
0.207232 0.207050 0.204999
0.330183 0.330454 0.330325
0.237715 0.237714 0.238122
0.210918 0.211896 0.210268
0.315356 0.315544 0.317659
0.310567 0.312761 0.309853
0.222229 0.222526 0.222135
0.212121 0.208271 0.207232
0.327381 0.326420 0.326298
0.242358 0.243351 0.243103
0.408479 0.409840 0.410789
0.319934 0.319206 0.318477
0.220454 0.218941 0.215801
0.358791 0.358703 0.359098
0.291913 0.293941 0.299342
0.221213 0.221101 0.220963
0.520237 0.519082 0.515576
0.331248 0.330611 0.331156
0.234711 0.233282 0.226722
0.218773 0.218304 0.217435
0.314701 0.319095 0.316102
0.242493 0.242234 0.244238
0.374445 0.376405 0.377619
0.285812 0.282391 0.282148
0.498199 0.498117 0.497416
0.192179 0.191768 0.191684
0.228275 0.226715 0.228437
0.391539 0.392704 0.392229
0.293790 0.294147 0.295520
0.222287 0.222223 0.221934
0.226398 0.225303 0.227806
0.340784 0.340053 0.332623
0.219339 0.219597 0.215649
0.336974 0.338768 0.340354
0.391431 0.391430 0.391423
0.379160 0.382052 0.387050
0.332270 0.334669 0.337381
0.333201 0.378627 0.391611
0.145286 0.147109 0.173471
0.479217 0.464354 0.458669
0.323431 0.322550 0.319172
0.318807 0.318506 0.320550
0.219703 0.220595 0.220783
0.193688 0.192230 0.192942
0.202828 0.201157 0.200143
0.305329 0.303124 0.304158
0.231283 0.231822 0.232621
0.250460 0.249365 0.249691
0.333702 0.335040 0.334743
0.477873 0.480403 0.481282
0.361430 0.357909 0.356357
0.376389 0.377878 0.380842
0.312382 0.314451 0.320224
0.295513 0.293981 0.289918
0.266066 0.266016 0.265272
0.366185 0.366642 0.368063
0.319501 0.319025 0.317638
0.245567 0.242949 0.242578
0.225078 0.222449 0.220358
0.239748 0.240063 0.240254
0.442967 0.443986 0.445517
0.281213 0.281073 0.280249
0.346291 0.341271 0.340919
0.223558 0.224585 0.222819
0.270483 0.270647 0.268942
0.378531 0.382085 0.382560
0.198773 0.196565 0.191904
0.292785 0.290173 0.278687
0.230216 0.232422 0.233499
0.350761 0.348635 0.342434
0.389759 0.390703 0.393206
0.356836 0.355748 0.354506
0.224144 0.221927 0.220823
0.433226 0.435494 0.438749
0.232087 0.231638 0.229227
0.258751 0.258045 0.256525
0.229494 0.230185 0.231773
0.351438 0.351042 0.353913
0.325089 0.325510 0.325598
0.451383 0.453217 0.455420
0.221504 0.220017 0.220308
0.210253 0.210059 0.210488
0.194934 0.194331 0.193607
0.192108 0.192990 0.193287
0.468443 0.468505 0.468228
0.331034 0.332036 0.332154
0.328855 0.330236 0.330628
0.327234 0.328143 0.328055
0.209973 0.213526 0.207612
0.377576 0.378244 0.378006
0.403726 0.406455 0.411799
0.306601 0.302156 0.302484
0.198944 0.196913 0.194934
0.220537 0.220993 0.222968
0.202298 0.202137 0.200523
0.390431 0.386673 0.378316
0.364329 0.365382 0.365746
0.245010 0.232522 0.229800
0.343468 0.343325 0.341990
0.238631 0.238653 0.238947
0.270764 0.269204 0.266528
0.415515 0.420188 0.421880
0.323292 0.319410 0.319688
0.329642 0.329343 0.324666
0.354094 0.354653 0.357449
0.213354 0.212637 0.210825
0.228568 0.228704 0.229019
0.339270 0.339835 0.343237
0.219061 0.217015 0.216255
0.204305 0.195689 0.193216
0.312852 0.315164 0.324558
0.236621 0.236581 0.236352
0.220897 0.221041 0.221661
0.228118 0.228274 0.228239
0.489496 0.493317 0.494637
0.303207 0.304663 0.306736
0.305320 0.301922 0.297872
0.218154 0.219022 0.214837
0.213828 0.213480 0.213517
0.239918 0.238301 0.237490
0.248785 0.246275 0.247156
0.400238 0.400527 0.400313
0.206581 0.206663 0.206617
0.287223 0.288662 0.289719
0.220949 0.220900 0.221077
0.322082 0.320877 0.316676
0.357366 0.356722 0.356384
0.302434 0.302598 0.302903
0.206936 0.209002 0.209259
0.358069 0.358405 0.359368
0.399379 0.401501 0.398468
0.322256 0.322107 0.320033
0.304127 0.309497 0.300163
0.332430 0.330606 0.324304
0.314182 0.314002 0.317592
0.333608 0.335646 0.336699
0.298961 0.297426 0.299450
0.203928 0.204119 0.203310
0.225816 0.230177 0.231254
0.244158 0.242476 0.240910
0.296744 0.296002 0.288003
0.226097 0.224260 0.224394
0.313037 0.312071 0.312079
0.462945 0.461320 0.460786
0.305522 0.304900 0.307508
0.396302 0.396924 0.396942
0.265452 0.264517 0.264018
0.268544 0.262372 0.260912
0.436533 0.436661 0.437712
0.328122 0.327280 0.327719
0.207419 0.206995 0.207201
0.330900 0.330101 0.329122
0.416581 0.422067 0.427922
0.228431 0.230384 0.233590
0.277266 0.284682 0.289555
0.182501 0.183248 0.183607
0.214251 0.213528 0.213134
0.228833 0.222072 0.217905
0.276898 0.273320 0.272845
0.341337 0.344462 0.344633
0.381227 0.380987 0.380486
0.285024 0.284981 0.286544
0.204521 0.203257 0.203342
0.320565 0.322342 0.324555
0.207400 0.211264 0.211487
0.299337 0.301486 0.301930
0.250881 0.248904 0.246591
0.313057 0.311926 0.311282
0.313574 0.312203 0.311707
0.218543 0.210722 0.209620
0.210250 0.210343 0.210654
0.324808 0.321087 0.317655
0.285117 0.290434 0.288991
0.277887 0.283867 0.283400
0.327719 0.323134 0.323835
0.211071 0.209352 0.206231
0.302483 0.311339 0.314029
0.184129 0.182821 0.178944
0.337412 0.334611 0.334518
0.308018 0.300473 0.299482
0.259969 0.258773 0.253068
0.330197 0.332057 0.332181
0.343135 0.343024 0.342192
0.319386 0.318807 0.318506
0.216059 0.214507 0.213212
0.298766 0.298566 0.299659
0.170623 0.173681 0.173600
0.201439 0.198008 0.196662
0.323703 0.325131 0.322709
0.350201 0.350481 0.351744
0.315572 0.313810 0.316928
0.244065 0.247579 0.249283
0.215939 0.214318 0.215059
0.307511 0.310356 0.311596
0.335262 0.335290 0.334557
0.251176 0.249568 0.248074
0.302096 0.302457 0.302196
0.215727 0.210352 0.209659
0.347005 0.346635 0.336326
0.339725 0.340912 0.342861
0.403211 0.399780 0.397769
0.260616 0.260722 0.260712
0.307166 0.306443 0.306357
0.246063 0.246698 0.246876
0.207489 0.210909 0.212451
0.343408 0.340616 0.329577
0.438986 0.438486 0.440808
0.230002 0.227898 0.229062
0.381172 0.380736 0.376033
0.228636 0.229702 0.230008
0.374058 0.380771 0.381537
0.292465 0.292890 0.291470
0.210157 0.212341 0.212333
0.218839 0.217249 0.207659
0.294879 0.305186 0.310133
0.339992 0.331109 0.329623
0.213780 0.219498 0.221721
0.231544 0.237086 0.239046
0.207403 0.206879 0.206774
0.321407 0.322893 0.319333
0.378192 0.379003 0.379742
0.247789 0.249247 0.247774
0.363386 0.365064 0.365918
0.307594 0.307641 0.306558
0.213035 0.211222 0.213155
0.167882 0.166355 0.171329
0.320771 0.322148 0.322404
0.264288 0.262744 0.273191
0.233385 0.232330 0.232372
0.299896 0.300441 0.300368
0.477737 0.475857 0.474602
0.270583 0.271008 0.271057
0.220209 0.216342 0.218491
0.242252 0.243501 0.244920
0.210383 0.210002 0.207547
0.176519 0.175998 0.174329
0.301584 0.299821 0.302026
0.263230 0.259524 0.261227
0.223200 0.220961 0.219846
0.326103 0.326995 0.327985
0.372351 0.372137 0.371909
0.280408 0.280840 0.272509
0.428709 0.430562 0.431078
0.347281 0.347244 0.346941
0.460161 0.463702 0.466813
0.216319 0.216436 0.215639
0.563042 0.566651 0.567922
0.361017 0.367126 0.369823
0.360797 0.359554 0.357222
0.233894 0.231848 0.230721
0.315222 0.315767 0.320387
0.270089 0.269670 0.269384
0.330500 0.332186 0.330906
0.422591 0.422939 0.423237
0.440328 0.437862 0.439536
0.222715 0.221667 0.219567
0.276069 0.295944 0.305938
0.325089 0.324893 0.325756
0.190831 0.190488 0.191020
0.291523 0.291292 0.291400
0.299963 0.300186 0.299639
0.306583 0.304342 0.303497
0.281200 0.283753 0.290694
0.354111 0.355596 0.357531
0.272190 0.269365 0.268814
0.295439 0.297229 0.298015
0.246789 0.246997 0.246619
0.191797 0.191739 0.191950
0.310770 0.315369 0.324446
0.383071 0.383780 0.386790
0.233198 0.235010 0.241378
0.396430 0.395778 0.393321
0.352270 0.350737 0.350520
0.358808 0.360078 0.361349
0.211876 0.210332 0.209566
0.305656 0.306209 0.301953
0.347270 0.349483 0.349929
0.365246 0.364236 0.352672
0.215010 0.217215 0.220346
0.279483 0.279478 0.279172
0.195376 0.193019 0.191965
0.296080 0.295528 0.294444
0.296695 0.300045 0.299739
0.204882 0.197276 0.193696
0.344564 0.344008 0.341580
0.256792 0.255571 0.254106
0.314818 0.318559 0.318058
0.208743 0.207419 0.206995
0.215733 0.216906 0.215260
0.223004 0.219183 0.216177
0.214060 0.215090 0.215827
0.339362 0.341160 0.348091
0.229278 0.232736 0.232826
0.372545 0.370900 0.370789
0.235790 0.236023 0.235510
0.336687 0.338507 0.339840
0.347446 0.343286 0.334574
0.332090 0.333417 0.330444
0.374423 0.374793 0.376222
0.333657 0.328949 0.334647
0.318544 0.319037 0.321680
0.342766 0.341122 0.342137
0.209387 0.208749 0.208617
0.231768 0.231920 0.230195
0.201400 0.201704 0.202446
0.313505 0.314913 0.314973
0.216376 0.215671 0.215092
0.371481 0.363408 0.363167
0.260357 0.258729 0.257431
0.181261 0.182364 0.183215
0.215776 0.214072 0.214108
0.482470 0.482869 0.485132
0.232063 0.233125 0.231716
0.311907 0.312282 0.315010
0.196879 0.198572 0.199242
0.309527 0.314987 0.312382
0.204333 0.204712 0.205972
0.444856 0.444113 0.437146
0.233542 0.231012 0.230247
0.233422 0.233025 0.232087
0.258133 0.258731 0.258603
0.323600 0.325689 0.325740
0.209167 0.211514 0.210668
0.335798 0.337784 0.340412
0.278687 0.279846 0.280083
0.311253 0.305726 0.306681
0.338918 0.338581 0.337392
0.296436 0.292719 0.291764
0.233881 0.234379 0.233589
0.348618 0.351167 0.351029
0.179049 0.178909 0.180001
0.317802 0.319164 0.319022
0.384610 0.383276 0.383145
0.260429 0.256096 0.249991
0.268806 0.270867 0.270933
0.233796 0.232086 0.232244
0.260644 0.260705 0.260669
0.182660 0.181807 0.182244
0.306725 0.306464 0.306205
0.225734 0.225387 0.225053
0.327612 0.327344 0.326822
0.351551 0.353686 0.352985
0.345695 0.336617 0.335507
0.317579 0.317505 0.317490
0.209464 0.210074 0.209390
0.199843 0.199436 0.199260
0.220074 0.217352 0.216701
0.333831 0.335334 0.334799
0.221164 0.220949 0.220900
0.249899 0.251365 0.252308
0.349732 0.349086 0.346166
0.222958 0.221555 0.220327
0.311963 0.311784 0.309373
0.258773 0.253068 0.256272
0.325553 0.323239 0.323805
0.218067 0.218352 0.216410
0.321021 0.320207 0.318347
0.343403 0.344011 0.345196
0.198352 0.198652 0.198561
0.215824 0.215841 0.216620
0.315316 0.311191 0.311151
0.214198 0.224226 0.225582
0.230037 0.229680 0.228756
0.171336 0.173154 0.173059
0.390043 0.386703 0.377771
0.317841 0.316688 0.316898
0.280841 0.280936 0.283813
0.381020 0.381871 0.383856
0.328281 0.332532 0.335706
0.290769 0.290778 0.292815
0.345249 0.346391 0.352798
0.231112 0.235220 0.235525
0.311371 0.310683 0.310210
0.241717 0.242309 0.242440
0.373707 0.374534 0.374121
0.324133 0.324602 0.375992
0.418831 0.423389 0.431350
0.361983 0.367482 0.372432
0.317638 0.317423 0.317953
0.334565 0.339463 0.342054
0.237865 0.238598 0.239333
0.373060 0.373042 0.372725
0.324643 0.324046 0.321024
0.223639 0.223102 0.229791
0.183423 0.182871 0.181665
0.304807 0.311000 0.312373
0.386054 0.388847 0.389662
0.320144 0.319509 0.320076
0.278727 0.279053 0.279884
0.226440 0.226323 0.226168
0.302266 0.304916 0.306741
0.293880 0.293789 0.293645
0.338511 0.340681 0.340969
0.225730 0.227816 0.228110
0.201988 0.200557 0.200660
0.219694 0.219288 0.218504
0.183590 0.184553 0.189625
0.300326 0.299830 0.299964
0.300088 0.300370 0.301335
0.344505 0.344640 0.344726
0.265349 0.267232 0.267525
0.343867 0.343861 0.339296
0.202194 0.203934 0.203886
0.169755 0.169423 0.169392
0.319050 0.317295 0.312095
0.183917 0.184099 0.185537
0.307980 0.311300 0.311943
0.211936 0.209097 0.209475
0.319386 0.320320 0.320279
0.248204 0.247427 0.247732
0.200092 0.199315 0.197682
0.384160 0.384041 0.384121
0.329219 0.336825 0.359918
0.222451 0.223743 0.224159
0.326883 0.326788 0.326548
0.358103 0.359124 0.359345
0.226840 0.228168 0.228262
0.210408 0.209210 0.210636
0.220341 0.216855 0.220259
0.315717 0.315676 0.309231
0.305597 0.305864 0.306472
0.308790 0.309177 0.308353
0.246266 0.246311 0.246463
0.309161 0.312459 0.312339
0.217278 0.220506 0.225769
0.342862 0.342655 0.339146
0.468833 0.469064 0.468217
0.482525 0.485258 0.488325
0.232871 0.230461 0.230796
0.308380 0.307032 0.307935
0.250605 0.250982 0.251574
0.383741 0.382328 0.382018
0.209350 0.211871 0.214649
0.443636 0.438474 0.432967
0.346603 0.346710 0.347199
0.313941 0.311871 0.311911
0.301685 0.303489 0.313096
0.287394 0.285720 0.284939
0.309751 0.303103 0.302373
0.327346 0.326011 0.321177
0.512184 0.511654 0.510254
0.234224 0.234482 0.237863
0.213391 0.213070 0.212454
0.286675 0.287605 0.288892
0.265554 0.278555 0.281056
0.204082 0.204623 0.205237
0.318447 0.319990 0.318615
0.223056 0.223642 0.223000
0.392487 0.392752 0.388941
0.378338 0.375789 0.365854
0.243132 0.245669 0.252714
0.269468 0.269085 0.268843
0.275802 0.272562 0.270292
0.210417 0.212371 0.212807
0.300897 0.301201 0.302401
0.227191 0.223240 0.222941
0.233489 0.233608 0.233479
0.345833 0.344738 0.341941
0.446568 0.445627 0.446005
0.216121 0.213837 0.210501
0.304343 0.304923 0.304948
0.433666 0.434265 0.434505
0.307806 0.312995 0.314769
0.327366 0.327020 0.325712
0.352941 0.354111 0.355596
0.345857 0.332639 0.329341
0.216378 0.216970 0.218580
0.215410 0.212669 0.212657
0.454642 0.454943 0.454331
0.300835 0.306771 0.308476
0.205115 0.204771 0.205848
0.366870 0.368764 0.369019
0.402444 0.399143 0.395776
0.211782 0.211986 0.213419
0.364149 0.364219 0.357735
0.337885 0.334104 0.329125
0.317192 0.316764 0.309777
0.286165 0.308381 0.333741
0.224777 0.225004 0.224996
0.345252 0.345801 0.346027
0.274333 0.282722 0.289720
0.226900 0.225797 0.224839
0.318923 0.317881 0.316724
0.234123 0.233356 0.229852
0.241730 0.246810 0.250868
0.261329 0.260987 0.262024
0.209379 0.208621 0.207295
0.341222 0.341663 0.342583
0.215505 0.211073 0.209432
0.224485 0.225327 0.225492
0.337305 0.334953 0.336026
0.304945 0.306062 0.306333
0.316165 0.317436 0.318854
0.330251 0.329584 0.327003
0.327673 0.335978 0.335970
0.203709 0.203221 0.205939
0.306443 0.302051 0.301499
0.226455 0.226995 0.225206
0.243322 0.243009 0.242755
0.178985 0.179062 0.180203
0.338355 0.339893 0.340341
0.289977 0.290329 0.290499
0.332775 0.334429 0.336928
0.205764 0.206691 0.206003
0.225417 0.225939 0.224950
0.165320 0.167458 0.167307
0.412555 0.433618 0.439049
0.176570 0.176248 0.176066
0.216397 0.215779 0.215610
0.325167 0.320901 0.317736
0.324499 0.324672 0.324059
0.196451 0.199738 0.199735
0.240130 0.244786 0.248526
0.261329 0.288305 0.298530
0.306429 0.305964 0.305099
0.227662 0.226045 0.226982
0.269690 0.269121 0.267532
0.326916 0.328250 0.328532
0.346445 0.343394 0.341172
0.308878 0.309826 0.298329
0.261370 0.254863 0.253839
0.306380 0.305336 0.303479
0.446974 0.448073 0.450263
0.316721 0.313012 0.311361
0.278014 0.277622 0.276976
0.327273 0.327503 0.327381
0.279857 0.280095 0.279626
0.209485 0.208690 0.208014
0.283795 0.285196 0.288600
0.319205 0.317308 0.316819
0.199013 0.198985 0.199006
0.411056 0.408634 0.404721
0.363192 0.365109 0.362362
0.220609 0.215665 0.213418
0.367239 0.364713 0.361180
0.286081 0.287259 0.288459
0.207921 0.210486 0.214739
0.293592 0.297127 0.299509
0.356653 0.355324 0.354383
0.312179 0.311627 0.314620
0.226778 0.229884 0.229727
0.370296 0.371227 0.368590
0.207422 0.206018 0.207601
0.404148 0.409716 0.411871
0.297787 0.299215 0.299060
0.327176 0.328000 0.327577
0.456328 0.456719 0.459384
0.568637 0.569875 0.572165
0.206711 0.203127 0.202155
0.231582 0.233417 0.233217
0.568551 0.568561 0.567785
0.363771 0.363792 0.362800
0.325240 0.325819 0.326452
0.321409 0.319869 0.318890
0.348550 0.347362 0.347117
0.355402 0.355390 0.357156
0.207656 0.205856 0.204305
0.339721 0.342456 0.343477
0.217222 0.217596 0.217300
0.312504 0.312433 0.311465
0.336620 0.336352 0.334131
0.267450 0.265419 0.271379
0.384979 0.385123 0.382764
0.284243 0.284040 0.284306
0.307170 0.306715 0.306652
0.222311 0.223782 0.224408
0.212047 0.212121 0.212297
0.232403 0.239137 0.238296
0.214953 0.215170 0.215204
0.322957 0.323327 0.328107
0.353874 0.355928 0.357831
0.300009 0.300492 0.300443
0.362119 0.347842 0.346189
0.173850 0.174506 0.174573
0.370321 0.370907 0.371803
0.309997 0.309699 0.309041
0.317698 0.315853 0.312624
0.314981 0.314388 0.313882
0.458173 0.459169 0.459847
0.314660 0.313777 0.313319
0.262076 0.261692 0.264517
0.186102 0.181474 0.178351
0.253660 0.253165 0.251314
0.229245 0.229232 0.228917
0.296667 0.300600 0.301478
0.339460 0.335112 0.321492
0.299803 0.301540 0.302930
0.207170 0.206182 0.206280
0.296467 0.294663 0.294375
0.300407 0.295820 0.293518
0.237740 0.238123 0.237862
0.238406 0.237876 0.237946
0.239211 0.238325 0.237988
0.219648 0.219791 0.220104
0.320573 0.319691 0.319744
0.274396 0.274502 0.277312
0.463084 0.436765 0.359018
0.220617 0.216589 0.216841
0.291032 0.286979 0.281922
0.213845 0.217938 0.218631
0.285442 0.282357 0.282535
0.298151 0.301110 0.301609
0.312635 0.312561 0.312532
0.199149 0.203157 0.206273
0.284720 0.285689 0.285432
0.245403 0.245660 0.247552
0.313789 0.314527 0.315066
0.350041 0.348924 0.348525
0.223923 0.224957 0.227141
0.400529 0.408868 0.406560
0.207354 0.208228 0.207855
0.492463 0.496738 0.497320
0.273033 0.272706 0.274555
0.382582 0.382574 0.382137
0.507240 0.529461 0.531347
0.274974 0.280692 0.278226
0.194670 0.191942 0.189419
0.338255 0.340283 0.340635
0.261914 0.261626 0.259300
0.270828 0.271544 0.271504
0.262832 0.271733 0.285116
0.191724 0.192503 0.196727
0.303753 0.304764 0.295185
0.376648 0.376978 0.378055
0.315466 0.318091 0.318864
0.223982 0.225143 0.224229
0.330395 0.332803 0.332800
0.314523 0.315741 0.324774
0.316914 0.317579 0.317505
0.355748 0.355583 0.355624
0.181556 0.183883 0.184696
0.336571 0.335418 0.335773
0.196010 0.203051 0.203952
0.330435 0.330264 0.330286
0.374719 0.372585 0.357094
0.354856 0.357264 0.356758
0.210683 0.212625 0.214982
0.207043 0.207346 0.207343
0.307356 0.304687 0.294300
0.355983 0.356605 0.357214
0.325395 0.325452 0.324696
0.383036 0.383010 0.382955
0.321368 0.325098 0.326349
0.356335 0.355389 0.354260
0.296002 0.288003 0.284809
0.231406 0.232539 0.235527
0.337782 0.336541 0.333814
0.207346 0.208293 0.211304
0.416526 0.413469 0.412756
0.167254 0.167291 0.167096
0.217874 0.217985 0.217494
0.374862 0.373848 0.373914
0.333577 0.336939 0.337670
0.445176 0.445132 0.441294
0.222181 0.218561 0.207620
0.340574 0.329759 0.330040
0.309594 0.309594 0.308882
0.335062 0.340693 0.340837
0.333607 0.335739 0.334744
0.328251 0.328115 0.321773
0.311729 0.311271 0.311895
0.329716 0.339030 0.338341
0.336147 0.334824 0.334445
0.329680 0.328295 0.329195
0.383247 0.379997 0.359264
0.291442 0.291757 0.291837
0.229496 0.230094 0.229839
0.357022 0.352721 0.351227
0.284360 0.286318 0.287078
0.320390 0.312674 0.312677
0.336615 0.337404 0.339108
0.309606 0.308191 0.308783
0.253790 0.250266 0.249124
0.329038 0.326302 0.327840
0.199757 0.200799 0.202544
0.303064 0.301476 0.300756
0.337886 0.338686 0.340078
0.221037 0.222124 0.225018
0.374364 0.375266 0.373586
0.350524 0.352094 0.351411
0.373472 0.377203 0.376470
0.330343 0.337138 0.337837
0.212866 0.213589 0.213368
0.389288 0.395971 0.410320
0.335873 0.338517 0.339963
0.350520 0.349774 0.344934
0.247949 0.245944 0.245537
0.304684 0.307934 0.314116
0.223815 0.225051 0.225348
0.230439 0.230581 0.230826
0.292910 0.294542 0.294575
0.348687 0.351250 0.352570
0.239041 0.239732 0.239789
0.354379 0.354880 0.356139
0.281362 0.281335 0.282240
0.374751 0.369837 0.368496
0.230171 0.226440 0.226323
0.404256 0.404888 0.405583
0.297274 0.297955 0.297351
0.247173 0.247322 0.246796
0.240519 0.239168 0.238602
0.324172 0.323775 0.322906
0.355545 0.354324 0.354353
0.188551 0.185858 0.185692
0.351206 0.350296 0.350703
0.185013 0.185175 0.186333
0.335366 0.336094 0.348280
0.308037 0.306696 0.306713
0.360477 0.358614 0.359790
0.355034 0.355208 0.355778
0.209649 0.209967 0.208396
0.331201 0.330795 0.331378
0.225394 0.227888 0.228748
0.207324 0.206227 0.209385
0.339499 0.339180 0.338051
0.325702 0.326680 0.327651
0.316735 0.314654 0.313235
0.330325 0.332236 0.328969
0.320705 0.312331 0.303705
0.232476 0.235448 0.240162
0.227105 0.228037 0.225594
0.365517 0.364600 0.365514
0.312035 0.312371 0.317553
0.369621 0.364927 0.359233
0.412206 0.413094 0.413182
0.322823 0.321504 0.322724
0.347058 0.347085 0.342021
0.336956 0.328155 0.318923
0.195065 0.194744 0.194457
0.328969 0.335267 0.335456
0.226244 0.227769 0.227255
0.377275 0.377648 0.377400
0.567785 0.567296 0.567410
0.171702 0.171031 0.171581
0.187027 0.182391 0.182261
0.326622 0.325568 0.322418
0.215630 0.214298 0.213464
0.340086 0.343122 0.345803
0.231977 0.232454 0.231235
0.191572 0.191844 0.194934
0.392735 0.385644 0.383991
0.226546 0.224021 0.225502
0.206318 0.205824 0.205624
0.309088 0.309114 0.307195
0.236869 0.237940 0.238397
0.328888 0.327616 0.328255
0.313575 0.312248 0.312263
0.332063 0.319783 0.314467
0.283456 0.283609 0.284577
0.202317 0.201518 0.201637
0.332867 0.333916 0.351495
0.387582 0.388214 0.389749
0.341675 0.340763 0.339330
0.226877 0.230153 0.230906
0.283454 0.286804 0.289646
0.217801 0.216490 0.217251
0.224056 0.222596 0.222339
0.380082 0.381515 0.382485
0.223360 0.223148 0.225650
0.256432 0.258355 0.260017
0.224211 0.224564 0.225065
0.337629 0.335867 0.335446
0.330637 0.343239 0.341306
0.344641 0.345874 0.339286
0.319346 0.318625 0.317631
0.301261 0.301141 0.300975
0.293045 0.291530 0.289654
0.361349 0.362843 0.364445
0.194776 0.195971 0.196612
0.326785 0.326278 0.328868
0.214501 0.214333 0.213877
0.370226 0.364357 0.363203
0.225848 0.225621 0.224030
0.327338 0.328433 0.328548
0.567642 0.569087 0.569922
0.327773 0.323202 0.324049
0.213712 0.213944 0.213648
0.281740 0.281026 0.280604
0.356351 0.357426 0.358026
0.255900 0.248610 0.237875
0.222321 0.218285 0.214056
0.346089 0.340829 0.338664
0.195587 0.194770 0.195975
0.440001 0.439730 0.439301
0.299199 0.299872 0.299121
0.187420 0.187284 0.188303
0.356615 0.363260 0.370406
0.343824 0.346459 0.345528
0.320639 0.320826 0.320685
0.283331 0.283730 0.285217
0.247236 0.254525 0.255270
0.189892 0.188919 0.192185
0.307349 0.311943 0.308267
0.311791 0.307784 0.305530
0.340279 0.340705 0.341989
0.310263 0.310719 0.308175
0.223805 0.221986 0.221116
0.440593 0.445501 0.445181
0.243177 0.242869 0.243460
0.205425 0.205342 0.205400
0.208172 0.208810 0.210087
0.312413 0.312239 0.314151
0.242792 0.242465 0.241053
0.382680 0.383071 0.383780
0.335517 0.335751 0.336333
0.340782 0.342834 0.345572
0.210603 0.210429 0.210950
0.332641 0.351079 0.352169
0.264986 0.262864 0.260470
0.349546 0.359120 0.361951
0.373457 0.374058 0.380771
0.319231 0.320294 0.318946
0.190992 0.188651 0.187376
0.263670 0.263101 0.259655
0.238456 0.238263 0.238003
0.239585 0.241527 0.246839
0.373108 0.372987 0.372248
0.345026 0.342357 0.342941
0.289044 0.289211 0.288007
0.267720 0.268523 0.276631
0.204415 0.206291 0.208623
0.169128 0.168787 0.170548
0.331036 0.331131 0.331163
0.214597 0.214705 0.214212
0.333843 0.332941 0.334867
0.330639 0.330047 0.328249
0.241413 0.241246 0.241551
0.222711 0.221572 0.221247
0.233585 0.233614 0.231923
0.373155 0.372247 0.379257
0.344032 0.348194 0.357427
0.215807 0.212059 0.210865
0.325636 0.325873 0.324900
0.295605 0.294759 0.293465
0.310709 0.309408 0.307610
0.332154 0.331193 0.333615
0.177474 0.176570 0.176248
0.428703 0.429441 0.438248
0.271950 0.270158 0.269268
0.187200 0.188061 0.189654
0.209673 0.210152 0.210512
0.272416 0.276242 0.278897
0.361853 0.361696 0.362053
0.247172 0.245031 0.243586
0.320128 0.317928 0.317324
0.214408 0.215070 0.216306
0.332186 0.334285 0.333721
