0.068473 0.068704 0.068433
0.077063 0.077415 0.078604
0.065077 0.065546 0.066394
0.060488 0.060268 0.060216
0.060641 0.059052 0.059055
0.092869 0.092676 0.092861
0.068977 0.068739 0.068572
0.064250 0.065373 0.065733
0.062544 0.062881 0.064709
0.053813 0.054186 0.054698
0.090391 0.091731 0.092258
0.061564 0.061725 0.062207
0.062408 0.061757 0.061590
0.063806 0.063833 0.063072
0.097098 0.097001 0.096975
0.067738 0.067491 0.069428
0.064205 0.063743 0.062395
0.050395 0.051267 0.051257
0.071130 0.071055 0.071454
0.064204 0.064518 0.065103
0.061716 0.062191 0.063639
0.060984 0.060636 0.060631
0.055580 0.055579 0.055647
0.068294 0.068362 0.068336
0.083922 0.085052 0.085980
0.051442 0.051864 0.051980
0.064960 0.065036 0.065207
0.069612 0.069495 0.068446
0.059869 0.059833 0.059760
0.074579 0.074579 0.074595
0.068222 0.068185 0.067965
0.064153 0.063905 0.063760
0.060943 0.058463 0.057655
0.068733 0.068973 0.069992
0.060912 0.061015 0.060625
0.057163 0.057036 0.056827
0.069737 0.069246 0.068357
0.068710 0.068622 0.069072
0.087722 0.087828 0.087843
0.058158 0.058625 0.058734
0.055017 0.056328 0.056540
0.065953 0.065866 0.065731
0.064878 0.065288 0.065062
0.058812 0.059291 0.062459
0.059792 0.060044 0.061448
0.060861 0.060874 0.060896
0.048972 0.048359 0.048157
0.089347 0.088605 0.083756
0.045795 0.045450 0.043960
0.060840 0.060837 0.060907
0.062065 0.062134 0.062030
0.067737 0.067784 0.067629
0.052596 0.053970 0.057120
0.076003 0.076310 0.076348
0.061447 0.062024 0.063727
0.063493 0.063678 0.063451
0.099886 0.100244 0.101192
0.063684 0.063740 0.063848
0.055735 0.056391 0.057313
0.068174 0.068611 0.068904
0.085760 0.085480 0.085446
0.062342 0.062552 0.062627
0.076862 0.077465 0.078019
0.067481 0.068583 0.069477
0.065976 0.065801 0.065668
0.083090 0.083057 0.083037
0.098198 0.098324 0.097871
0.061912 0.062030 0.062039
0.063271 0.062198 0.061831
0.078711 0.078658 0.079071
0.059579 0.059536 0.059739
0.064321 0.064604 0.065676
0.073313 0.073036 0.072898
0.061835 0.061706 0.061690
0.071186 0.071149 0.071088
0.065868 0.066074 0.066171
0.086075 0.086232 0.087636
0.042851 0.042785 0.043166
0.066528 0.066317 0.066239
0.071127 0.071306 0.071268
0.082828 0.082735 0.082596
0.073120 0.073119 0.073083
0.082128 0.081949 0.081611
0.064953 0.065049 0.065002
0.057519 0.057629 0.057701
0.092232 0.093016 0.090981
0.060624 0.060043 0.059828
0.059197 0.058009 0.057034
0.063655 0.064083 0.065034
0.083787 0.083504 0.083519
0.060589 0.060564 0.060419
0.057003 0.056910 0.056644
0.062345 0.062429 0.062520
0.059982 0.060047 0.060083
0.064579 0.063979 0.064188
0.086873 0.086710 0.086527
0.071016 0.071115 0.068160
0.070029 0.071090 0.072941
0.074771 0.074761 0.074719
0.082882 0.081427 0.083228
0.071298 0.071541 0.071287
0.060760 0.061869 0.062081
0.055861 0.057048 0.058885
0.092713 0.092886 0.093261
0.064616 0.063454 0.063394
0.082561 0.082519 0.082478
0.062614 0.063041 0.062907
0.067912 0.067542 0.067958
0.107278 0.108227 0.108966
0.082716 0.083041 0.082892
0.062382 0.061945 0.061489
0.057046 0.056986 0.056294
0.062606 0.060444 0.060242
0.066279 0.066406 0.066520
0.081405 0.080953 0.080904
0.067416 0.067297 0.066427
0.048934 0.048494 0.048375
0.066060 0.066101 0.065961
0.077118 0.075365 0.075116
0.058534 0.058498 0.058369
0.059907 0.059779 0.059590
0.081721 0.080930 0.080488
0.046038 0.046256 0.046310
0.060693 0.060713 0.060313
0.067314 0.067115 0.062780
0.077745 0.078183 0.078406
0.089331 0.088850 0.083859
0.064364 0.064371 0.064489
0.054617 0.054898 0.054666
0.092373 0.092147 0.091408
0.070037 0.070091 0.070556
0.060064 0.059949 0.060029
0.107125 0.106859 0.105114
0.084110 0.083196 0.081917
0.063136 0.063144 0.062986
0.063501 0.064280 0.064513
0.066915 0.066910 0.066631
0.056605 0.056773 0.056847
0.069232 0.068601 0.068474
0.070363 0.069299 0.067692
0.090054 0.088698 0.088154
0.059885 0.060066 0.060377
0.064409 0.064440 0.064434
0.061602 0.060424 0.060295
0.054587 0.054586 0.054731
0.064135 0.064204 0.064042
0.067174 0.065956 0.065008
0.062273 0.062034 0.060782
0.070394 0.070598 0.070511
0.064939 0.064593 0.064592
0.059382 0.058950 0.059162
0.065020 0.065041 0.065042
0.067241 0.067820 0.067615
0.068586 0.068574 0.068091
0.058855 0.058494 0.058576
0.065131 0.066429 0.067504
0.057282 0.057334 0.057472
0.064161 0.064640 0.066990
0.083345 0.083367 0.083550
0.057923 0.057641 0.057515
0.078109 0.077613 0.076965
0.062375 0.061079 0.060870
0.072653 0.070216 0.070119
0.070030 0.069876 0.069830
0.061207 0.061651 0.060916
0.059920 0.059220 0.059123
0.084903 0.085338 0.085881
0.057638 0.058535 0.059977
0.062984 0.062925 0.062858
0.059628 0.059667 0.059529
0.069487 0.069352 0.070270
0.085911 0.084924 0.083363
0.059311 0.059328 0.059491
0.068435 0.068485 0.068382
0.074684 0.074812 0.074861
0.068235 0.067836 0.067609
0.106991 0.107268 0.108407
0.061695 0.061673 0.061397
0.066616 0.066745 0.066867
0.063347 0.063234 0.063494
0.087865 0.088018 0.086501
0.084845 0.084889 0.084894
0.067133 0.066026 0.065729
0.063235 0.064204 0.064518
0.058965 0.058579 0.058343
0.062319 0.062372 0.062073
0.092233 0.092365 0.091900
0.057784 0.057149 0.056660
0.055696 0.058834 0.060635
0.082938 0.082710 0.082623
0.077514 0.078115 0.078904
0.045452 0.044797 0.044441
0.071883 0.071778 0.071830
0.062197 0.062524 0.062573
0.095723 0.095653 0.096290
0.051776 0.053189 0.053585
0.063208 0.064099 0.064794
0.057169 0.057225 0.057348
0.072526 0.072693 0.072864
0.092821 0.094387 0.095346
0.068205 0.069217 0.069434
0.064023 0.063997 0.063655
0.098388 0.094833 0.093669
0.077901 0.077736 0.077322
0.090799 0.090753 0.090362
0.095487 0.095398 0.095543
0.069798 0.069682 0.069541
0.062313 0.062206 0.062523
0.059483 0.059650 0.059653
0.066073 0.065956 0.066398
0.052116 0.051902 0.051796
0.079820 0.080174 0.080347
0.067588 0.067157 0.067487
0.044824 0.044884 0.044815
0.053824 0.053453 0.053214
0.067764 0.067875 0.066497
0.064042 0.063756 0.061699
0.069949 0.069632 0.069446
0.066666 0.065793 0.065379
0.057514 0.057638 0.058535
0.065407 0.065461 0.063223
0.065233 0.065155 0.065160
0.060999 0.060828 0.060253
0.062459 0.062312 0.061869
0.071752 0.071742 0.071451
0.092776 0.092673 0.092517
0.058576 0.059309 0.059736
0.071659 0.071410 0.070348
0.085114 0.085764 0.086001
0.057872 0.057707 0.057611
0.045971 0.046039 0.045903
0.110073 0.109979 0.109148
0.067659 0.067471 0.064556
0.058165 0.058584 0.058616
0.060503 0.060397 0.060548
0.054972 0.055997 0.056080
0.075541 0.076463 0.076550
0.065774 0.065683 0.065830
0.064524 0.064611 0.064774
0.074280 0.075022 0.077304
0.087380 0.088078 0.089155
0.068356 0.067770 0.066982
0.066998 0.065831 0.065681
0.057029 0.057171 0.057177
0.053955 0.054148 0.053980
0.082597 0.082575 0.082849
0.058877 0.058982 0.059053
0.083703 0.083718 0.085818
0.065513 0.065497 0.065100
0.056967 0.057033 0.057177
0.066088 0.066093 0.066203
0.055861 0.056107 0.057275
0.065864 0.065736 0.066529
0.058681 0.060051 0.061820
0.063202 0.061503 0.059218
0.068032 0.067332 0.067253
0.063829 0.063817 0.064205
0.069643 0.069522 0.069489
0.059777 0.059854 0.059985
0.062438 0.062116 0.062391
0.073305 0.073488 0.073728
0.064843 0.064876 0.064837
0.059667 0.059529 0.059610
0.061599 0.061586 0.061320
0.058972 0.058856 0.058655
0.052583 0.053482 0.055330
0.059914 0.059909 0.059869
0.065866 0.065829 0.066114
0.052625 0.052429 0.052735
0.058754 0.057251 0.057493
0.104260 0.103559 0.102811
0.056458 0.058362 0.058897
0.060922 0.060604 0.060053
0.055824 0.055423 0.054819
0.058607 0.058634 0.058888
0.063281 0.063078 0.062501
0.067690 0.067658 0.067625
0.059476 0.059503 0.059498
0.059949 0.059092 0.058812
0.063242 0.063031 0.062859
0.103157 0.103184 0.103259
0.066331 0.066243 0.066330
0.060819 0.061061 0.061745
0.063797 0.063827 0.063343
0.077303 0.075150 0.075282
0.063432 0.063006 0.062967
0.051940 0.052012 0.052079
0.089798 0.089375 0.088309
0.100832 0.100151 0.100003
0.090250 0.090141 0.090870
0.073323 0.073151 0.072491
0.045855 0.046106 0.046475
0.079975 0.079886 0.079262
0.072090 0.072787 0.072793
0.060967 0.061287 0.061155
0.063581 0.063553 0.063733
0.062439 0.062562 0.062542
0.065347 0.065345 0.064333
0.046508 0.046455 0.046411
0.088824 0.086728 0.084969
0.072729 0.073902 0.074461
0.066986 0.067272 0.066964
0.107647 0.107835 0.107676
0.096881 0.098252 0.099587
0.073236 0.073063 0.073115
0.079653 0.079797 0.079570
0.079367 0.079150 0.079477
0.064611 0.064774 0.064738
0.067099 0.067225 0.067397
0.077475 0.076928 0.077103
0.067077 0.067243 0.066726
0.050328 0.050436 0.050494
0.076820 0.076757 0.075746
0.077471 0.076672 0.076204
0.062988 0.062166 0.061783
0.058949 0.059624 0.059555
0.063582 0.063184 0.061673
0.050595 0.050611 0.050379
0.056329 0.056137 0.056335
0.064276 0.064488 0.063520
0.090853 0.090884 0.090928
0.069464 0.069506 0.069348
0.062369 0.062608 0.062282
0.063611 0.063547 0.063555
0.061048 0.061196 0.061549
0.059356 0.059669 0.059302
0.061783 0.061784 0.061737
0.062690 0.062730 0.062225
0.042729 0.042350 0.042181
0.046426 0.046447 0.046153
0.055536 0.055376 0.054773
0.065831 0.065452 0.062677
0.059849 0.059631 0.057811
0.060076 0.060120 0.060047
0.095346 0.095418 0.095672
0.069291 0.069412 0.070176
0.090476 0.090535 0.090708
0.063210 0.063020 0.063594
0.082260 0.083244 0.082944
0.068442 0.068599 0.068525
0.062463 0.063066 0.063073
0.066289 0.066277 0.065810
0.068877 0.068926 0.068505
0.059366 0.059414 0.059436
0.062359 0.062489 0.062776
0.065293 0.065845 0.065852
0.071235 0.071066 0.070286
0.056487 0.056598 0.056703
0.058301 0.057932 0.059134
0.075549 0.074838 0.072184
0.071149 0.071042 0.071037
0.057832 0.057726 0.057695
0.071322 0.071586 0.072705
0.065486 0.066046 0.066199
0.057843 0.057772 0.058393
0.060116 0.060431 0.060597
0.055044 0.054353 0.054501
0.051240 0.051409 0.051445
0.074750 0.074508 0.074783
0.051630 0.051462 0.050643
0.071954 0.071458 0.070384
0.063015 0.062687 0.062786
0.061838 0.061868 0.061906
0.062764 0.062534 0.062709
0.062581 0.063349 0.063573
0.065187 0.064939 0.064859
0.058584 0.058800 0.058980
0.068419 0.068132 0.065922
0.070185 0.070124 0.070182
0.065900 0.066160 0.067356
0.058842 0.058580 0.058468
0.083638 0.083584 0.083478
0.065801 0.066053 0.066242
0.060064 0.059799 0.058803
0.097453 0.097313 0.096935
0.097359 0.095489 0.095492
0.046256 0.046310 0.046274
0.067721 0.068020 0.068936
0.066470 0.066483 0.066464
0.061387 0.060873 0.061083
0.089012 0.086202 0.083669
0.108330 0.107722 0.107806
0.066026 0.065957 0.065781
0.074242 0.074219 0.076583
0.080343 0.081691 0.080862
0.061350 0.061913 0.062139
0.059838 0.059763 0.059365
0.068932 0.069059 0.068631
0.062838 0.063402 0.062933
0.060447 0.060873 0.060968
0.087457 0.087382 0.087134
0.090064 0.090560 0.090380
0.059340 0.059862 0.061842
0.065455 0.063933 0.063738
0.059159 0.059219 0.059380
0.065989 0.065935 0.065847
0.081386 0.081152 0.081159
0.070968 0.070964 0.071254
0.062630 0.066020 0.066515
0.061227 0.061047 0.061025
0.074028 0.073443 0.068679
0.067534 0.067498 0.067475
0.070796 0.070835 0.069822
0.058568 0.059169 0.063768
0.070877 0.069666 0.069064
0.063940 0.063241 0.064562
0.095665 0.095592 0.095540
0.066201 0.065774 0.064609
0.070287 0.069998 0.069339
0.091301 0.091347 0.091384
0.070983 0.070266 0.069530
0.079970 0.079381 0.078452
0.062370 0.060930 0.060226
0.058753 0.059476 0.059495
0.065144 0.068679 0.070388
0.092646 0.093110 0.093479
0.061815 0.061874 0.062127
0.063996 0.063795 0.065393
0.077596 0.077719 0.077583
0.040719 0.040845 0.041200
0.063408 0.064594 0.064864
0.064843 0.065057 0.065113
0.060789 0.063087 0.064480
0.086724 0.087821 0.087994
0.067916 0.067484 0.063706
0.072691 0.072443 0.072470
0.098430 0.098389 0.098304
0.087682 0.087618 0.087640
0.065659 0.065978 0.065953
0.075388 0.075213 0.075092
0.068393 0.069540 0.069821
0.043556 0.043827 0.043969
0.074821 0.073746 0.073454
0.051933 0.051917 0.052116
0.065852 0.066394 0.066245
0.069418 0.069243 0.069169
0.059652 0.059171 0.060099
0.062313 0.062170 0.062437
0.061103 0.061292 0.061236
0.050115 0.050269 0.050321
0.083916 0.084113 0.085534
0.081612 0.081711 0.081764
0.084531 0.084247 0.083422
0.053568 0.052139 0.051628
0.059763 0.060088 0.060177
0.082874 0.083075 0.079479
0.068101 0.068023 0.068111
0.071438 0.070903 0.072011
0.056197 0.056383 0.056078
0.075400 0.073526 0.072529
0.103092 0.105403 0.106721
0.098398 0.098273 0.098296
0.043467 0.043910 0.043125
0.096482 0.096721 0.097944
0.063467 0.063399 0.063532
0.068457 0.066333 0.066421
0.068094 0.068074 0.068006
0.073070 0.073114 0.073256
0.083403 0.083012 0.082882
0.060322 0.060370 0.060578
0.060040 0.060469 0.061025
0.063412 0.064748 0.066325
0.061613 0.062228 0.065881
0.067520 0.067821 0.068289
0.065053 0.065047 0.065022
0.057239 0.057517 0.057525
0.076443 0.076871 0.076934
0.072471 0.072500 0.073184
0.068739 0.068572 0.067555
0.048696 0.048572 0.048404
0.068359 0.068875 0.068757
0.065021 0.065020 0.065041
0.061781 0.061677 0.061365
0.069388 0.069365 0.069481
0.045645 0.045380 0.045446
0.062306 0.062270 0.062219
0.077487 0.077068 0.076670
0.092470 0.091148 0.090839
0.096606 0.097038 0.098065
0.058301 0.060330 0.061023
0.068538 0.069552 0.071018
0.092378 0.092622 0.093195
0.060794 0.060507 0.060821
0.063625 0.062818 0.060751
0.064846 0.064737 0.064614
0.067193 0.067612 0.067705
0.046253 0.046072 0.046033
0.066882 0.066589 0.066867
0.070049 0.070157 0.070357
0.065557 0.065604 0.065895
0.062432 0.066588 0.068676
0.057234 0.058461 0.060560
0.054335 0.054413 0.054358
0.068973 0.069992 0.072153
0.066359 0.066270 0.066233
0.058520 0.058627 0.060232
0.077681 0.077306 0.078458
0.068111 0.067866 0.067254
0.055550 0.055922 0.061694
0.101751 0.101560 0.101631
0.068648 0.068558 0.066739
0.060874 0.061241 0.061496
0.070776 0.070582 0.070170
0.094660 0.095143 0.098439
0.097084 0.095722 0.095653
0.070428 0.070045 0.070059
0.067316 0.067688 0.068858
0.059644 0.059756 0.059422
0.084415 0.084127 0.083949
0.061503 0.061472 0.061313
0.072785 0.073098 0.074657
0.064841 0.064819 0.064887
0.078874 0.077959 0.077360
0.070858 0.071367 0.073380
0.062665 0.062770 0.062433
0.055558 0.055862 0.056264
0.063516 0.063816 0.063673
0.071450 0.072302 0.072499
0.059392 0.059393 0.059225
0.056875 0.057546 0.057343
0.065863 0.065960 0.066338
0.074418 0.074328 0.074295
0.067371 0.067410 0.067414
0.060076 0.059848 0.059803
0.077288 0.077487 0.077068
0.055490 0.054877 0.054970
0.056779 0.056770 0.056759
0.049921 0.051677 0.051586
0.055828 0.056035 0.055998
0.080600 0.080172 0.080311
0.062630 0.062084 0.062294
0.061881 0.061755 0.061310
0.056655 0.056473 0.056382
0.046091 0.046461 0.046618
0.046805 0.046703 0.046597
0.058913 0.058614 0.058422
0.069460 0.069290 0.069240
0.064760 0.065665 0.066679
0.062828 0.062984 0.062697
0.073254 0.073043 0.073142
0.070561 0.070686 0.070559
0.076539 0.076598 0.077015
0.073567 0.073373 0.074065
0.069150 0.068872 0.068511
0.069582 0.069599 0.069712
0.046617 0.046938 0.047103
0.056501 0.056346 0.056465
0.060768 0.060408 0.060099
0.093479 0.093536 0.093827
0.062141 0.062366 0.062788
0.073418 0.073289 0.073235
0.061642 0.061778 0.061650
0.061115 0.061263 0.060516
0.067514 0.068337 0.065950
0.096161 0.095129 0.095690
0.090482 0.090583 0.091000
0.049407 0.049233 0.048343
0.064942 0.064786 0.064996
0.091570 0.091519 0.091299
0.060404 0.060773 0.060981
0.068783 0.069013 0.069431
0.067495 0.067544 0.066819
0.067688 0.067656 0.068091
0.109831 0.109341 0.106849
0.086111 0.086575 0.088470
0.068815 0.070592 0.070885
0.090574 0.090306 0.090131
0.055891 0.056791 0.056845
0.069339 0.068688 0.068688
0.076676 0.076219 0.076191
0.090933 0.090500 0.090436
0.047483 0.046739 0.046405
0.043458 0.043361 0.043974
0.067221 0.067564 0.067822
0.058154 0.058192 0.059204
0.060163 0.059434 0.059539
0.067566 0.065235 0.063949
0.084727 0.084132 0.083838
0.058699 0.058768 0.059047
0.089958 0.090103 0.090373
0.058846 0.058794 0.058797
0.051338 0.051593 0.051693
0.069035 0.068979 0.068898
0.070987 0.071128 0.075703
0.093237 0.092990 0.093430
0.061417 0.062382 0.061789
0.062430 0.062094 0.059810
0.067673 0.067449 0.067479
0.065358 0.065065 0.064782
0.072998 0.072840 0.072896
0.060314 0.060337 0.060402
0.075627 0.075661 0.075166
0.062646 0.062915 0.063871
0.068445 0.068396 0.067944
0.078399 0.077392 0.077251
0.065707 0.065541 0.066063
0.067821 0.068289 0.068468
0.086702 0.086100 0.084188
0.065309 0.065332 0.066098
0.065530 0.065303 0.065288
0.067999 0.068888 0.070300
0.043373 0.043474 0.043613
0.061718 0.061408 0.061260
0.059109 0.059122 0.059240
0.064372 0.064665 0.065320
0.063233 0.062990 0.063069
0.075258 0.075906 0.075709
0.061730 0.061402 0.061216
0.062586 0.062634 0.062602
0.061855 0.061757 0.061807
0.098475 0.098215 0.097720
0.067491 0.066717 0.066667
0.074096 0.073582 0.070408
0.060420 0.060563 0.059931
0.099664 0.099344 0.098200
0.060719 0.061065 0.061162
0.048252 0.048338 0.048293
0.059319 0.059328 0.059491
0.046060 0.045962 0.046048
0.067931 0.068096 0.068346
0.049663 0.049592 0.049408
0.061061 0.060236 0.059855
0.078038 0.077466 0.077641
0.083648 0.083593 0.083371
0.058997 0.058965 0.058974
0.064614 0.063875 0.063098
0.061008 0.060834 0.060845
0.074927 0.075824 0.075403
0.059642 0.059772 0.059848
0.046413 0.046230 0.046347
0.084946 0.084316 0.084130
0.054295 0.054274 0.054336
0.063038 0.062916 0.062683
0.065094 0.064972 0.065237
0.061500 0.061335 0.061458
0.089228 0.086932 0.084614
0.072251 0.072182 0.072583
0.087504 0.087460 0.086799
0.061098 0.060922 0.060889
0.069572 0.069486 0.069534
0.090269 0.090510 0.089873
0.090762 0.090850 0.091149
0.096370 0.095004 0.091880
0.064948 0.065027 0.064735
0.047770 0.047651 0.047346
0.102400 0.102483 0.100877
0.096977 0.096864 0.098533
0.066971 0.067262 0.067097
0.098484 0.099527 0.100231
0.071283 0.071320 0.071087
0.067906 0.068898 0.070225
0.091942 0.092211 0.092180
0.072730 0.072896 0.072838
0.087827 0.087962 0.088198
0.066656 0.066637 0.066904
0.063884 0.063104 0.062919
0.061304 0.061354 0.061184
0.059589 0.059485 0.059454
0.060455 0.060471 0.060985
0.065998 0.065931 0.065756
0.065359 0.065029 0.065532
0.062750 0.063016 0.063022
0.068129 0.066888 0.065774
0.044332 0.044679 0.044755
0.051393 0.050183 0.049018
0.064168 0.063880 0.064508
0.069825 0.069937 0.069296
0.073217 0.073145 0.073240
0.058965 0.060411 0.061427
0.086706 0.086850 0.086873
0.058073 0.058601 0.059678
0.097449 0.097961 0.098001
0.066551 0.066490 0.061743
0.069589 0.069708 0.069232
0.067085 0.067506 0.067484
0.089092 0.091035 0.091819
0.061143 0.060962 0.060350
0.059982 0.059362 0.059332
0.049762 0.049664 0.049661
0.074577 0.074494 0.074588
0.064332 0.064201 0.064162
0.047859 0.047709 0.047382
0.068404 0.069616 0.069632
0.080311 0.078506 0.076979
0.070169 0.070509 0.070525
0.097384 0.096944 0.096628
0.064068 0.062550 0.062336
0.056148 0.055723 0.055314
0.061962 0.061792 0.061706
0.087623 0.087676 0.087921
0.057235 0.057502 0.058093
0.062443 0.062263 0.062685
0.058779 0.058878 0.058841
0.059736 0.059909 0.060097
0.096526 0.096363 0.096349
0.071212 0.071385 0.071320
0.055586 0.056250 0.056124
0.056482 0.056828 0.056946
0.088792 0.087985 0.087929
0.093935 0.091762 0.091604
0.093604 0.092489 0.092584
0.057416 0.057570 0.058568
0.064461 0.063637 0.061737
0.061319 0.061691 0.061705
0.063684 0.063540 0.063324
0.061976 0.061894 0.062023
0.061599 0.061969 0.063394
0.050198 0.050225 0.050072
0.086977 0.086952 0.086029
0.050463 0.048529 0.046301
0.094819 0.095085 0.094819
0.089652 0.090040 0.089605
0.065922 0.066892 0.066907
0.062433 0.061404 0.059566
0.083453 0.083605 0.083811
0.062769 0.060299 0.059586
0.058362 0.058897 0.059109
0.066173 0.065891 0.066325
0.086995 0.086549 0.086524
0.093419 0.094248 0.093101
0.063000 0.062955 0.063163
0.094669 0.094290 0.094021
0.083949 0.084186 0.083655
0.056356 0.055751 0.055680
0.060290 0.059156 0.058589
0.068559 0.068364 0.068166
0.061944 0.060075 0.058083
0.062365 0.062851 0.062676
0.062520 0.061896 0.062811
0.060826 0.060777 0.060789
0.091445 0.091381 0.091766
0.056867 0.054938 0.054931
0.066412 0.066471 0.066391
0.060424 0.060231 0.060019
0.066306 0.066231 0.066213
0.061093 0.061214 0.062109
0.063734 0.064105 0.064320
0.086451 0.086304 0.084727
0.089625 0.088463 0.087877
0.065369 0.065463 0.063215
0.075030 0.073817 0.073314
0.062780 0.062477 0.062760
0.056612 0.056487 0.056598
0.041013 0.041262 0.041759
0.050183 0.049018 0.048597
0.075996 0.076060 0.076305
0.066083 0.064260 0.064138
0.045243 0.045604 0.045765
0.073291 0.070451 0.069906
0.086253 0.089817 0.090293
0.064876 0.064837 0.064843
0.059699 0.059778 0.059916
0.072470 0.072442 0.072379
0.080394 0.080050 0.079830
0.060542 0.060915 0.061037
0.065895 0.066230 0.066142
0.067691 0.067434 0.067407
0.088647 0.088412 0.087931
0.057116 0.057812 0.055824
0.052079 0.052082 0.052213
0.082466 0.082524 0.082975
0.086549 0.086524 0.086406
0.045940 0.045657 0.045942
0.044513 0.044774 0.044785
0.071017 0.070895 0.070924
0.067560 0.067555 0.067999
0.058571 0.058517 0.058958
0.064105 0.064320 0.064035
0.067326 0.067133 0.066026
0.056707 0.058850 0.059233
0.068525 0.068394 0.068040
0.069833 0.069870 0.069227
0.098533 0.098356 0.098486
0.048320 0.048648 0.049704
0.060777 0.060789 0.062001
0.057054 0.056050 0.056398
0.067145 0.067311 0.067686
0.079763 0.079673 0.079912
0.070591 0.070796 0.070172
0.101084 0.102726 0.102278
0.065950 0.065928 0.065528
0.088526 0.088407 0.088309
0.061085 0.061214 0.060840
0.057445 0.057221 0.056089
0.081101 0.082686 0.083732
0.063518 0.063057 0.062203
0.060678 0.060596 0.061359
0.062701 0.061348 0.060232
0.076035 0.074683 0.074469
0.066397 0.066235 0.066333
0.053624 0.053784 0.053648
0.108906 0.109187 0.109476
0.057009 0.056986 0.057094
0.066397 0.063478 0.063347
0.062207 0.061804 0.062432
0.042414 0.043534 0.044020
0.090050 0.090207 0.093501
0.056207 0.056016 0.055939
0.062392 0.060602 0.056933
0.094290 0.094021 0.094774
0.064064 0.064337 0.064362
0.067566 0.067689 0.067484
0.046871 0.046413 0.046388
0.045132 0.045507 0.045831
0.068031 0.068856 0.067683
0.057720 0.057286 0.057517
0.061634 0.061726 0.061388
0.070766 0.070666 0.070532
0.090398 0.090419 0.091412
0.049450 0.049477 0.049362
0.103544 0.102536 0.102049
0.097609 0.097700 0.098397
0.072606 0.075436 0.076132
0.062980 0.063042 0.063086
0.065042 0.065099 0.065041
0.076356 0.075961 0.075971
0.086781 0.085844 0.085777
0.058389 0.058065 0.057673
0.088495 0.088793 0.089468
0.069077 0.068392 0.067621
0.072442 0.072379 0.072583
0.065615 0.065626 0.065925
0.064580 0.065091 0.063721
0.063448 0.063474 0.061877
0.067254 0.067256 0.066009
0.065320 0.065119 0.064995
0.060606 0.060948 0.061388
0.069646 0.069653 0.069066
0.069843 0.069582 0.069599
0.069735 0.068755 0.067023
0.065523 0.066280 0.065855
0.090437 0.089872 0.090476
0.057828 0.057828 0.057834
0.055816 0.055326 0.056082
0.088379 0.088503 0.087892
0.066183 0.066285 0.066515
0.061671 0.061248 0.060993
0.073752 0.073788 0.073916
0.101312 0.102618 0.104820
0.061531 0.061698 0.063258
0.052541 0.052587 0.052868
0.083732 0.083080 0.081050
0.049664 0.049661 0.050328
0.063509 0.065188 0.065346
0.059108 0.059173 0.059249
0.085581 0.085465 0.085596
0.075766 0.076034 0.075905
0.052408 0.052111 0.053039
0.062578 0.062697 0.062296
0.058288 0.058051 0.058869
0.069983 0.069967 0.069481
0.086756 0.087104 0.087027
0.082653 0.082675 0.082840
0.097345 0.097265 0.097131
0.096459 0.096234 0.096081
0.064189 0.063323 0.063366
0.064685 0.066891 0.067391
0.068520 0.068470 0.068585
0.067018 0.066906 0.067111
0.051593 0.051693 0.051633
0.073279 0.073097 0.073164
0.065453 0.065389 0.065508
0.088910 0.087698 0.086384
0.061154 0.060218 0.059798
0.089830 0.090383 0.091241
0.056475 0.056321 0.056313
0.059569 0.058988 0.058925
0.087365 0.088121 0.088006
0.068915 0.068538 0.068526
0.073680 0.074016 0.073287
0.073984 0.073391 0.073472
0.060129 0.060237 0.060392
0.058531 0.058448 0.057823
0.048053 0.048372 0.048593
0.087567 0.086752 0.087252
0.085468 0.084843 0.085007
0.073462 0.073504 0.073439
0.059929 0.059843 0.059815
0.094036 0.094248 0.094790
0.067882 0.067960 0.068017
0.073856 0.073991 0.073903
0.065194 0.065930 0.066922
0.073501 0.073506 0.073316
0.061140 0.061106 0.059727
0.059584 0.059815 0.059983
0.076882 0.077721 0.076728
0.043194 0.043076 0.042993
0.063572 0.063344 0.063352
0.098982 0.098220 0.098289
0.087246 0.086692 0.086434
0.084545 0.085477 0.085823
0.065478 0.065900 0.065769
0.065161 0.065163 0.066382
0.047865 0.047642 0.047362
0.085249 0.085522 0.086242
0.064449 0.063637 0.063829
0.084316 0.084434 0.085121
0.073677 0.073712 0.073768
0.064867 0.065092 0.064792
0.059419 0.058606 0.058832
0.062762 0.062106 0.061255
0.064825 0.064828 0.064831
0.052908 0.052855 0.052714
0.064132 0.064255 0.064053
0.060583 0.060104 0.059992
0.053230 0.049921 0.050144
0.083731 0.084727 0.084132
0.069921 0.070507 0.070384
0.070950 0.070968 0.070964
0.063990 0.063758 0.063406
0.073137 0.073070 0.073114
0.058271 0.058173 0.058336
0.076575 0.077015 0.078502
0.058172 0.058155 0.058561
0.064133 0.064256 0.064340
0.068846 0.069214 0.072071
0.079615 0.079632 0.079938
0.073234 0.073290 0.073294
0.061534 0.061695 0.061673
0.057856 0.058024 0.058015
0.068446 0.066745 0.065785
0.049921 0.050144 0.050008
0.059652 0.059686 0.059592
0.060726 0.060198 0.059849
0.073315 0.073361 0.073394
0.086405 0.086537 0.086657
0.066519 0.067213 0.067374
0.074570 0.074564 0.073645
0.062968 0.062738 0.062592
0.066649 0.066962 0.066992
0.090689 0.091935 0.092247
0.068716 0.066561 0.065711
0.057911 0.058537 0.058143
0.046950 0.046551 0.045680
0.071792 0.071832 0.071209
0.067220 0.067271 0.066195
0.068137 0.068201 0.068438
0.088710 0.088608 0.086771
0.066881 0.067117 0.066945
0.076437 0.075439 0.074467
0.108227 0.108966 0.109284
0.070858 0.070327 0.070188
0.077283 0.077688 0.077435
0.069901 0.069735 0.069237
0.061178 0.061405 0.063876
0.064637 0.064335 0.064217
0.092505 0.092571 0.092310
0.081580 0.081978 0.082092
0.052124 0.052993 0.055815
0.081217 0.081839 0.082106
0.066243 0.065599 0.065557
0.060522 0.060268 0.060042
0.069923 0.070578 0.070750
0.064707 0.064720 0.065061
0.086800 0.086948 0.086864
0.073794 0.073962 0.073879
0.068520 0.068336 0.068365
0.062693 0.062462 0.062375
0.060637 0.061207 0.061642
0.080424 0.080380 0.079943
0.047386 0.046849 0.044947
0.084597 0.085070 0.085473
0.089636 0.088054 0.087837
0.068145 0.068019 0.067759
0.060595 0.060663 0.060822
0.067266 0.067771 0.072981
0.056397 0.055342 0.053948
0.065011 0.065121 0.065087
0.070053 0.070510 0.070832
0.073065 0.073145 0.073039
0.056698 0.056408 0.056923
0.060017 0.060047 0.060557
0.057623 0.054978 0.054909
0.066375 0.067237 0.067248
0.067448 0.067072 0.067272
0.066532 0.066626 0.066687
0.078195 0.081494 0.083325
0.057007 0.056936 0.056784
0.067777 0.067966 0.068165
0.058565 0.060254 0.064294
0.058431 0.058458 0.058337
0.064698 0.066682 0.066479
0.057933 0.056638 0.056482
0.051505 0.051357 0.050078
0.069910 0.069884 0.069239
0.052901 0.053306 0.053043
0.066931 0.066955 0.067560
0.058119 0.058585 0.058475
0.078023 0.078089 0.078045
0.065361 0.065461 0.065590
0.072312 0.072456 0.073771
0.062101 0.061868 0.061627
0.042472 0.043422 0.043511
0.070597 0.069680 0.068906
0.042994 0.042961 0.043140
0.059473 0.058852 0.058743
0.079911 0.079885 0.079905
0.083117 0.082874 0.083075
0.071906 0.071429 0.070808
0.047550 0.047758 0.047821
