0.047380 0.046669 0.046832
0.112991 0.113139 0.113472
0.083673 0.083244 0.083308
0.231096 0.231725 0.232389
0.198624 0.198779 0.199160
0.202508 0.203985 0.206082
0.188004 0.189923 0.191086
0.135328 0.135432 0.135467
0.224074 0.219520 0.215049
0.047575 0.047441 0.046726
0.210344 0.205109 0.203186
0.139478 0.129934 0.125560
0.122658 0.123438 0.125852
0.048176 0.048071 0.050718
0.189187 0.191025 0.191342
0.213616 0.217095 0.219662
0.169563 0.171174 0.172935
0.204294 0.205786 0.207697
0.194223 0.194561 0.195439
0.080091 0.077842 0.077538
0.145849 0.145107 0.141581
0.090119 0.089576 0.088610
0.217324 0.218094 0.218599
0.069297 0.069513 0.069523
0.049594 0.049391 0.049247
0.094112 0.095242 0.098318
0.192055 0.193964 0.195566
0.157095 0.156819 0.159208
0.067237 0.067081 0.067013
0.164085 0.165351 0.167047
0.123123 0.123539 0.124128
0.048176 0.048115 0.047973
0.054759 0.053839 0.053339
0.188557 0.188459 0.190069
0.062179 0.061621 0.061615
0.171548 0.171123 0.168921
0.046266 0.044560 0.044207
0.056723 0.056766 0.057036
0.056258 0.055927 0.056461
0.167199 0.166899 0.167318
0.208736 0.209584 0.212446
0.042263 0.042169 0.042271
0.043522 0.043457 0.043208
0.180227 0.176491 0.175022
0.082622 0.083446 0.083760
0.043835 0.043861 0.043876
0.170609 0.170112 0.168524
0.069389 0.069455 0.068382
0.199515 0.199305 0.198979
0.142420 0.144870 0.145017
0.095753 0.096273 0.097351
0.176665 0.176751 0.178386
0.053187 0.053209 0.053035
0.045410 0.045474 0.045171
0.170740 0.170745 0.170853
0.043665 0.043505 0.043563
0.050764 0.050760 0.051122
0.128560 0.129003 0.134453
0.207370 0.203738 0.203247
0.064756 0.064380 0.064484
0.213778 0.218444 0.224799
0.126524 0.127214 0.127158
0.073914 0.074036 0.073952
0.187873 0.188498 0.188821
0.084670 0.083232 0.079902
0.171490 0.173795 0.175617
0.236390 0.238558 0.238840
0.049645 0.049368 0.048135
0.157200 0.157582 0.158106
0.153046 0.153098 0.150611
0.231654 0.230222 0.232963
0.173556 0.174861 0.175092
0.046645 0.046673 0.046508
0.183842 0.183756 0.188983
0.178320 0.179113 0.181994
0.042292 0.042198 0.041818
0.171396 0.171450 0.170126
0.208811 0.213487 0.211936
0.088194 0.088097 0.088045
0.054294 0.055597 0.056379
0.166641 0.164877 0.162638
0.169581 0.169043 0.168555
0.048303 0.050605 0.051062
0.180750 0.178002 0.177837
0.253702 0.254954 0.254618
0.121197 0.121319 0.121882
0.037913 0.038070 0.038531
0.229281 0.228843 0.228403
0.199780 0.197579 0.195915
0.052136 0.052383 0.052953
0.045941 0.046462 0.046507
0.112455 0.113455 0.118027
0.187997 0.183853 0.182265
0.047077 0.046916 0.046672
0.044596 0.045079 0.044716
0.061294 0.061826 0.061713
0.215267 0.217837 0.218621
0.187763 0.188859 0.188297
0.174161 0.173493 0.172024
0.071351 0.070976 0.070915
0.176890 0.174113 0.171230
0.079708 0.082340 0.083472
0.061284 0.061141 0.061038
0.165231 0.165272 0.163562
0.227469 0.228227 0.229048
0.066493 0.066730 0.067295
0.188465 0.187720 0.187763
0.045400 0.045371 0.045464
0.176500 0.176573 0.176521
0.043087 0.042240 0.041383
0.177542 0.177965 0.178359
0.053153 0.053075 0.053184
0.042587 0.042659 0.042706
0.155779 0.155344 0.153980
0.094991 0.095518 0.095915
0.141837 0.141854 0.140542
0.046515 0.046472 0.046654
0.089874 0.090476 0.090356
0.143286 0.142918 0.142847
0.095518 0.095915 0.097256
0.041698 0.041832 0.042074
0.046679 0.045933 0.044968
0.043687 0.043632 0.043208
0.187823 0.186567 0.185796
0.113236 0.112452 0.111837
0.192835 0.193288 0.194369
0.188902 0.189617 0.190394
0.230004 0.232437 0.231946
0.200288 0.202299 0.207990
0.185845 0.186398 0.187045
0.042608 0.042776 0.042854
0.193005 0.191513 0.188448
0.165108 0.165768 0.162454
0.181475 0.180784 0.180452
0.042733 0.042660 0.044001
0.044260 0.043734 0.044208
0.155350 0.156776 0.157114
0.053486 0.053670 0.053569
0.074163 0.074147 0.074097
0.214996 0.212443 0.211314
0.151720 0.151880 0.151908
0.069317 0.071302 0.070604
0.181554 0.180922 0.181003
0.120889 0.121408 0.121444
0.228902 0.229575 0.229646
0.041224 0.041143 0.041129
0.167204 0.167669 0.168338
0.049063 0.049075 0.049380
0.201325 0.202131 0.205481
0.038208 0.038306 0.038273
0.204518 0.204850 0.204154
0.139640 0.139603 0.141143
0.185726 0.185322 0.187242
0.186323 0.186695 0.187953
0.109496 0.109243 0.108855
0.207029 0.208292 0.209950
0.209185 0.210102 0.211470
0.181680 0.182363 0.181161
0.053991 0.053836 0.053486
0.197396 0.198582 0.197924
0.274616 0.275634 0.277921
0.064937 0.064805 0.064975
0.199477 0.194738 0.195473
0.119767 0.118798 0.118082
0.101637 0.103672 0.106149
0.171939 0.174637 0.175747
0.041473 0.041593 0.041503
0.112942 0.113415 0.112784
0.053649 0.053818 0.053575
0.232295 0.231515 0.228997
0.061526 0.060822 0.060188
0.189349 0.189423 0.188931
0.152616 0.150515 0.144143
0.084184 0.083796 0.083776
0.062707 0.060185 0.059107
0.046286 0.046210 0.045659
0.079389 0.079797 0.079544
0.054903 0.054982 0.054773
0.054102 0.053835 0.052828
0.041406 0.041628 0.041235
0.155595 0.156057 0.156795
0.301214 0.301386 0.300906
0.063515 0.063293 0.063635
0.211848 0.213979 0.214590
0.182818 0.182298 0.183228
0.049831 0.049919 0.049658
0.228343 0.228308 0.226982
0.059755 0.056007 0.054112
0.190807 0.190290 0.190539
0.059242 0.059963 0.061131
0.128415 0.117931 0.111245
0.120311 0.120941 0.121053
0.194696 0.195391 0.198666
0.211963 0.212980 0.216481
0.094661 0.095171 0.093867
0.180474 0.180262 0.178289
0.222170 0.221617 0.220841
0.202296 0.202269 0.201157
0.042618 0.042766 0.043072
0.184059 0.181970 0.181065
0.121697 0.122968 0.128144
0.044055 0.043914 0.043981
0.247829 0.246926 0.245725
0.283045 0.281174 0.280034
0.054341 0.053835 0.053833
0.163468 0.163777 0.163319
0.060107 0.059741 0.059303
0.090291 0.090479 0.091253
0.152434 0.152081 0.151169
0.045862 0.045366 0.045655
0.176513 0.175295 0.174701
0.156771 0.156870 0.158906
0.181301 0.180621 0.180392
0.184861 0.183346 0.176820
0.072712 0.071627 0.071609
0.213362 0.212821 0.210372
0.219069 0.218629 0.218081
0.198323 0.197796 0.197062
0.090293 0.090570 0.089994
0.052857 0.052889 0.052891
0.130324 0.130234 0.125699
0.049291 0.049093 0.048791
0.114711 0.103439 0.102105
0.044226 0.044107 0.043944
0.053051 0.052692 0.052166
0.153290 0.153005 0.152497
0.188728 0.188547 0.189366
0.080792 0.080938 0.081006
0.081018 0.081007 0.081362
0.214106 0.214183 0.212545
0.054391 0.054283 0.054405
0.067969 0.072914 0.074338
0.159942 0.159559 0.159803
0.191399 0.191494 0.191438
0.065940 0.064721 0.064726
0.040596 0.040579 0.040513
0.233882 0.233365 0.233764
0.178947 0.179327 0.179757
0.048048 0.048497 0.048558
0.183615 0.184485 0.187935
0.104459 0.103227 0.100703
0.157213 0.156637 0.156825
0.224730 0.225173 0.226771
0.041362 0.041396 0.041606
0.042504 0.042222 0.042105
0.051493 0.050314 0.050490
0.166439 0.166648 0.166065
0.099263 0.100075 0.099733
0.076619 0.076016 0.074628
0.186904 0.188191 0.189346
0.216128 0.214876 0.214699
0.206424 0.206810 0.205863
0.046667 0.046629 0.046569
0.061544 0.061606 0.061169
0.196540 0.197644 0.200479
0.073088 0.072973 0.072931
0.165276 0.164796 0.165298
0.084719 0.082389 0.079210
0.044545 0.044554 0.044314
0.167154 0.165118 0.162622
0.242487 0.241306 0.238878
0.164177 0.163742 0.165059
0.299794 0.298909 0.298610
0.174631 0.174690 0.174240
0.200974 0.199904 0.197813
0.049794 0.049780 0.049839
0.180766 0.181943 0.183605
0.185132 0.185564 0.185639
0.184101 0.183880 0.183634
0.056759 0.059747 0.065012
0.048660 0.049596 0.050267
0.043821 0.044036 0.044193
0.103780 0.108557 0.110983
0.102012 0.101844 0.101530
0.192317 0.190210 0.190289
0.049995 0.051423 0.052273
0.187909 0.183306 0.182937
0.178493 0.177831 0.175082
0.054064 0.053846 0.053543
0.043822 0.044037 0.044457
0.200251 0.201027 0.201439
0.187254 0.189384 0.191084
0.166685 0.167642 0.167990
0.059670 0.059990 0.059989
0.052112 0.051716 0.051367
0.255641 0.259133 0.260292
0.197448 0.196803 0.195289
0.057665 0.057746 0.057560
0.073449 0.073213 0.073244
0.049821 0.049656 0.050301
0.061826 0.061713 0.061576
0.189145 0.188119 0.186980
0.187329 0.188185 0.190099
0.074090 0.074062 0.073624
0.209683 0.212618 0.211870
0.169688 0.171337 0.172117
0.092234 0.084900 0.082354
0.054292 0.055034 0.054508
0.211980 0.211092 0.208726
0.210505 0.211926 0.215100
0.121448 0.121374 0.122065
0.176313 0.175319 0.175046
0.096197 0.096268 0.096405
0.175345 0.178000 0.179413
0.092114 0.092180 0.093488
0.164470 0.163976 0.163785
0.233319 0.234304 0.234460
0.173974 0.172800 0.166966
0.046802 0.046538 0.046551
0.153803 0.153514 0.153320
0.045679 0.045790 0.045146
0.208426 0.208866 0.207750
0.199479 0.200151 0.202214
0.110181 0.109396 0.109186
0.216903 0.214351 0.212074
0.119940 0.115658 0.113336
0.074422 0.073883 0.073750
0.079043 0.079082 0.079058
0.218433 0.214999 0.206459
0.170047 0.168282 0.170419
0.290476 0.291647 0.294624
0.194427 0.194350 0.193993
0.109282 0.110170 0.110472
0.193769 0.192178 0.192990
0.049795 0.049952 0.049972
0.186623 0.187228 0.186567
0.044458 0.044373 0.044812
0.057253 0.056846 0.055490
0.180941 0.179051 0.179285
0.053047 0.052925 0.052677
0.181907 0.183822 0.184257
0.042850 0.042318 0.042421
0.238757 0.239571 0.240916
0.259408 0.259345 0.258027
0.210683 0.210708 0.210559
0.072918 0.073808 0.074023
0.067018 0.066613 0.066890
0.046670 0.045460 0.044969
0.204017 0.203210 0.203119
0.200843 0.201027 0.201505
0.259560 0.262057 0.261879
0.182835 0.183623 0.180427
0.189436 0.189037 0.185828
0.183995 0.183487 0.182782
0.041555 0.042599 0.042411
0.058353 0.058415 0.058373
0.043797 0.043779 0.044537
0.079902 0.079015 0.080007
0.223096 0.222608 0.222451
0.067502 0.067515 0.067294
0.079331 0.077278 0.077407
0.228920 0.229581 0.229408
0.201549 0.200974 0.199904
0.050249 0.050265 0.050404
0.193802 0.192526 0.188792
0.189689 0.193003 0.193802
0.175479 0.175189 0.174581
0.055072 0.055192 0.055171
0.066129 0.065247 0.065003
0.101949 0.099371 0.098927
0.067187 0.066719 0.066769
0.052506 0.052645 0.052725
0.111332 0.110644 0.110275
0.187723 0.187829 0.187758
0.053951 0.053787 0.053413
0.049154 0.049120 0.048873
0.102176 0.102492 0.102609
0.078908 0.079404 0.079627
0.165715 0.166904 0.167593
0.096050 0.096036 0.095821
0.041727 0.042027 0.042201
0.094389 0.094254 0.093517
0.202732 0.202430 0.202373
0.038124 0.038090 0.037916
0.214003 0.215531 0.213468
0.089412 0.089525 0.089654
0.218055 0.217042 0.215474
0.187045 0.186921 0.187041
0.047115 0.047122 0.046771
0.047414 0.047365 0.047733
0.205035 0.204500 0.202383
0.039500 0.039565 0.039458
0.184041 0.186380 0.187600
0.165341 0.165194 0.165286
0.044455 0.044514 0.044426
0.183447 0.180426 0.178152
0.080850 0.081149 0.080886
0.184287 0.185250 0.187186
0.188331 0.191261 0.191321
0.146898 0.151075 0.161725
0.169704 0.169833 0.169201
0.194704 0.194709 0.193865
0.216323 0.219934 0.220189
0.217254 0.217903 0.217889
0.136054 0.142420 0.144870
0.168051 0.167186 0.166700
0.212249 0.206409 0.203495
0.090606 0.082882 0.076842
0.161615 0.162986 0.163240
0.209185 0.209217 0.208983
0.184527 0.182870 0.182952
0.216581 0.215627 0.215570
0.047212 0.047434 0.047405
0.232731 0.232421 0.229572
0.053321 0.052516 0.051202
0.112607 0.112277 0.112253
0.082145 0.082803 0.083736
0.163960 0.164570 0.163942
0.088123 0.088048 0.087943
0.181231 0.186272 0.188519
0.093341 0.093409 0.093442
0.121353 0.119788 0.119509
0.044329 0.044232 0.044538
0.187241 0.186792 0.187374
0.105108 0.104022 0.103330
0.089436 0.089986 0.089587
0.172789 0.172411 0.171782
0.176559 0.174714 0.176833
0.047168 0.047142 0.047186
0.089464 0.089477 0.089843
0.202611 0.203213 0.203713
0.143874 0.143929 0.144207
0.048494 0.048547 0.048545
0.215441 0.214517 0.213096
0.163566 0.163953 0.162348
0.113399 0.113488 0.113714
0.196873 0.203334 0.203241
0.078765 0.078125 0.078590
0.243481 0.242589 0.241717
0.187883 0.186526 0.185797
0.178483 0.179078 0.179448
0.175599 0.175781 0.176370
0.182244 0.185111 0.184641
0.046454 0.046322 0.046605
0.200282 0.201019 0.201391
0.176611 0.176218 0.175355
0.056595 0.056792 0.055165
0.206765 0.207214 0.207388
0.191577 0.191568 0.190791
0.168573 0.166227 0.163695
0.065056 0.064914 0.064866
0.224416 0.225420 0.227231
0.172215 0.172101 0.172658
0.146463 0.147652 0.149979
0.040066 0.040050 0.040001
0.179598 0.180307 0.180450
0.073397 0.073438 0.073362
0.229163 0.228640 0.228146
0.081232 0.080794 0.079138
0.198800 0.198909 0.199655
0.193627 0.194481 0.195258
0.179549 0.180337 0.181655
0.046184 0.046396 0.046574
0.174734 0.174517 0.173950
0.181547 0.181887 0.182221
0.152412 0.151938 0.152269
0.219632 0.217208 0.214155
0.189304 0.188736 0.188720
0.196191 0.195562 0.192352
0.045687 0.045631 0.045442
0.098558 0.098096 0.098895
0.046133 0.046087 0.046124
0.038214 0.038494 0.038272
0.237528 0.238280 0.237915
0.190513 0.190466 0.191322
0.180529 0.180748 0.181715
0.206736 0.204087 0.202770
0.173981 0.172925 0.172117
0.078658 0.076176 0.074159
0.169338 0.168514 0.168065
0.193538 0.198619 0.202037
0.188548 0.187374 0.187006
0.229419 0.223614 0.222720
0.055234 0.055185 0.055266
0.178326 0.178717 0.179262
0.195361 0.194859 0.194858
0.086097 0.084602 0.081969
0.205343 0.204992 0.206200
0.086994 0.084742 0.082007
0.088105 0.088092 0.088045
0.200903 0.200220 0.199673
0.157249 0.155806 0.155160
0.209843 0.210524 0.212220
0.080980 0.081005 0.081170
0.207167 0.206780 0.208311
0.043731 0.043348 0.043282
0.058159 0.058438 0.058344
0.183202 0.182592 0.182492
0.167257 0.169143 0.169482
0.126669 0.126735 0.126815
0.185987 0.186067 0.183123
0.169719 0.169186 0.168912
0.081271 0.081650 0.081210
0.159459 0.163730 0.164935
0.163953 0.162348 0.161810
0.078821 0.078074 0.076356
0.146765 0.153174 0.155995
0.092474 0.092408 0.091838
0.052441 0.051083 0.051688
0.192480 0.192153 0.191370
0.288824 0.289397 0.290125
0.066580 0.066029 0.068374
0.044316 0.044491 0.044802
0.150823 0.152328 0.153018
0.160440 0.159900 0.158980
0.057751 0.056844 0.056396
0.184106 0.184432 0.185161
0.176337 0.178003 0.178574
0.172094 0.176347 0.180978
0.173138 0.170387 0.166673
0.160079 0.160935 0.161900
0.169144 0.169209 0.168720
0.180412 0.179067 0.176258
0.043734 0.044208 0.044249
0.081276 0.081271 0.081650
0.041958 0.041804 0.041548
0.072631 0.072838 0.072863
0.056555 0.056358 0.056070
0.112453 0.112787 0.112937
0.045301 0.045391 0.044939
0.165607 0.165301 0.164766
0.103953 0.109538 0.112727
0.070613 0.072423 0.072942
0.169022 0.169852 0.171269
0.155327 0.155276 0.155296
0.060946 0.061112 0.060958
0.052950 0.052849 0.052953
0.069494 0.069874 0.069752
0.096682 0.097039 0.097243
0.105471 0.105555 0.105061
0.067365 0.067237 0.067081
0.169137 0.168874 0.169110
0.042485 0.042411 0.042271
0.180517 0.179175 0.178143
0.110058 0.109423 0.109107
0.170536 0.170402 0.168712
0.168316 0.168483 0.166641
0.173443 0.172923 0.173202
0.043039 0.043733 0.044010
0.053028 0.053263 0.053166
0.051884 0.051437 0.051411
0.043986 0.044116 0.043820
0.215173 0.215063 0.214848
0.208811 0.210910 0.211425
0.070688 0.070912 0.072199
0.167628 0.166899 0.167424
0.162554 0.160439 0.159064
0.239577 0.240251 0.239025
0.039184 0.039295 0.039116
0.169724 0.170029 0.171257
0.239537 0.240698 0.244284
0.044763 0.044745 0.045108
0.040225 0.040233 0.040709
0.177912 0.178210 0.177894
0.190205 0.188380 0.187417
0.201015 0.199681 0.201422
0.207024 0.207770 0.208603
0.181390 0.180791 0.180230
0.047416 0.047393 0.047700
0.066188 0.065834 0.065797
0.076976 0.079859 0.081106
0.186788 0.185892 0.185658
0.044410 0.044543 0.044737
0.183228 0.181777 0.183004
0.042611 0.042707 0.042910
0.061035 0.061386 0.061898
0.225839 0.225726 0.225907
0.053090 0.053169 0.053679
0.188664 0.189349 0.192413
0.173891 0.174147 0.180716
0.045154 0.045538 0.045487
0.182362 0.181110 0.180474
0.080974 0.080910 0.080980
0.231722 0.231659 0.227945
0.092991 0.092998 0.093195
0.049698 0.049671 0.049866
0.190197 0.190770 0.190380
0.202937 0.202229 0.198691
0.181232 0.185774 0.192223
0.194227 0.195078 0.194129
0.185123 0.184734 0.184047
0.177291 0.177795 0.178377
0.053257 0.052923 0.052862
0.081259 0.081482 0.082474
0.188727 0.189307 0.190873
0.109959 0.112328 0.112498
0.074150 0.074163 0.074147
0.044922 0.045228 0.044751
0.206883 0.207983 0.208273
0.096365 0.096327 0.098617
0.052731 0.053276 0.054195
0.084711 0.082948 0.079279
0.058239 0.058023 0.056908
0.160871 0.159813 0.160258
0.187789 0.187802 0.187727
0.236850 0.237126 0.233328
0.164747 0.165434 0.165473
0.174517 0.173950 0.173792
0.072518 0.073448 0.073327
0.203957 0.202806 0.203115
0.201347 0.201502 0.202893
0.189038 0.188073 0.187728
0.072421 0.072956 0.073358
0.049568 0.049334 0.049502
0.049595 0.049734 0.050265
0.202687 0.201751 0.197901
0.164087 0.164031 0.164797
0.211208 0.209177 0.208383
0.043895 0.043738 0.043145
0.200013 0.200444 0.201254
0.070150 0.070393 0.071840
0.055965 0.055205 0.054668
0.160193 0.161308 0.162106
0.198659 0.200074 0.199877
0.072393 0.072234 0.071741
0.038365 0.038444 0.039179
0.098349 0.098778 0.098721
0.217120 0.222063 0.225056
0.246577 0.246168 0.246396
0.107785 0.107628 0.108425
0.191447 0.192139 0.194733
0.179951 0.182289 0.184864
0.198384 0.198065 0.197682
0.058636 0.059957 0.060672
0.165236 0.165229 0.164863
0.157204 0.156774 0.156669
0.050890 0.050167 0.050071
0.167919 0.167912 0.171179
0.097567 0.097360 0.097304
0.123848 0.123628 0.123026
0.223078 0.222800 0.223171
0.064105 0.064815 0.065415
0.166262 0.165607 0.165301
0.055003 0.056241 0.056189
0.171196 0.171635 0.173500
0.160697 0.160127 0.160048
0.047086 0.047351 0.047124
0.206633 0.206488 0.207207
0.042174 0.042498 0.042729
0.041087 0.041112 0.041199
0.073503 0.073162 0.073213
0.054815 0.054997 0.055368
0.161305 0.162270 0.161860
0.075532 0.075929 0.078351
0.105442 0.106031 0.106412
0.071762 0.071796 0.071775
0.196405 0.195449 0.192462
0.128004 0.128781 0.126115
0.052222 0.050922 0.051369
0.203213 0.203713 0.203507
0.107443 0.106908 0.106613
0.049555 0.049226 0.048976
0.182825 0.184452 0.184280
0.073011 0.072581 0.072540
0.228308 0.226982 0.227430
0.232421 0.229572 0.228619
0.068144 0.066111 0.064936
0.170431 0.170536 0.170402
0.178217 0.176246 0.174662
0.190539 0.190868 0.192030
0.173010 0.172308 0.172103
0.187569 0.186944 0.184492
0.251854 0.248512 0.247223
0.226449 0.226910 0.226893
0.190522 0.191473 0.194246
0.168219 0.167822 0.166777
0.171137 0.174178 0.183011
0.195266 0.195745 0.199271
0.160315 0.160060 0.159156
0.047481 0.047261 0.047307
0.046536 0.046389 0.045948
0.211494 0.212348 0.212011
0.216945 0.217308 0.218040
0.143882 0.144090 0.143874
0.109299 0.108506 0.108245
0.195290 0.194761 0.194361
0.159989 0.163945 0.164494
0.174421 0.175901 0.176204
0.216520 0.217254 0.217903
0.097080 0.097100 0.097020
0.039624 0.039891 0.039785
0.170112 0.168524 0.168090
0.039496 0.038274 0.037906
0.040112 0.040022 0.040042
0.186912 0.187083 0.187427
0.054430 0.055194 0.056087
0.216636 0.217767 0.217575
0.078564 0.078787 0.079350
0.038172 0.038117 0.038296
0.174661 0.174032 0.174730
0.119202 0.117526 0.116741
0.168720 0.169306 0.169572
0.054357 0.054409 0.054379
0.201225 0.202781 0.204642
0.249068 0.250996 0.250958
0.143856 0.143533 0.143173
0.173161 0.175205 0.175987
0.283494 0.282801 0.280621
0.145499 0.145052 0.140581
0.123485 0.124373 0.124503
0.168705 0.168501 0.168564
0.082547 0.082128 0.081039
0.163357 0.160463 0.159461
0.167647 0.167362 0.167905
0.164238 0.163859 0.163554
0.048520 0.048132 0.048195
0.173437 0.173930 0.173776
0.105462 0.105976 0.106476
0.074410 0.073302 0.073100
0.049548 0.049275 0.048986
0.090414 0.091519 0.091105
0.053823 0.053026 0.052776
0.083798 0.084743 0.085950
0.151883 0.152741 0.154151
0.042958 0.042940 0.042810
0.163149 0.160393 0.156632
0.230043 0.229791 0.230695
0.048989 0.049049 0.049278
0.174486 0.174636 0.173775
0.043934 0.044300 0.044263
0.070072 0.071819 0.072191
0.101977 0.101556 0.102313
0.070632 0.071806 0.071670
0.171371 0.170912 0.167776
0.244250 0.249772 0.251106
0.071769 0.071855 0.071506
0.213953 0.213202 0.212896
0.198105 0.203691 0.206293
0.183835 0.184052 0.189005
0.167089 0.165861 0.165859
0.164439 0.163852 0.163357
0.166833 0.167394 0.168245
0.203968 0.203622 0.203530
0.044322 0.044561 0.045094
0.209731 0.208792 0.208919
0.122533 0.121376 0.121346
0.092263 0.093097 0.093310
0.191639 0.192799 0.193433
0.154680 0.155027 0.155546
0.078720 0.078781 0.078841
0.210790 0.210528 0.210632
0.197575 0.198120 0.199019
0.186120 0.185947 0.185910
0.090156 0.089778 0.088957
0.180196 0.180645 0.181444
0.073194 0.074607 0.074978
0.109342 0.109945 0.110396
0.049137 0.049025 0.048483
0.046435 0.046266 0.046249
0.161298 0.161510 0.161764
0.049418 0.049463 0.049437
0.156392 0.157213 0.157797
0.197898 0.197403 0.198437
0.186394 0.183331 0.184978
0.080083 0.082291 0.083584
0.246346 0.244898 0.243868
0.096107 0.096414 0.096426
0.087615 0.084499 0.081226
0.219082 0.220623 0.223002
0.206631 0.207117 0.206711
0.166838 0.167496 0.168936
0.051127 0.051489 0.051265
0.053554 0.053965 0.054352
0.048488 0.048598 0.048092
0.169702 0.168955 0.170116
0.069241 0.067699 0.066901
0.052677 0.052595 0.052824
0.074640 0.073516 0.073455
0.111190 0.111053 0.111694
0.051231 0.050820 0.050645
0.167912 0.166708 0.169101
0.052886 0.053069 0.053268
0.163732 0.158546 0.152439
0.045357 0.045323 0.045480
0.043921 0.043948 0.043637
0.153267 0.153233 0.152511
0.194906 0.195284 0.195354
0.051168 0.051067 0.050605
0.186846 0.180275 0.176842
0.055623 0.055445 0.054508
0.079537 0.079669 0.079658
0.198264 0.200131 0.200968
0.180947 0.179992 0.177732
0.042318 0.042421 0.042295
0.187717 0.187194 0.190794
0.182121 0.183727 0.183538
0.060608 0.060424 0.061030
0.194000 0.193179 0.193532
0.114370 0.118040 0.120630
0.188203 0.190269 0.190175
0.115841 0.120624 0.125733
0.109607 0.109450 0.109062
0.061606 0.061169 0.059876
0.181788 0.181019 0.179784
0.172704 0.175970 0.177926
0.052673 0.052885 0.052948
0.054043 0.054252 0.054362
0.065457 0.066818 0.068078
0.174113 0.171230 0.169090
0.188492 0.188022 0.187581
0.155366 0.154798 0.154474
0.209873 0.210046 0.216566
0.045617 0.045511 0.045411
0.160333 0.160093 0.158851
0.301203 0.301236 0.301049
0.206805 0.207120 0.206854
0.242477 0.242345 0.242476
0.251474 0.242703 0.239577
0.044746 0.044981 0.045011
0.072939 0.072927 0.072880
0.165833 0.164994 0.164420
0.142701 0.140065 0.137383
0.224371 0.219664 0.218567
0.043981 0.044132 0.043922
0.196196 0.195883 0.195238
0.186842 0.188977 0.190044
0.180304 0.180188 0.180130
0.052317 0.051614 0.051614
0.180445 0.178747 0.179174
0.279911 0.279747 0.281886
0.180604 0.179910 0.179004
0.078212 0.078558 0.078518
0.201236 0.209661 0.215268
0.228570 0.227981 0.227824
0.052850 0.052822 0.052890
0.217903 0.217889 0.219065
0.208494 0.208054 0.206795
0.057027 0.057030 0.057208
0.078259 0.077520 0.077999
0.164512 0.164866 0.165057
0.097746 0.093312 0.090606
0.143141 0.143289 0.140877
0.171410 0.167404 0.167478
0.181059 0.184453 0.184795
0.043344 0.043435 0.043417
0.070333 0.069843 0.069710
0.043640 0.043581 0.043915
0.168607 0.168440 0.167771
0.158207 0.158946 0.161758
0.102968 0.103583 0.103540
0.040880 0.040853 0.041131
0.171961 0.172449 0.174192
0.066923 0.066746 0.066683
0.193357 0.193216 0.193042
0.056582 0.056267 0.055433
0.243635 0.241864 0.240228
0.109187 0.108707 0.107744
0.169830 0.167647 0.166379
0.039992 0.039872 0.039538
0.117314 0.117400 0.114900
0.207704 0.207074 0.206277
0.110894 0.110796 0.110108
0.108264 0.107242 0.105677
0.169700 0.167182 0.165145
0.056396 0.055547 0.054648
0.086263 0.091905 0.093700
0.183497 0.184958 0.183124
0.117417 0.118281 0.119087
0.096703 0.097322 0.097260
0.165195 0.167560 0.169305
0.043954 0.043835 0.043861
0.171761 0.170956 0.170275
0.164779 0.160109 0.158680
0.089926 0.092586 0.094783
0.056115 0.054877 0.054838
0.235830 0.237140 0.240029
0.228732 0.228846 0.229589
0.106604 0.106104 0.105490
0.126746 0.126670 0.126658
0.231631 0.231727 0.232153
0.169521 0.169698 0.168338
0.055929 0.055157 0.054970
0.244056 0.243188 0.242922
0.140969 0.140335 0.139299
0.175661 0.176824 0.180239
0.052627 0.053323 0.053168
0.046573 0.046755 0.046667
0.065487 0.063912 0.061625
0.069838 0.071660 0.072472
0.043904 0.043631 0.043612
0.068526 0.068589 0.068682
0.170630 0.169772 0.168610
0.040946 0.041058 0.041465
0.203588 0.193657 0.191818
0.167489 0.170615 0.169098
0.158900 0.161230 0.163258
0.174425 0.176255 0.174450
0.168466 0.167606 0.167595
0.205933 0.205470 0.205290
0.159115 0.159461 0.160078
0.042271 0.041740 0.041218
0.056757 0.056673 0.057115
0.173831 0.174081 0.172045
0.171879 0.171951 0.172155
0.174407 0.174754 0.174642
0.185085 0.184913 0.183937
0.042051 0.041863 0.042025
0.174362 0.173106 0.172113
0.176501 0.177485 0.177291
0.105382 0.105272 0.105810
0.082128 0.081039 0.078351
0.043938 0.043941 0.043591
0.133934 0.133634 0.134297
0.041604 0.041763 0.041486
0.181047 0.180427 0.179427
0.206879 0.211349 0.213109
0.171677 0.171371 0.170912
0.156672 0.156777 0.156789
0.059668 0.059949 0.058785
0.048441 0.048610 0.048617
0.074313 0.074058 0.074108
0.211332 0.212019 0.212270
0.040847 0.040548 0.040436
0.070445 0.070512 0.070983
0.206520 0.208598 0.207345
0.190304 0.188163 0.187283
0.160690 0.159628 0.157741
0.190306 0.191396 0.194132
0.170425 0.169297 0.168061
0.184248 0.181301 0.180621
0.161833 0.161896 0.163083
0.181695 0.182484 0.182355
0.178387 0.178431 0.179279
0.161930 0.161242 0.162349
0.167979 0.167994 0.166910
0.068815 0.068085 0.070688
0.039545 0.039880 0.039912
0.228178 0.224680 0.223670
0.170018 0.170208 0.170620
0.206761 0.206480 0.205168
0.106889 0.106494 0.105562
0.196081 0.195344 0.194912
0.070808 0.069754 0.069048
0.062493 0.061084 0.060900
0.232700 0.233143 0.232568
0.052846 0.052803 0.052961
0.047972 0.047786 0.047115
0.162801 0.163579 0.164065
0.065972 0.064075 0.062460
0.243993 0.245276 0.246930
0.166726 0.167230 0.166452
0.209111 0.211321 0.211712
0.088743 0.088884 0.089406
0.142213 0.143024 0.143410
0.096323 0.096371 0.095846
0.054186 0.054321 0.054303
0.048429 0.048466 0.048554
0.228548 0.228391 0.228956
0.201998 0.203389 0.205279
0.119033 0.119604 0.121688
0.151077 0.146782 0.144652
0.156685 0.155703 0.155265
0.064366 0.062730 0.062478
0.178518 0.178297 0.179367
0.057756 0.056561 0.056404
0.132346 0.138285 0.150999
0.159903 0.160484 0.159784
0.210663 0.210533 0.212121
0.106716 0.107208 0.108307
0.043966 0.043590 0.043768
0.151433 0.152484 0.152970
0.180632 0.180099 0.179273
0.060766 0.061126 0.061381
0.174465 0.174961 0.183068
0.243693 0.246120 0.251325
0.176903 0.177635 0.178423
0.207736 0.206544 0.207778
0.099645 0.099186 0.099358
0.077361 0.077546 0.077527
0.073502 0.073904 0.073954
0.196513 0.196609 0.197724
0.056555 0.056971 0.056146
0.071500 0.072226 0.072325
0.241452 0.241757 0.242926
0.071374 0.071454 0.070164
0.164761 0.164938 0.167017
0.189325 0.189524 0.189026
0.207582 0.207233 0.207051
0.112465 0.112744 0.112925
0.042310 0.042463 0.042788
0.121385 0.121402 0.121535
0.135182 0.136368 0.136225
0.073204 0.073026 0.072991
0.052066 0.053554 0.053965
0.209302 0.207389 0.207759
0.044382 0.044071 0.043910
0.265070 0.266605 0.267940
0.041614 0.041545 0.041377
0.088455 0.088872 0.086456
0.169260 0.169637 0.170684
0.169110 0.169003 0.167684
0.113350 0.113521 0.114156
0.071552 0.072368 0.072290
0.211936 0.213942 0.213484
0.046473 0.047999 0.050553
0.042209 0.042285 0.041858
0.146482 0.149092 0.159864
0.187030 0.186238 0.187608
0.292063 0.291878 0.290995
0.072858 0.072720 0.072493
