0.047560 0.047523 0.047126
0.190617 0.190117 0.184782
0.184914 0.184806 0.185077
0.057660 0.057781 0.057785
0.180595 0.180544 0.180574
0.076537 0.076358 0.076617
0.198766 0.198478 0.209246
0.137846 0.135916 0.136928
0.035598 0.035727 0.035803
0.110448 0.109845 0.108501
0.154020 0.153704 0.154534
0.158933 0.158639 0.159210
0.094639 0.094730 0.094360
0.050649 0.050115 0.049960
0.267735 0.266662 0.259317
0.159898 0.159612 0.160016
0.174948 0.175058 0.175462
0.055810 0.056099 0.056240
0.239096 0.238375 0.240424
0.190769 0.189912 0.193320
0.117304 0.117832 0.119517
0.058312 0.058305 0.058247
0.055830 0.056435 0.056471
0.181622 0.176134 0.175005
0.166062 0.166968 0.167031
0.075632 0.075783 0.075605
0.040611 0.040669 0.040445
0.038280 0.038501 0.038583
0.237214 0.238820 0.238232
0.111752 0.112475 0.112243
0.157899 0.154532 0.152037
0.134571 0.136585 0.134197
0.090637 0.090197 0.089627
0.159539 0.159724 0.159003
0.109605 0.110989 0.114110
0.174296 0.174283 0.175171
0.203026 0.201301 0.196719
0.150803 0.150815 0.151400
0.039557 0.039099 0.038738
0.148404 0.152951 0.154318
0.057847 0.056613 0.056046
0.055099 0.054770 0.053228
0.040342 0.040699 0.040349
0.234724 0.234128 0.232189
0.071684 0.071617 0.071588
0.054444 0.054470 0.053437
0.160801 0.161032 0.161189
0.128765 0.128765 0.130182
0.041820 0.041890 0.042160
0.062559 0.062413 0.061675
0.160229 0.160225 0.159231
0.103983 0.101144 0.098451
0.143259 0.143121 0.142343
0.144886 0.144600 0.146086
0.178071 0.182370 0.183915
0.118293 0.118614 0.118578
0.124814 0.124953 0.124241
0.146978 0.146240 0.146753
0.057759 0.057605 0.057834
0.186103 0.186498 0.186111
0.193346 0.193337 0.193435
0.162164 0.162741 0.163038
0.053419 0.052837 0.050890
0.069286 0.069516 0.070395
0.064378 0.063531 0.063050
0.202865 0.198951 0.197461
0.068760 0.068391 0.068142
0.137662 0.137267 0.137197
0.078120 0.077449 0.077458
0.055027 0.055123 0.055141
0.202603 0.204681 0.204463
0.164912 0.163623 0.164425
0.145416 0.141329 0.142960
0.209203 0.208772 0.208578
0.108354 0.108506 0.108398
0.038275 0.038201 0.038161
0.099743 0.098189 0.099317
0.040276 0.039495 0.038521
0.063971 0.063967 0.063967
0.167977 0.168758 0.168836
0.227265 0.227264 0.227200
0.220193 0.219680 0.219597
0.054032 0.054812 0.056463
0.052384 0.051314 0.051002
0.045526 0.045614 0.045656
0.112368 0.112099 0.111686
0.145190 0.145670 0.145108
0.161496 0.160234 0.159714
0.189812 0.188039 0.186360
0.067044 0.065610 0.064734
0.066187 0.067777 0.070928
0.099828 0.097914 0.095588
0.126334 0.126199 0.125833
0.185185 0.184876 0.185055
0.120360 0.120778 0.121497
0.118554 0.117352 0.116769
0.118871 0.120103 0.120299
0.043929 0.044278 0.044595
0.072264 0.073458 0.073522
0.045269 0.045019 0.044853
0.066342 0.067501 0.068056
0.186403 0.187402 0.187900
0.038426 0.038275 0.038124
0.162862 0.161345 0.160777
0.151788 0.151089 0.151793
0.135295 0.135465 0.135577
0.073351 0.073068 0.072565
0.119283 0.120127 0.122461
0.071609 0.071638 0.071553
0.084579 0.084665 0.084343
0.140741 0.140687 0.140657
0.203672 0.203790 0.202558
0.154531 0.153718 0.150897
0.157254 0.152827 0.151976
0.068053 0.068663 0.069532
0.065543 0.065015 0.064772
0.092306 0.092806 0.092458
0.056636 0.057205 0.056690
0.129568 0.130943 0.131890
0.073807 0.073257 0.072812
0.064555 0.065199 0.065154
0.212871 0.214600 0.215707
0.124560 0.124635 0.124572
0.164600 0.165326 0.165545
0.067137 0.067230 0.067478
0.158538 0.158319 0.157943
0.076075 0.076436 0.076697
0.150933 0.150781 0.150740
0.192564 0.193869 0.194520
0.101794 0.100839 0.099998
0.052679 0.053046 0.054074
0.030014 0.029971 0.029847
0.062601 0.062154 0.061969
0.151473 0.150377 0.148946
0.068688 0.070871 0.071453
0.074915 0.074218 0.074189
0.217641 0.216817 0.216883
0.062519 0.062596 0.062576
0.051397 0.051508 0.051650
0.228882 0.226100 0.225111
0.047549 0.047613 0.047637
0.068909 0.068760 0.069404
0.175714 0.175624 0.171978
0.037610 0.037625 0.038252
0.098104 0.098067 0.098258
0.169670 0.164727 0.164588
0.072898 0.072806 0.072817
0.143152 0.141147 0.140666
0.105188 0.104984 0.104960
0.040130 0.039952 0.039805
0.038890 0.038912 0.038940
0.109456 0.112395 0.112293
0.053175 0.053050 0.053317
0.115305 0.115666 0.116842
0.112949 0.112903 0.112991
0.220324 0.221061 0.222262
0.190994 0.190915 0.193888
0.045228 0.045125 0.044530
0.143135 0.142529 0.142655
0.062729 0.059610 0.059471
0.043724 0.043931 0.043698
0.122948 0.120617 0.125164
0.129556 0.130910 0.131735
0.155777 0.155144 0.153385
0.111467 0.111689 0.111863
0.029942 0.029847 0.029774
0.077459 0.077353 0.075348
0.053128 0.053601 0.054476
0.055961 0.055975 0.056242
0.129911 0.129156 0.128851
0.112897 0.113222 0.113129
0.052660 0.053518 0.053753
0.048994 0.049325 0.049750
0.139753 0.141471 0.141975
0.170424 0.172979 0.173653
0.149834 0.149271 0.149534
0.047019 0.046947 0.046694
0.053287 0.053568 0.053861
0.074394 0.074936 0.075266
0.036312 0.036329 0.037765
0.053828 0.053604 0.053402
0.055362 0.054932 0.054345
0.216152 0.216900 0.217172
0.074903 0.074407 0.074489
0.053683 0.053630 0.053225
0.054917 0.054845 0.054793
0.154084 0.157443 0.158286
0.057921 0.057936 0.057898
0.162634 0.162765 0.162231
0.246289 0.246667 0.247034
0.132597 0.131703 0.130256
0.066436 0.066464 0.065773
0.051234 0.051901 0.052401
0.126717 0.126334 0.125932
0.142542 0.142662 0.143009
0.118362 0.118345 0.118262
0.153953 0.163014 0.165056
0.056420 0.056018 0.055440
0.080268 0.079424 0.078528
0.157919 0.158606 0.158859
0.072901 0.072926 0.072877
0.086718 0.086223 0.085512
0.160823 0.160765 0.160454
0.122315 0.124163 0.124367
0.051852 0.052760 0.053864
0.177111 0.173420 0.174601
0.072402 0.072414 0.072360
0.152013 0.150949 0.150782
0.174186 0.174948 0.175058
0.072950 0.072762 0.072752
0.063840 0.063885 0.064282
0.045150 0.044888 0.044503
0.166087 0.166052 0.165964
0.065799 0.065258 0.065268
0.106268 0.107011 0.107000
0.077945 0.083171 0.089269
0.150113 0.150205 0.150651
0.042045 0.041967 0.042239
0.056961 0.057006 0.057170
0.048433 0.048650 0.048538
0.062522 0.062491 0.063173
0.119297 0.119281 0.119184
0.162779 0.162862 0.162500
0.174309 0.174468 0.175161
0.053923 0.054179 0.054083
0.154415 0.154792 0.154707
0.073212 0.073416 0.073022
0.062057 0.062336 0.062299
0.161456 0.161300 0.160379
0.184216 0.185404 0.191985
0.043014 0.043040 0.042940
0.169902 0.169148 0.169339
0.071666 0.071693 0.071502
0.191511 0.190675 0.186183
0.230062 0.229596 0.229318
0.055352 0.054926 0.053886
0.124076 0.125810 0.126097
0.166919 0.169938 0.170579
0.186267 0.186725 0.187133
0.219640 0.219688 0.220689
0.176086 0.177684 0.177994
0.046203 0.046300 0.046413
0.043015 0.044354 0.044575
0.042486 0.042785 0.042918
0.187200 0.187810 0.187630
0.218000 0.219113 0.218313
0.068436 0.068681 0.069812
0.210926 0.208458 0.204267
0.049821 0.049864 0.050018
0.067487 0.067186 0.067126
0.151232 0.150697 0.150407
0.084589 0.084473 0.084335
0.150051 0.149944 0.149901
0.132801 0.132871 0.132735
0.072793 0.072979 0.073124
0.105892 0.105938 0.107171
0.057720 0.057080 0.057157
0.058758 0.058970 0.058772
0.055166 0.055140 0.054744
0.152859 0.155567 0.161252
0.073708 0.072833 0.073355
0.059771 0.059722 0.059835
0.106723 0.105981 0.105983
0.099909 0.102762 0.103992
0.168233 0.168554 0.168027
0.045304 0.045503 0.045892
0.100241 0.098321 0.097941
0.131701 0.132649 0.132348
0.049303 0.049414 0.048988
0.113920 0.113745 0.112990
0.181313 0.182485 0.183141
0.111002 0.110819 0.110709
0.050469 0.050268 0.050565
0.084433 0.084420 0.084498
0.050169 0.050417 0.050404
0.244658 0.243654 0.243698
0.055963 0.056029 0.055660
0.151697 0.151514 0.161445
0.059766 0.059484 0.059033
0.225404 0.223038 0.217977
0.208069 0.207971 0.207762
0.160204 0.159799 0.159552
0.220105 0.220264 0.220681
0.186111 0.185938 0.185872
0.054586 0.054675 0.054768
0.173189 0.173414 0.173814
0.123460 0.120686 0.119787
0.151123 0.153837 0.155479
0.071330 0.071728 0.072545
0.061992 0.061696 0.061635
0.055035 0.054607 0.054610
0.069794 0.069924 0.071378
0.067631 0.067529 0.067187
0.227151 0.226965 0.229479
0.108273 0.108301 0.108476
0.053600 0.054363 0.054333
0.213780 0.213757 0.211829
0.049377 0.049421 0.050409
0.164431 0.161648 0.157213
0.053430 0.053419 0.052837
0.122996 0.120963 0.123033
0.105203 0.106463 0.106550
0.052858 0.052670 0.052409
0.245141 0.246170 0.243429
0.049953 0.049836 0.049590
0.138684 0.138254 0.138087
0.068331 0.068377 0.068378
0.187350 0.186100 0.184885
0.152114 0.152662 0.154731
0.120501 0.117833 0.117335
0.109715 0.110030 0.109929
0.125398 0.125832 0.125396
0.127411 0.127465 0.127456
0.053423 0.053449 0.053764
0.238031 0.237181 0.237205
0.047309 0.047585 0.047292
0.061420 0.061318 0.060854
0.135020 0.134056 0.132675
0.181079 0.176845 0.172205
0.054922 0.054662 0.054604
0.042288 0.042394 0.042477
0.095998 0.095992 0.096363
0.142464 0.141767 0.141426
0.235685 0.235912 0.236518
0.059412 0.058920 0.058449
0.054280 0.054147 0.054967
0.197582 0.198107 0.198597
0.125077 0.123921 0.127411
0.111685 0.112907 0.114071
0.043785 0.043313 0.043146
0.106606 0.105289 0.104689
0.099652 0.099203 0.099746
0.074766 0.074727 0.076194
0.035725 0.036035 0.036177
0.202496 0.202459 0.207971
0.219134 0.219607 0.220342
0.059803 0.059645 0.059520
0.142529 0.142655 0.143312
0.039858 0.040274 0.040490
0.138074 0.139319 0.138635
0.047057 0.046743 0.046519
0.065779 0.066187 0.067777
0.078357 0.078220 0.078439
0.068344 0.068291 0.068808
0.123348 0.127382 0.129948
0.051480 0.051869 0.051864
0.049534 0.050120 0.050181
0.063048 0.062333 0.062762
0.067404 0.067618 0.067914
0.152827 0.152008 0.151432
0.139666 0.138807 0.138217
0.042367 0.042372 0.042571
0.148011 0.152395 0.152749
0.143190 0.143231 0.141908
0.043221 0.043167 0.042887
0.065918 0.066200 0.066865
0.132925 0.132261 0.133100
0.064167 0.064082 0.064238
0.049046 0.049761 0.049644
0.164046 0.164428 0.164216
0.081557 0.083043 0.083374
0.056292 0.056079 0.055367
0.058014 0.057682 0.057526
0.077627 0.077892 0.078024
0.207492 0.206682 0.205723
0.054605 0.054564 0.054162
0.043664 0.043240 0.042839
0.058749 0.058381 0.058227
0.121155 0.122230 0.123060
0.187774 0.187252 0.187642
0.077599 0.077663 0.078048
0.152546 0.149816 0.149052
0.030015 0.029908 0.029807
0.044164 0.043915 0.044434
0.128254 0.128469 0.128054
0.266209 0.279498 0.280458
0.181145 0.181215 0.181584
0.057275 0.057799 0.058133
0.171843 0.172433 0.171184
0.072760 0.073043 0.072292
0.125668 0.125171 0.125719
0.124273 0.124122 0.124058
0.139269 0.138283 0.143210
0.148208 0.147472 0.144982
0.157636 0.159713 0.163288
0.072883 0.072730 0.072459
0.108585 0.107808 0.107484
0.065865 0.067219 0.067409
0.115010 0.114376 0.113055
0.172498 0.167363 0.166946
0.134470 0.135484 0.135337
0.072152 0.078022 0.080139
0.053581 0.053107 0.052825
0.166727 0.166565 0.166293
0.054690 0.054533 0.054252
0.065479 0.065851 0.065333
0.195242 0.196532 0.197295
0.151568 0.156128 0.162592
0.048521 0.048592 0.049047
0.185895 0.186488 0.186400
0.185540 0.185862 0.188459
0.053279 0.053300 0.053422
0.132398 0.136546 0.136850
0.048670 0.048552 0.048558
0.161187 0.160237 0.159882
0.046976 0.047191 0.047328
0.061637 0.061436 0.061171
0.140788 0.140668 0.141112
0.055549 0.055495 0.055430
0.088136 0.085432 0.084805
0.168726 0.166434 0.166764
0.231283 0.231613 0.231664
0.118853 0.117779 0.116787
0.213708 0.213161 0.213032
0.054691 0.054425 0.053976
0.176837 0.183984 0.184833
0.061580 0.062761 0.063542
0.059543 0.059530 0.059978
0.140804 0.140774 0.141191
0.046094 0.046067 0.046286
0.048040 0.048096 0.047940
0.154189 0.154519 0.153258
0.158680 0.154008 0.153478
0.201730 0.203112 0.206389
0.183213 0.182238 0.180955
0.112379 0.111577 0.111373
0.058216 0.057575 0.057568
0.155817 0.154353 0.155147
0.028495 0.029028 0.029061
0.189605 0.193382 0.194149
0.184390 0.175827 0.175263
0.175493 0.175676 0.175269
0.052046 0.051768 0.051337
0.086799 0.084573 0.083156
0.140480 0.141360 0.141201
0.133299 0.133142 0.133120
0.175829 0.174428 0.174319
0.173366 0.174071 0.173800
0.102812 0.099184 0.097110
0.195870 0.195222 0.189503
0.170777 0.169894 0.169794
0.092581 0.093838 0.094567
0.049918 0.048460 0.047973
0.050642 0.050455 0.051252
0.120319 0.119866 0.120067
0.065116 0.064974 0.065261
0.067260 0.067235 0.067170
0.077451 0.079400 0.079186
0.073162 0.072781 0.073168
0.050238 0.050742 0.051252
0.060334 0.060453 0.060561
0.029600 0.030116 0.030185
0.110960 0.111290 0.111484
0.219489 0.220679 0.222355
0.166427 0.166408 0.166644
0.044380 0.044265 0.045294
0.166602 0.166087 0.166052
0.140187 0.140605 0.140494
0.055939 0.055960 0.056039
0.052074 0.052076 0.052067
0.041505 0.041376 0.041903
0.166935 0.167811 0.169233
0.063091 0.063328 0.063485
0.056536 0.056815 0.056875
0.088064 0.088051 0.088019
0.151282 0.150815 0.150249
0.047914 0.048001 0.048122
0.145906 0.145821 0.146408
0.188835 0.188604 0.188506
0.159464 0.160021 0.161531
0.173139 0.173686 0.175535
0.166043 0.166040 0.166107
0.058246 0.058184 0.057944
0.106553 0.108637 0.120535
0.069219 0.069349 0.069686
0.154484 0.154275 0.153879
0.050060 0.042569 0.030120
0.078508 0.078146 0.078108
0.149222 0.152886 0.154052
0.039650 0.039674 0.039700
0.179646 0.181313 0.182485
0.129063 0.129949 0.132194
0.156894 0.154713 0.152807
0.149665 0.148498 0.147929
0.052863 0.052918 0.052881
0.121149 0.121160 0.121014
0.214907 0.217629 0.216931
0.157614 0.157455 0.157155
0.074378 0.074355 0.073251
0.050416 0.050546 0.050807
0.083672 0.083518 0.083419
0.148360 0.149768 0.149506
0.145626 0.146016 0.145600
0.051351 0.051790 0.051952
0.050104 0.049661 0.050122
0.168523 0.167378 0.165472
0.179782 0.176882 0.172240
0.151105 0.151996 0.151153
0.215352 0.215832 0.214607
0.127336 0.127940 0.128408
0.077372 0.077411 0.077277
0.185575 0.184793 0.184725
0.149278 0.149526 0.149487
0.102407 0.100324 0.100821
0.234264 0.234247 0.232460
0.190365 0.190828 0.190732
0.086092 0.086256 0.087448
0.134333 0.134005 0.131555
0.195004 0.195393 0.195527
0.169885 0.169747 0.170066
0.054796 0.054749 0.054743
0.222881 0.223760 0.224052
0.139410 0.141482 0.144687
0.150700 0.146151 0.141348
0.166041 0.166332 0.167714
0.111739 0.113854 0.114310
0.054665 0.054517 0.053687
0.164145 0.163663 0.163399
0.037282 0.036475 0.035457
0.060805 0.060418 0.060505
0.177216 0.176313 0.176947
0.057197 0.057462 0.056161
0.156367 0.152819 0.150167
0.090623 0.101193 0.103211
0.055707 0.054130 0.053405
0.149524 0.149620 0.149411
0.051466 0.051654 0.051806
0.122096 0.123749 0.127795
0.132651 0.132530 0.132850
0.052343 0.051074 0.049257
0.071312 0.071202 0.070910
0.106998 0.105952 0.105191
0.057936 0.057897 0.057829
0.053096 0.052913 0.052959
0.057537 0.057165 0.057277
0.049615 0.049517 0.049523
0.168581 0.166702 0.166757
0.232093 0.231317 0.226801
0.045556 0.045860 0.045848
0.139688 0.138703 0.138821
0.142907 0.142709 0.141833
0.216109 0.214833 0.210552
0.161477 0.161689 0.161976
0.081996 0.083229 0.083544
0.137044 0.137036 0.137172
0.131762 0.129061 0.128489
0.133484 0.134786 0.135853
0.066809 0.066821 0.066912
0.172447 0.172317 0.172693
0.041946 0.041754 0.041876
0.054067 0.053602 0.053448
0.135876 0.135855 0.132482
0.070526 0.070594 0.071206
0.035762 0.035755 0.035917
0.062193 0.062567 0.062567
0.150857 0.155814 0.158227
0.243753 0.248381 0.257907
0.076263 0.076270 0.076117
0.042127 0.041652 0.041963
0.059882 0.059150 0.057390
0.066906 0.066701 0.066097
0.156533 0.156316 0.155757
0.144367 0.145122 0.145559
0.044635 0.045218 0.045055
0.043618 0.043158 0.043215
0.042781 0.042852 0.043108
0.044844 0.045160 0.045282
0.229509 0.228172 0.224801
0.059659 0.058099 0.057895
0.212963 0.210811 0.207659
0.049659 0.049615 0.049517
0.043693 0.043495 0.043236
0.147822 0.151790 0.148900
0.152804 0.156947 0.159924
0.159775 0.158726 0.158617
0.145607 0.146259 0.146340
0.174480 0.169620 0.168560
0.095871 0.096516 0.097010
0.111490 0.111384 0.111704
0.074456 0.073226 0.072819
0.043927 0.043697 0.043624
0.054495 0.055766 0.056344
0.040694 0.040594 0.040628
0.185366 0.186768 0.188809
0.060016 0.060287 0.060421
0.070616 0.070772 0.070792
0.055123 0.055141 0.055156
0.121956 0.121160 0.121154
0.213313 0.213497 0.213816
0.183823 0.182154 0.180847
0.053942 0.053792 0.053833
0.042306 0.042115 0.041402
0.172499 0.173495 0.174020
0.253809 0.265198 0.265906
0.043139 0.043352 0.043864
0.044205 0.043504 0.043072
0.166899 0.175151 0.176620
0.210587 0.210288 0.207492
0.065975 0.066020 0.064929
0.194240 0.194578 0.194725
0.225757 0.225576 0.225006
0.173892 0.175500 0.175581
0.178697 0.178228 0.177919
0.118807 0.118483 0.116154
0.042341 0.042724 0.042634
0.216872 0.215963 0.215355
0.105039 0.105293 0.105444
0.185742 0.184945 0.185047
0.085034 0.085158 0.085060
0.061999 0.061871 0.061878
0.232098 0.231525 0.229398
0.178826 0.175547 0.169706
0.055207 0.055069 0.054984
0.228260 0.228404 0.228700
0.151000 0.150762 0.150691
0.071584 0.071736 0.071408
0.045636 0.045636 0.045475
0.064008 0.065377 0.066930
0.068112 0.067781 0.067169
0.054928 0.053259 0.053190
0.065685 0.065670 0.065794
0.165019 0.166776 0.166935
0.221802 0.222144 0.222127
0.138297 0.140680 0.139804
0.067530 0.068168 0.068890
0.052213 0.051554 0.051654
0.161104 0.161452 0.161143
0.167049 0.167074 0.167341
0.064736 0.065069 0.065045
0.049576 0.049477 0.049511
0.042724 0.042634 0.042725
0.234305 0.234353 0.232900
0.073839 0.075132 0.075123
0.053721 0.053589 0.053590
0.053959 0.053827 0.053879
0.110746 0.110140 0.110001
0.233751 0.231718 0.232254
0.100543 0.100676 0.102740
0.099214 0.104020 0.104238
0.181368 0.181085 0.181068
0.155818 0.155862 0.155616
0.047265 0.046957 0.046291
0.263387 0.250547 0.248606
0.190439 0.190901 0.190696
0.068186 0.067950 0.067877
0.040429 0.040320 0.040180
0.166384 0.166395 0.166259
0.211539 0.211061 0.211011
0.186132 0.183700 0.187912
0.246077 0.245113 0.243961
0.072997 0.072713 0.072057
0.073974 0.073830 0.074565
0.099435 0.097597 0.094897
0.056469 0.055968 0.055722
0.050215 0.050189 0.050195
0.133036 0.133098 0.132862
0.047364 0.047337 0.047809
0.140640 0.140451 0.140603
0.072815 0.072910 0.072960
0.042684 0.042866 0.043035
0.145218 0.145860 0.146292
0.203223 0.200917 0.200290
0.150785 0.151036 0.151019
0.134836 0.134226 0.133790
0.059407 0.055534 0.054277
0.096663 0.092306 0.092806
0.075464 0.075573 0.075544
0.123799 0.123569 0.123207
0.115406 0.116902 0.118967
0.047540 0.047439 0.047051
0.057773 0.057724 0.057639
0.154470 0.153439 0.152472
0.064699 0.064913 0.065031
0.227282 0.227347 0.227628
0.055953 0.055941 0.056030
0.142689 0.142570 0.142483
0.107961 0.107796 0.104931
0.143963 0.147660 0.148983
0.054010 0.054261 0.054219
0.089448 0.075698 0.071956
0.067510 0.067860 0.068729
0.055080 0.055302 0.055654
0.141794 0.139891 0.139825
0.115845 0.115597 0.114172
0.109945 0.109900 0.109840
0.052667 0.052452 0.051988
0.154913 0.153756 0.153812
0.083574 0.083374 0.083379
0.232366 0.232024 0.231998
0.177760 0.177901 0.178608
0.146244 0.146241 0.147041
0.094081 0.092920 0.089689
0.193333 0.191704 0.190015
0.040624 0.040764 0.040817
0.154366 0.152046 0.152247
0.202368 0.201691 0.201535
0.040138 0.040506 0.040831
0.234755 0.235536 0.234743
0.059302 0.059583 0.059760
0.138156 0.138742 0.139065
0.054627 0.054750 0.054881
0.151371 0.153570 0.154339
0.062824 0.060903 0.060842
0.176325 0.177908 0.178293
0.121399 0.119981 0.119682
0.053053 0.052609 0.052185
0.045767 0.045652 0.045794
0.055751 0.055917 0.055921
0.148303 0.148235 0.147788
0.163049 0.163346 0.163259
0.057094 0.057199 0.057163
0.232540 0.230878 0.230245
0.103508 0.108620 0.115221
0.067248 0.067480 0.068278
0.108874 0.110179 0.112363
0.162213 0.161693 0.161535
0.054397 0.054777 0.055257
0.054244 0.055239 0.055666
0.107920 0.105979 0.105777
0.105680 0.105634 0.105623
0.127199 0.131469 0.132523
0.121487 0.121306 0.121266
0.056940 0.057171 0.057619
0.067490 0.067166 0.066436
0.184723 0.184066 0.179020
0.047822 0.047402 0.047162
0.152430 0.151571 0.150679
0.043800 0.043958 0.043853
0.219950 0.223499 0.224039
0.046023 0.046335 0.046436
0.040506 0.040831 0.040662
0.182915 0.179343 0.179281
0.158878 0.159616 0.159796
0.116427 0.113255 0.112897
0.185771 0.187911 0.188111
0.072420 0.072436 0.072338
0.043740 0.043814 0.043817
0.056330 0.056307 0.056194
0.234875 0.234297 0.234727
0.284605 0.284286 0.283851
0.045202 0.045537 0.046998
0.181216 0.181096 0.180693
0.153800 0.154084 0.157443
0.168758 0.168836 0.168612
0.140382 0.140652 0.140203
0.042327 0.042534 0.042613
0.199070 0.200203 0.200605
0.058385 0.058082 0.057850
0.181720 0.178858 0.178734
0.072347 0.072420 0.072392
0.145665 0.145342 0.146633
0.084572 0.084364 0.084478
0.056565 0.056745 0.057326
0.234387 0.234613 0.232001
0.043210 0.043191 0.043093
0.152590 0.152527 0.152882
0.158020 0.157737 0.156901
0.120920 0.118058 0.118441
0.152423 0.153143 0.152957
0.049937 0.049882 0.049573
0.198000 0.193914 0.191413
0.133309 0.133221 0.133059
0.057820 0.057595 0.057642
0.133139 0.133117 0.133152
0.231167 0.229625 0.228347
0.057378 0.057759 0.057742
0.068320 0.068324 0.068285
0.140469 0.140814 0.141587
0.048139 0.048372 0.049662
0.190101 0.189930 0.189201
0.163254 0.163773 0.162570
0.088498 0.088136 0.085432
0.073536 0.074392 0.077497
0.166028 0.164782 0.163382
0.119112 0.118554 0.117352
0.219323 0.221489 0.228326
0.188781 0.189293 0.187980
0.057148 0.056701 0.056724
0.093484 0.097442 0.097973
0.050021 0.048374 0.032726
0.078130 0.078421 0.078679
0.141611 0.141278 0.142532
0.048724 0.048219 0.048359
0.069789 0.069484 0.069223
0.270414 0.268744 0.270410
0.155901 0.155436 0.153536
0.068468 0.068215 0.067896
0.057657 0.057478 0.057489
0.160193 0.159768 0.159266
0.070353 0.068858 0.068389
0.226792 0.227360 0.227378
0.168448 0.168222 0.168326
0.049909 0.050635 0.051312
0.050701 0.050630 0.050621
0.192723 0.193386 0.195120
0.119702 0.122709 0.126017
0.101462 0.101610 0.101839
0.147406 0.148665 0.149858
0.129617 0.129553 0.129490
0.133376 0.131850 0.131481
0.054015 0.053862 0.053408
0.161188 0.159669 0.154029
0.044572 0.044971 0.045955
0.065131 0.064669 0.064434
0.136943 0.137672 0.137579
0.137700 0.137702 0.137221
0.153141 0.153713 0.154585
0.162723 0.164201 0.164405
0.076176 0.075796 0.075549
0.083846 0.083445 0.084371
0.123832 0.124034 0.125539
0.058333 0.058175 0.057861
0.206707 0.206540 0.206648
0.124460 0.124494 0.125614
0.062737 0.062628 0.062497
0.150069 0.150321 0.150389
0.064181 0.064108 0.064148
0.079424 0.078528 0.077499
0.161672 0.162197 0.159321
0.144830 0.144080 0.142512
0.132038 0.137954 0.139807
0.075729 0.075100 0.075071
0.216071 0.215791 0.216132
0.179946 0.180423 0.185271
0.123377 0.123761 0.121240
0.063047 0.062685 0.062644
0.175545 0.174981 0.174661
0.186004 0.185163 0.183015
0.050412 0.050516 0.050549
0.053449 0.053764 0.053626
0.206292 0.206303 0.206549
0.044678 0.044572 0.044971
0.068115 0.067889 0.066753
0.058314 0.058049 0.058235
0.115006 0.114636 0.114027
0.054235 0.054900 0.054798
0.044713 0.045344 0.044887
0.114914 0.119056 0.120015
0.070552 0.069808 0.068080
0.130111 0.129771 0.129441
0.051128 0.051288 0.051335
0.154805 0.156181 0.156416
0.067595 0.067834 0.067766
0.055976 0.056459 0.056638
0.173754 0.175087 0.175608
0.085996 0.083737 0.078748
0.045677 0.045820 0.045518
0.076392 0.077956 0.079046
0.138744 0.139241 0.140922
0.170522 0.171234 0.171619
0.042577 0.043055 0.043188
0.187912 0.186179 0.184659
0.207466 0.207538 0.207319
0.167686 0.167312 0.167298
0.077222 0.077205 0.077116
0.047045 0.046698 0.046632
0.229759 0.229660 0.229624
0.133575 0.132558 0.131098
0.042032 0.042079 0.042277
0.081772 0.082376 0.081509
0.072392 0.072299 0.072242
0.142507 0.142323 0.141976
0.106361 0.109555 0.111220
0.111083 0.111463 0.111946
0.054617 0.054484 0.054462
0.178890 0.177324 0.177160
0.106558 0.107481 0.107848
0.131089 0.132992 0.130367
0.067166 0.066436 0.065806
0.053523 0.053242 0.053052
0.123367 0.122399 0.126209
0.136367 0.137193 0.139119
0.110886 0.110986 0.110709
0.168259 0.168600 0.168830
0.128512 0.124498 0.123802
0.067389 0.067516 0.067521
0.042315 0.041899 0.041924
0.062630 0.061794 0.061275
0.159398 0.158823 0.157463
0.044648 0.043867 0.043853
0.260935 0.259553 0.259012
0.059542 0.059520 0.059064
0.136639 0.137061 0.137574
0.076163 0.076217 0.076395
0.044800 0.044488 0.045031
0.130904 0.130220 0.129668
0.148461 0.148744 0.148998
0.072948 0.072915 0.072900
0.142388 0.138856 0.138526
0.103558 0.103914 0.104364
0.173271 0.172370 0.171498
0.039771 0.039791 0.039806
0.110829 0.111729 0.108002
0.132712 0.132160 0.133376
0.199291 0.198865 0.198645
0.229344 0.229792 0.230007
0.043830 0.043862 0.043787
0.066820 0.065834 0.065950
0.132802 0.130729 0.131141
0.142484 0.142142 0.141915
0.065442 0.066350 0.067506
0.043946 0.043964 0.043901
0.137698 0.139891 0.142425
0.130782 0.132915 0.133424
0.053849 0.053619 0.053475
0.140888 0.139410 0.141482
0.147011 0.147710 0.148257
0.056095 0.055939 0.055262
0.044785 0.047021 0.047354
0.133189 0.132767 0.132686
0.039894 0.039774 0.039695
0.103352 0.103306 0.103362
0.073550 0.073218 0.073312
0.203429 0.215571 0.216093
0.104830 0.105364 0.108242
0.231194 0.229989 0.229291
0.044607 0.044333 0.043983
0.064485 0.063091 0.063328
0.050810 0.050599 0.050936
0.169823 0.170789 0.169571
0.217808 0.215822 0.214270
0.095495 0.098723 0.099825
0.046251 0.046000 0.046162
0.116006 0.125594 0.126914
0.148086 0.147654 0.142790
0.042903 0.042679 0.042684
0.055586 0.054986 0.054731
0.048379 0.048259 0.048220
0.235563 0.232761 0.231592
0.160207 0.163079 0.169251
0.044848 0.044453 0.044190
0.186021 0.183267 0.181330
0.175097 0.175793 0.174644
0.148466 0.154264 0.153159
0.112900 0.112992 0.113109
0.052225 0.052289 0.052509
0.147884 0.149687 0.149462
0.238739 0.227471 0.219488
0.226134 0.226195 0.226375
0.149800 0.147871 0.147369
0.112894 0.113192 0.115763
0.077742 0.077937 0.077867
0.057538 0.057770 0.057747
0.045393 0.045370 0.045244
0.137304 0.139802 0.139748
0.070957 0.069262 0.068389
0.074035 0.072461 0.072294
0.086625 0.086621 0.086687
0.192694 0.193646 0.195768
0.103448 0.103408 0.103642
0.060364 0.060712 0.062005
0.158956 0.158023 0.157058
0.170249 0.169984 0.169802
0.260516 0.260863 0.260915
0.054440 0.054096 0.054184
0.065982 0.066074 0.065771
0.068295 0.068457 0.068049
0.059884 0.060251 0.061082
0.261026 0.261079 0.264841
0.166077 0.167183 0.167570
0.143159 0.142883 0.143192
0.060999 0.061385 0.061520
0.237586 0.236416 0.232651
0.102820 0.102910 0.102914
0.163404 0.162680 0.162835
0.161688 0.160229 0.160225
0.183716 0.181615 0.182769
0.230365 0.229662 0.229534
0.130836 0.132056 0.132543
0.048181 0.048271 0.048340
0.148652 0.148114 0.152751
0.055343 0.055477 0.055867
0.134072 0.133925 0.134722
0.054286 0.054034 0.053939
0.053914 0.054608 0.055233
0.066095 0.065662 0.063555
0.056098 0.056302 0.056220
0.127380 0.127166 0.126441
0.206371 0.203656 0.203701
0.065939 0.066219 0.065693
0.052082 0.052179 0.052251
0.152715 0.152819 0.155870
0.051119 0.051258 0.051647
0.044503 0.044597 0.044951
0.162038 0.161918 0.161034
0.095205 0.094971 0.094491
0.162494 0.162616 0.162663
0.180302 0.188569 0.191245
0.137195 0.136304 0.135351
0.160536 0.160859 0.161670
0.072415 0.072420 0.073717
0.143562 0.141300 0.141119
0.075758 0.075667 0.076116
0.150459 0.151079 0.151160
0.125191 0.124951 0.123259
0.193018 0.193212 0.193415
0.052224 0.052076 0.052084
0.151324 0.151250 0.151200
0.058559 0.058333 0.058175
0.046927 0.047171 0.047144
