0.167239 0.169236 0.169867
0.172327 0.170101 0.161871
0.150965 0.150344 0.149850
0.181751 0.180953 0.180953
0.263683 0.264281 0.264788
0.173894 0.168726 0.167687
0.166958 0.167084 0.167543
0.213566 0.212918 0.212457
0.219457 0.219690 0.219493
0.186360 0.185715 0.183939
0.213962 0.214699 0.214291
0.166917 0.166558 0.167635
0.228146 0.235871 0.235851
0.185400 0.184024 0.184185
0.171696 0.174153 0.174126
0.181920 0.182059 0.183646
0.166295 0.166129 0.165875
0.218233 0.219312 0.219982
0.186724 0.185529 0.184947
0.187774 0.185958 0.185963
0.166978 0.167491 0.167225
0.164766 0.153696 0.151360
0.158949 0.159455 0.160267
0.225213 0.226429 0.226546
0.224013 0.224612 0.224571
0.222488 0.222117 0.222229
0.158053 0.157891 0.157157
0.156000 0.153890 0.146571
0.216024 0.214663 0.217981
0.180914 0.179150 0.178549
0.203044 0.191963 0.190868
0.178081 0.178366 0.177464
0.199305 0.200156 0.201151
0.193647 0.193016 0.193796
0.156537 0.159213 0.158492
0.173932 0.174502 0.174198
0.181901 0.181921 0.182442
0.212936 0.212601 0.212737
0.224044 0.224061 0.224045
0.173352 0.173527 0.173495
0.166812 0.166615 0.166370
0.180062 0.181000 0.181296
0.186861 0.186344 0.198803
0.207554 0.207460 0.206777
0.197647 0.197737 0.198321
0.242846 0.242702 0.244893
0.209270 0.209725 0.219341
0.172711 0.172661 0.174839
0.187567 0.186883 0.185881
0.187519 0.185798 0.185608
0.189306 0.189043 0.189375
0.182001 0.180121 0.180144
0.240022 0.239466 0.239250
0.249535 0.247960 0.247002
0.158045 0.157572 0.158313
0.183591 0.183742 0.185296
0.184465 0.184187 0.184420
0.152772 0.150823 0.143193
0.188425 0.190059 0.196814
0.189030 0.189472 0.193311
0.176477 0.177465 0.178903
0.160560 0.156795 0.158088
0.198734 0.198950 0.199513
0.219455 0.218152 0.220038
0.198666 0.198552 0.198678
0.248838 0.248915 0.247505
0.154128 0.154178 0.154938
0.198705 0.198666 0.198552
0.206497 0.206790 0.206298
0.208973 0.208895 0.209147
0.182387 0.181502 0.180874
0.183494 0.183750 0.185468
0.248113 0.247627 0.234371
0.170900 0.172044 0.172671
0.200334 0.195968 0.195406
0.208705 0.211295 0.207840
0.172774 0.172773 0.178221
0.164263 0.163256 0.162806
0.151306 0.148657 0.148884
0.219149 0.218886 0.218650
0.193545 0.194269 0.195229
0.199945 0.198770 0.198431
0.166204 0.166403 0.164549
0.182926 0.183719 0.183639
0.164956 0.165275 0.165758
0.147446 0.147525 0.148183
0.182811 0.182874 0.183331
0.245333 0.245082 0.244505
0.225070 0.224882 0.224705
0.245217 0.246195 0.246237
0.192378 0.192464 0.192443
0.212016 0.215104 0.214855
0.162431 0.161190 0.157179
0.158607 0.158773 0.159699
0.215494 0.214196 0.214188
0.186209 0.187398 0.187128
0.236965 0.237525 0.238791
0.208734 0.210783 0.210851
0.171608 0.170977 0.170359
0.193753 0.193820 0.193882
0.182724 0.183259 0.182890
0.212869 0.212544 0.212481
0.172804 0.193727 0.198705
0.266659 0.265879 0.265816
0.226976 0.225876 0.226416
0.226468 0.226302 0.225862
0.181618 0.181065 0.180936
0.180761 0.182734 0.187279
0.159756 0.159473 0.160102
0.211718 0.213149 0.212542
0.302954 0.303899 0.305252
0.215034 0.203883 0.202918
0.240138 0.240124 0.240024
0.172159 0.171941 0.172027
0.177740 0.179375 0.179184
0.198008 0.198626 0.198885
0.174994 0.163212 0.162994
0.175834 0.176078 0.175696
0.203141 0.207230 0.206664
0.168612 0.168484 0.172337
0.194527 0.195608 0.195927
0.153255 0.153159 0.153087
0.180780 0.183316 0.182335
0.185666 0.184568 0.183805
0.164054 0.163314 0.163176
0.157945 0.158756 0.179195
0.157732 0.156369 0.157177
0.212853 0.212458 0.212532
0.159665 0.159047 0.157369
0.184169 0.183514 0.183222
0.193727 0.187979 0.189236
0.154906 0.154840 0.154631
0.153874 0.156610 0.158667
0.187872 0.187335 0.187061
0.173559 0.175840 0.176138
0.201081 0.200683 0.200937
0.197993 0.197761 0.197475
0.159172 0.159150 0.158029
0.189673 0.190444 0.192628
0.146135 0.147288 0.147254
0.210177 0.210095 0.209479
0.181912 0.180789 0.180231
0.237660 0.237824 0.239138
0.201039 0.202436 0.202616
0.212772 0.211921 0.213743
0.194639 0.194456 0.194063
0.203039 0.203001 0.205421
0.227422 0.227423 0.227291
0.159599 0.158729 0.158224
0.163569 0.164430 0.164378
0.189231 0.189203 0.189349
0.182638 0.181320 0.181598
0.185203 0.184113 0.184387
0.171931 0.172284 0.172961
0.205390 0.205593 0.204903
0.196310 0.195915 0.196559
0.227270 0.227478 0.227515
0.185886 0.185487 0.186023
0.217518 0.218844 0.219698
0.212704 0.212989 0.212954
0.243413 0.245297 0.245111
0.201835 0.202952 0.203292
0.229894 0.240591 0.242357
0.207547 0.207219 0.207174
0.179944 0.180371 0.180532
0.195029 0.194864 0.191899
0.183442 0.178877 0.183819
0.149639 0.148567 0.147882
0.214665 0.215916 0.215831
0.189735 0.189664 0.186558
0.190531 0.190583 0.191410
0.170832 0.170437 0.170708
0.179250 0.178743 0.178547
0.179437 0.180171 0.180414
0.193737 0.193703 0.193245
0.167308 0.166917 0.166634
0.162409 0.161718 0.169614
0.242684 0.244180 0.244230
0.153293 0.150910 0.150889
0.233269 0.233340 0.235748
0.243152 0.240382 0.235223
0.207498 0.206665 0.206569
0.155428 0.156702 0.157956
0.218902 0.218887 0.219157
0.229098 0.229748 0.229577
0.176913 0.177265 0.177277
0.170574 0.170939 0.171186
0.178856 0.180866 0.180967
0.182753 0.182496 0.183370
0.184756 0.184457 0.184333
0.234255 0.238863 0.241871
0.248251 0.248023 0.248139
0.168067 0.169990 0.170652
0.161316 0.161042 0.160582
0.148837 0.148754 0.153063
0.231263 0.231131 0.231088
0.223261 0.223309 0.223137
0.185849 0.185712 0.185135
0.194894 0.194631 0.195274
0.190770 0.189626 0.189425
0.174286 0.173856 0.168244
0.162554 0.162996 0.162024
0.159601 0.159584 0.159598
0.170230 0.177086 0.177234
0.171444 0.171897 0.171918
0.182610 0.183566 0.184335
0.197950 0.198393 0.199648
0.154508 0.157823 0.157066
0.214094 0.212824 0.223849
0.243030 0.243545 0.241972
0.168052 0.168680 0.170656
0.245364 0.246470 0.247819
0.160018 0.160420 0.158840
0.155374 0.155794 0.155013
0.179354 0.180069 0.180626
0.193495 0.194028 0.194061
0.210973 0.208581 0.207133
0.176557 0.176014 0.176523
0.167195 0.165418 0.158788
0.163259 0.163296 0.163394
0.171105 0.170651 0.172669
0.215390 0.216263 0.215887
0.219029 0.217612 0.217639
0.212040 0.211365 0.212271
0.165889 0.165465 0.169858
0.205351 0.205120 0.204602
0.180631 0.183459 0.183276
0.209243 0.205387 0.206232
0.174651 0.174792 0.174413
0.228765 0.225606 0.223788
0.182817 0.182219 0.183903
0.168611 0.169703 0.168965
0.159016 0.158435 0.157381
0.172781 0.190300 0.198364
0.202330 0.202543 0.202501
0.153487 0.154232 0.154606
0.185988 0.182899 0.183653
0.169182 0.169902 0.170518
0.187354 0.190879 0.192002
0.233279 0.233658 0.233435
0.154934 0.155175 0.155077
0.236292 0.236815 0.236620
0.242626 0.236763 0.237383
0.184705 0.183916 0.184146
0.214278 0.213786 0.213149
0.186695 0.186411 0.185927
0.173246 0.176059 0.176049
0.161149 0.162975 0.172714
0.221788 0.222124 0.222122
0.222373 0.223198 0.224098
0.159301 0.158992 0.159622
0.166418 0.163991 0.165126
0.205401 0.210801 0.212724
0.216978 0.223465 0.226325
0.241323 0.243036 0.242041
0.176478 0.175378 0.174760
0.168005 0.167323 0.167035
0.160889 0.161631 0.162239
0.228277 0.230574 0.231082
0.182534 0.181937 0.181234
0.240950 0.240374 0.239115
0.156568 0.153648 0.153229
0.184222 0.184917 0.185394
0.162916 0.162619 0.164378
0.240219 0.240033 0.240077
0.203063 0.202923 0.206146
0.160020 0.160913 0.160141
0.186520 0.186581 0.191143
0.212834 0.212274 0.212460
0.249731 0.249627 0.246179
0.170528 0.170939 0.172151
0.223569 0.224643 0.225261
0.186158 0.186960 0.187208
0.197376 0.185693 0.184755
0.179648 0.178497 0.179967
0.170524 0.169692 0.169550
0.155318 0.157251 0.156128
0.181909 0.181676 0.181410
0.173979 0.176544 0.176019
0.157913 0.159376 0.158646
0.184099 0.184393 0.184165
0.161011 0.160445 0.158765
0.243168 0.243210 0.243653
0.172260 0.172829 0.171775
0.183675 0.183821 0.186866
0.188887 0.185798 0.184147
0.214085 0.214605 0.219085
0.196179 0.197163 0.198098
0.182417 0.180723 0.180778
0.166350 0.167271 0.167112
0.156308 0.157740 0.158587
0.239098 0.239986 0.240643
0.180192 0.172637 0.172770
0.182608 0.182499 0.182381
0.223956 0.223960 0.224136
0.155197 0.155357 0.155162
0.169358 0.169376 0.168942
0.162008 0.160880 0.161214
0.181559 0.181548 0.181454
0.159649 0.160201 0.159740
0.206106 0.207784 0.222446
0.166646 0.166418 0.163991
0.207369 0.207405 0.207215
0.209097 0.208903 0.227364
0.164362 0.158362 0.156354
0.167369 0.164278 0.164258
0.184743 0.184713 0.183943
0.157830 0.156911 0.156632
0.198145 0.200224 0.200666
0.181963 0.181804 0.180866
0.145638 0.146599 0.174586
0.163043 0.159585 0.159258
0.155162 0.154536 0.155224
0.175215 0.177898 0.178283
0.184224 0.185714 0.188650
0.201111 0.192430 0.191365
0.242088 0.242615 0.243312
0.183126 0.183035 0.183160
0.214301 0.214382 0.214429
0.194964 0.195183 0.195669
0.166994 0.167248 0.167227
0.180494 0.181533 0.180651
0.184468 0.183831 0.183610
0.156352 0.158604 0.159601
0.162676 0.163689 0.196236
0.170524 0.170653 0.170381
0.221346 0.221805 0.235788
0.205418 0.206061 0.204963
0.228493 0.228431 0.228324
0.205562 0.204741 0.204691
0.168839 0.168007 0.167394
0.206088 0.205404 0.213929
0.178023 0.180031 0.180805
0.166726 0.166855 0.166515
0.176918 0.176707 0.176825
0.188670 0.189157 0.189997
0.190358 0.189963 0.190257
0.212019 0.211942 0.215811
0.173029 0.172842 0.171653
0.161127 0.161982 0.162536
0.226011 0.224093 0.224258
0.148998 0.149167 0.149539
0.202152 0.201975 0.201852
0.185976 0.186489 0.186288
0.189992 0.189081 0.189145
0.187121 0.187348 0.188816
0.214740 0.216155 0.215874
0.170866 0.172417 0.171796
0.248054 0.248079 0.246861
0.157839 0.158353 0.159095
0.231815 0.234148 0.232254
0.177118 0.178475 0.179024
0.171468 0.172234 0.172211
0.180000 0.181056 0.181385
0.163229 0.161545 0.162164
0.182599 0.181824 0.183949
0.197990 0.194196 0.191821
0.198366 0.198832 0.201288
0.159569 0.158538 0.160224
0.160136 0.159756 0.159186
0.164823 0.165661 0.166062
0.153063 0.153910 0.153351
0.191313 0.191234 0.191224
0.209883 0.210192 0.210124
0.198645 0.194023 0.194577
0.152373 0.154037 0.153998
0.159009 0.159700 0.160113
0.193858 0.194023 0.195656
0.180542 0.179531 0.179993
0.201044 0.200376 0.195472
0.164321 0.165075 0.167152
0.247554 0.248113 0.247627
0.156079 0.155789 0.155400
0.210408 0.209998 0.209438
0.182968 0.185972 0.187389
0.206863 0.207139 0.208360
0.164459 0.165910 0.166664
0.178015 0.176634 0.176819
0.140119 0.140730 0.140200
0.183637 0.182599 0.181533
0.184088 0.182969 0.182001
0.170444 0.172072 0.172125
0.197622 0.197698 0.197226
0.234329 0.220466 0.217191
0.153854 0.154489 0.155364
0.157828 0.158355 0.159112
0.215014 0.215918 0.231257
0.162652 0.164550 0.161145
0.195191 0.194593 0.194115
0.185683 0.184370 0.184766
0.168016 0.167501 0.167523
0.225601 0.193628 0.172805
0.197067 0.198488 0.196156
0.181829 0.181465 0.181948
0.190138 0.203945 0.205033
0.241048 0.240551 0.240170
0.210181 0.209681 0.226264
0.204269 0.203879 0.203487
0.217492 0.215263 0.215567
0.155693 0.153983 0.153326
0.170237 0.168394 0.167614
0.153008 0.151652 0.157223
0.254001 0.253169 0.253899
0.210994 0.197596 0.189980
0.204221 0.204438 0.202580
0.233731 0.233980 0.234716
0.254547 0.253855 0.254501
0.171868 0.171590 0.171024
0.148875 0.149366 0.149789
0.160505 0.161412 0.161766
0.236732 0.236444 0.234694
0.178051 0.180399 0.181427
0.214483 0.214305 0.213706
0.185892 0.185472 0.185428
0.158073 0.157660 0.157287
0.175137 0.174903 0.175232
0.199909 0.195730 0.197290
0.232721 0.232557 0.232970
0.151498 0.151859 0.151472
0.177976 0.177826 0.177192
0.156584 0.156321 0.157225
0.144371 0.144009 0.143058
0.156831 0.155639 0.155486
0.236733 0.235101 0.237062
0.157368 0.158195 0.158443
0.234545 0.235291 0.229822
0.184926 0.184604 0.186123
0.214886 0.227908 0.228451
0.167689 0.168387 0.168230
0.180481 0.178852 0.178780
0.210820 0.211344 0.210706
0.215739 0.215148 0.215405
0.143798 0.143554 0.144262
0.200107 0.198684 0.199211
0.155278 0.155290 0.155725
0.190463 0.191597 0.191513
0.188624 0.187987 0.187679
0.212128 0.211468 0.210942
0.249654 0.248745 0.247728
0.217272 0.218416 0.218325
0.201753 0.201009 0.200840
0.192998 0.192800 0.192364
0.169834 0.169835 0.169047
0.229553 0.230390 0.230565
0.177673 0.178217 0.179420
0.156651 0.156588 0.155361
0.199462 0.199411 0.198588
0.194341 0.193262 0.193098
0.175041 0.175829 0.175858
0.189376 0.187457 0.188273
0.234866 0.234603 0.232279
0.190737 0.189901 0.189120
0.241027 0.241052 0.240171
0.201041 0.200294 0.200535
0.218361 0.218495 0.218486
0.156668 0.156743 0.156201
0.206765 0.207649 0.206626
0.204910 0.206124 0.206517
0.173608 0.170301 0.169497
0.233546 0.235400 0.235459
0.186923 0.187525 0.187801
0.235611 0.235597 0.235655
0.203902 0.204502 0.206446
0.194342 0.194779 0.194816
0.227552 0.225475 0.225200
0.213796 0.212753 0.212862
0.160371 0.160480 0.161412
0.184333 0.182426 0.181666
0.208014 0.208280 0.209045
0.227769 0.226369 0.226936
0.187763 0.188749 0.189949
0.163997 0.164847 0.164681
0.228872 0.229557 0.229697
0.185484 0.184302 0.184776
0.173836 0.173682 0.173673
0.182334 0.183544 0.183260
0.165588 0.164964 0.165678
0.190879 0.192002 0.193484
0.183543 0.184755 0.184797
0.183736 0.183211 0.182495
0.246383 0.230009 0.228551
0.190997 0.192639 0.193570
0.179038 0.179094 0.180176
0.183754 0.183495 0.181584
0.212021 0.211756 0.211902
0.193014 0.192601 0.192165
0.196944 0.196413 0.195901
0.211268 0.210933 0.211255
0.224643 0.224974 0.225103
0.188927 0.189942 0.190055
0.227382 0.230363 0.230112
0.194508 0.202939 0.201483
0.209813 0.218959 0.219519
0.190213 0.190162 0.191066
0.176656 0.176981 0.176913
0.194590 0.194700 0.194732
0.154370 0.153631 0.154354
0.186779 0.187170 0.187894
0.194033 0.196203 0.194825
0.159563 0.158490 0.160221
0.207680 0.208496 0.209754
0.174200 0.169040 0.166941
0.222982 0.224281 0.227737
0.203465 0.205697 0.207698
0.301638 0.301652 0.301525
0.223202 0.223042 0.224203
0.242836 0.244037 0.243693
0.210010 0.209631 0.209274
0.172029 0.177151 0.180512
0.201123 0.200154 0.200541
0.161262 0.160632 0.160479
0.181454 0.181483 0.181718
0.189807 0.191150 0.203964
0.192832 0.193324 0.193528
0.200567 0.201020 0.200640
0.169237 0.170852 0.172602
0.244768 0.245395 0.245053
0.223696 0.225119 0.225173
0.183145 0.185118 0.185522
0.169982 0.170121 0.169655
0.152529 0.164403 0.164944
0.159304 0.158356 0.158130
0.207021 0.205722 0.203572
0.187763 0.187178 0.187353
0.185473 0.185547 0.184408
0.182496 0.183370 0.183125
0.167448 0.167909 0.168740
0.209313 0.209779 0.209719
0.184215 0.183643 0.182992
0.217445 0.217623 0.217522
0.216130 0.216167 0.216520
0.225795 0.226253 0.226070
0.191072 0.189966 0.189957
0.167411 0.168150 0.168130
0.202516 0.205658 0.208281
0.194543 0.194127 0.191982
0.172279 0.171880 0.171257
0.162659 0.196839 0.218894
0.152370 0.154237 0.155421
0.221324 0.217128 0.222727
0.157009 0.160350 0.159649
0.162326 0.161813 0.161520
0.198404 0.199970 0.200614
0.222984 0.222607 0.222731
0.171121 0.171059 0.171586
0.166941 0.167417 0.167457
0.183688 0.184035 0.183948
0.179644 0.180215 0.201680
0.173700 0.171343 0.170122
0.212172 0.211461 0.211761
0.252570 0.253570 0.253043
0.231094 0.230359 0.231352
0.185780 0.185096 0.184838
0.184980 0.185210 0.185483
0.209471 0.210663 0.210219
0.198593 0.198999 0.200440
0.188214 0.188939 0.189058
0.198440 0.198601 0.198587
0.207185 0.206440 0.206294
0.159182 0.159189 0.161288
0.190644 0.191316 0.191979
0.226264 0.225920 0.228341
0.218006 0.217246 0.216488
0.217458 0.216683 0.191633
0.186293 0.184852 0.184207
0.202591 0.202057 0.202136
0.160750 0.161409 0.161250
0.202428 0.201675 0.201052
0.232532 0.232024 0.231993
0.170725 0.172955 0.171024
0.252782 0.253696 0.253284
0.217590 0.216998 0.214831
0.207926 0.207933 0.207171
0.241512 0.242103 0.241033
0.234945 0.235123 0.235217
0.201584 0.202959 0.202963
0.154109 0.155190 0.161517
0.178020 0.177664 0.178898
0.223703 0.223730 0.225260
0.253330 0.253139 0.253668
0.166930 0.167906 0.167114
0.170592 0.170184 0.170749
0.190645 0.192932 0.193360
0.172575 0.172849 0.172063
0.167516 0.167177 0.167014
0.224093 0.224258 0.224731
0.194541 0.185906 0.185292
0.198805 0.227499 0.235073
0.203534 0.203740 0.201415
0.209803 0.209401 0.209771
0.177818 0.180763 0.180929
0.218029 0.217196 0.216311
0.184487 0.186314 0.186585
0.160460 0.160245 0.160850
0.167386 0.167757 0.165828
0.160836 0.160881 0.160972
0.213343 0.207064 0.205458
0.168762 0.174651 0.174792
0.165168 0.164823 0.165661
0.222252 0.222529 0.222797
0.184767 0.185200 0.185375
0.181280 0.181386 0.183862
0.172709 0.173278 0.173546
0.217202 0.218222 0.218408
0.190640 0.191837 0.192096
0.171656 0.171269 0.171036
0.183525 0.183324 0.183376
0.152424 0.152642 0.150954
0.168129 0.165442 0.165513
0.186154 0.186711 0.188402
0.175760 0.174916 0.174656
0.170734 0.169074 0.168167
0.243862 0.243365 0.243241
0.185503 0.184732 0.184359
0.158317 0.158210 0.158286
0.171358 0.170507 0.170027
0.175620 0.173908 0.189732
0.222188 0.222242 0.222713
0.201182 0.200695 0.200651
0.174033 0.173013 0.172394
0.215420 0.215482 0.216527
0.167136 0.167165 0.168082
0.192935 0.193392 0.193758
0.203638 0.204472 0.204050
0.166141 0.167336 0.167179
0.195034 0.191045 0.190001
0.186926 0.185475 0.183477
0.189190 0.188642 0.187997
0.203030 0.203176 0.203170
0.194572 0.198527 0.198440
0.191541 0.191590 0.191325
0.201247 0.200842 0.200897
0.185463 0.185123 0.184094
0.210622 0.208742 0.209131
0.224975 0.224811 0.225887
0.228290 0.227874 0.225806
0.210679 0.210654 0.209233
0.169869 0.169880 0.171269
0.206850 0.208324 0.208081
0.165664 0.167224 0.166360
0.209468 0.209435 0.209246
0.158208 0.158046 0.158115
0.167912 0.168888 0.168782
0.149940 0.149549 0.150344
0.210129 0.209806 0.212285
0.211704 0.211752 0.222850
0.176773 0.179866 0.179923
0.159680 0.165297 0.168302
0.169871 0.170451 0.169815
0.159530 0.157573 0.156418
0.207224 0.208233 0.208656
0.195406 0.192099 0.191829
0.229179 0.228768 0.230946
0.158197 0.157564 0.160960
0.190415 0.188308 0.188134
0.160378 0.160785 0.160836
0.240698 0.240042 0.243147
0.181822 0.181596 0.181304
0.202650 0.202451 0.203433
0.176464 0.176341 0.177403
0.156143 0.154627 0.154385
0.188608 0.188119 0.188090
0.166429 0.169487 0.169056
0.180724 0.180668 0.180570
0.184695 0.183496 0.182543
0.149932 0.151136 0.149013
0.200670 0.201570 0.201754
0.196814 0.198411 0.200248
0.170025 0.169166 0.168819
0.220876 0.221361 0.221843
0.222882 0.223523 0.223585
0.251565 0.251163 0.252175
0.224909 0.223981 0.225754
0.165440 0.161598 0.158665
0.183359 0.183434 0.181572
0.182744 0.182575 0.182127
0.209466 0.209316 0.210763
0.211759 0.211594 0.211690
0.200035 0.199711 0.199541
0.217910 0.218102 0.221372
0.168979 0.169956 0.169792
0.191456 0.204467 0.208947
0.169738 0.170135 0.170516
0.153213 0.151519 0.151615
0.180670 0.181389 0.185903
0.169495 0.169737 0.170244
0.167744 0.167645 0.167807
0.195476 0.197291 0.197639
0.165376 0.166619 0.168321
0.179965 0.180543 0.180867
0.189715 0.203317 0.203948
0.196156 0.190573 0.187945
0.159848 0.159158 0.159145
0.181375 0.181732 0.184289
0.207583 0.207595 0.208726
0.206498 0.206632 0.206753
0.167341 0.163214 0.162003
0.184511 0.183935 0.184141
0.175735 0.175528 0.174705
0.171865 0.169465 0.167612
0.210865 0.210049 0.212617
0.208065 0.207958 0.207444
0.197152 0.197929 0.196599
0.197434 0.202037 0.201586
0.156414 0.155049 0.156127
0.250431 0.250686 0.250639
0.171200 0.169525 0.167455
0.230387 0.230518 0.229013
0.180103 0.179443 0.177721
0.196961 0.196714 0.175421
0.166888 0.166659 0.166802
0.195467 0.196744 0.198231
0.181031 0.181087 0.180986
0.175131 0.175323 0.174590
0.192685 0.192511 0.191894
0.157541 0.157422 0.157257
0.164310 0.164125 0.165091
0.165276 0.164645 0.164740
0.203726 0.228749 0.230247
0.176798 0.176579 0.176772
0.228644 0.229154 0.229517
0.174054 0.173515 0.171843
0.187097 0.187390 0.185971
0.176744 0.176667 0.176370
0.196199 0.196221 0.195565
0.170301 0.169430 0.167386
0.167692 0.166813 0.166978
0.171827 0.171867 0.171608
0.254235 0.254903 0.255694
0.179934 0.180243 0.180171
0.166676 0.166675 0.166262
0.254483 0.252298 0.249535
0.187839 0.187267 0.184978
0.210847 0.209331 0.209963
0.177131 0.177236 0.177217
0.198742 0.199283 0.199490
0.209727 0.210180 0.210076
0.207264 0.205860 0.207539
0.224203 0.223933 0.223931
0.208326 0.208648 0.207066
0.218954 0.218610 0.217458
0.237542 0.239239 0.237619
0.226494 0.226191 0.228979
0.180730 0.181048 0.180836
0.184540 0.182127 0.182668
0.178345 0.178177 0.175083
0.209457 0.209576 0.209104
0.170972 0.168020 0.167797
0.211016 0.211444 0.212877
0.195686 0.194919 0.194792
0.213529 0.213348 0.213421
0.157849 0.157669 0.157557
0.177230 0.177061 0.177210
0.217369 0.219061 0.225418
0.245522 0.245017 0.244768
0.179489 0.179967 0.180444
0.199492 0.200109 0.198132
0.181919 0.178697 0.180054
0.231870 0.231601 0.234788
0.190668 0.190780 0.190587
0.186319 0.185603 0.174289
0.201621 0.202096 0.201965
0.226211 0.225567 0.225948
0.154607 0.154688 0.154928
0.229688 0.227324 0.229527
0.187656 0.187872 0.187335
0.165464 0.165550 0.165644
0.189886 0.189894 0.190519
0.210811 0.211171 0.210694
0.186375 0.185966 0.183910
0.206781 0.206525 0.207296
0.207624 0.208177 0.208183
0.145937 0.145864 0.145239
0.168044 0.161061 0.159025
0.183316 0.182335 0.196777
0.172426 0.173134 0.174105
0.195959 0.195163 0.195575
0.220029 0.218926 0.218800
0.214939 0.214735 0.214106
0.203063 0.202767 0.203659
0.235181 0.235294 0.233559
0.186218 0.185002 0.184901
0.173922 0.182543 0.184557
0.176002 0.174859 0.175185
0.172201 0.172023 0.171434
0.156500 0.155110 0.153247
0.179249 0.174660 0.172737
0.251959 0.248609 0.248032
0.148994 0.150087 0.151413
0.173537 0.171176 0.174261
0.189052 0.188935 0.189515
0.168358 0.167465 0.168863
0.236306 0.236390 0.236031
0.183102 0.189075 0.189926
0.211018 0.211239 0.210416
0.158152 0.159150 0.157869
0.186585 0.186348 0.186747
0.168473 0.168582 0.168297
0.187841 0.188132 0.187448
0.210929 0.208820 0.208519
0.169315 0.169169 0.169659
0.154223 0.154247 0.153171
0.201048 0.200926 0.201209
0.184815 0.184283 0.184643
0.232389 0.242893 0.243187
0.157060 0.182572 0.184045
0.152389 0.152283 0.152440
0.215989 0.214652 0.218022
0.227593 0.225513 0.225144
0.182823 0.182190 0.182056
0.210534 0.212431 0.214886
0.161092 0.162863 0.187996
0.179775 0.179142 0.178169
0.168717 0.168584 0.168779
0.161958 0.161790 0.162276
0.182354 0.182767 0.182438
0.215444 0.204575 0.202825
0.178549 0.180564 0.182406
0.232129 0.232560 0.232809
0.216659 0.216261 0.217253
0.182036 0.182426 0.183792
0.162269 0.161600 0.169547
0.253318 0.252782 0.253696
0.174334 0.173629 0.172755
0.183684 0.183158 0.183868
0.177567 0.177153 0.181991
0.189796 0.190238 0.172674
0.165426 0.165549 0.165749
0.175555 0.175733 0.175006
0.232565 0.227865 0.226176
0.189626 0.188955 0.186422
0.162979 0.159561 0.155788
0.180826 0.181347 0.181291
0.174344 0.174620 0.174396
0.225779 0.225810 0.222937
0.205080 0.204578 0.202550
0.155045 0.155114 0.155172
0.162183 0.162499 0.163917
0.209058 0.206434 0.205449
0.157942 0.163062 0.162867
0.202465 0.202635 0.202672
0.212362 0.214335 0.214670
0.164837 0.188620 0.190921
0.212016 0.209732 0.208947
0.155405 0.156001 0.151924
0.207853 0.208647 0.209693
0.216940 0.215962 0.215773
0.172778 0.180339 0.185898
0.225543 0.226278 0.233331
0.200849 0.201584 0.202959
0.206225 0.206926 0.208430
0.186846 0.192939 0.193216
0.166995 0.167968 0.167524
0.173895 0.172482 0.171307
0.198799 0.199925 0.200174
0.164772 0.160710 0.160358
0.169442 0.170461 0.170958
0.171594 0.171777 0.172953
0.160961 0.161248 0.161209
0.190286 0.212074 0.214298
0.170018 0.168406 0.168163
0.190840 0.190536 0.189729
0.160886 0.160696 0.160546
0.183526 0.183827 0.183766
0.157865 0.159008 0.161327
0.197624 0.196842 0.198451
0.177683 0.178083 0.177201
0.206589 0.207944 0.206941
0.158701 0.158716 0.159921
0.182837 0.183932 0.184558
0.193016 0.193796 0.195850
0.192216 0.192486 0.192637
0.214027 0.214987 0.214748
0.162495 0.155439 0.151751
0.231333 0.230933 0.230383
0.162302 0.162588 0.162269
0.154767 0.159357 0.160398
0.176846 0.177046 0.179437
0.186999 0.187129 0.187290
0.200895 0.200675 0.199005
0.206985 0.207170 0.208766
0.184134 0.183525 0.183324
0.199048 0.199806 0.201630
0.199186 0.198768 0.198500
0.151609 0.151411 0.150726
0.184733 0.183335 0.182224
0.226497 0.226561 0.226418
0.248032 0.246385 0.246534
0.206637 0.205743 0.205678
0.205860 0.207539 0.207688
0.155771 0.155958 0.157477
0.218895 0.218619 0.218447
0.179902 0.179165 0.178809
0.168654 0.168007 0.183884
0.205761 0.206888 0.206714
0.210077 0.210082 0.208694
0.235998 0.236158 0.236542
0.169412 0.168577 0.167979
0.168202 0.168276 0.170456
0.166461 0.165837 0.166075
0.194864 0.194025 0.194865
0.189240 0.194810 0.194796
0.171019 0.171229 0.171671
0.193588 0.183371 0.182191
0.226028 0.226379 0.227059
0.155584 0.156044 0.156230
0.159569 0.161043 0.161372
0.249885 0.250168 0.248556
0.184864 0.184990 0.185250
0.178065 0.177893 0.177755
0.150288 0.150085 0.149606
0.160847 0.160845 0.159801
0.168371 0.168004 0.169076
0.158309 0.158157 0.157317
0.204483 0.204851 0.206242
0.206495 0.206388 0.203269
0.165446 0.166268 0.166519
0.183220 0.182987 0.182355
0.236390 0.236508 0.236306
0.191269 0.196907 0.201828
0.184546 0.185900 0.185353
0.247944 0.246204 0.245010
0.174755 0.174502 0.175137
0.160188 0.158428 0.156846
0.199558 0.200026 0.199792
0.219508 0.219337 0.218954
0.148491 0.147110 0.147051
0.164733 0.180794 0.190727
0.179164 0.178955 0.179293
0.171470 0.172585 0.180693
0.148403 0.147357 0.146447
0.157257 0.157363 0.155661
0.157776 0.162804 0.165976
0.179896 0.180468 0.180882
0.230329 0.233411 0.234226
0.166974 0.165825 0.164841
0.226324 0.226315 0.225891
0.179789 0.181382 0.178663
0.174192 0.174889 0.176999
0.169714 0.170821 0.169472
0.237720 0.239221 0.238042
0.215865 0.216230 0.216185
0.242273 0.242693 0.242608
0.208028 0.206151 0.208965
0.302585 0.303295 0.303253
0.232869 0.232242 0.226042
0.159532 0.166200 0.168288
0.190008 0.189998 0.190136
0.255978 0.254243 0.254227
0.213344 0.210776 0.210456
0.190094 0.191415 0.191771
0.194956 0.193996 0.194519
0.182572 0.182976 0.182691
0.166405 0.166838 0.167153
0.214770 0.214577 0.215209
0.168925 0.170003 0.175547
0.193800 0.193800 0.192902
0.169799 0.184269 0.185894
0.225571 0.226189 0.225290
0.208122 0.208299 0.209529
0.180238 0.179658 0.178761
0.179319 0.178719 0.179308
0.195611 0.195667 0.195391
0.159879 0.159259 0.158715
0.209286 0.208771 0.210214
0.211019 0.211204 0.211806
0.228779 0.228510 0.201345
0.223198 0.224098 0.224280
0.211766 0.222804 0.221884
0.173974 0.172487 0.169707
0.165673 0.165465 0.165652
0.177095 0.177622 0.177433
0.150870 0.151046 0.150242
0.183024 0.184970 0.185371
0.155655 0.157001 0.155767
0.199414 0.198826 0.197176
0.185565 0.184576 0.184876
0.186837 0.182831 0.170764
0.167114 0.167020 0.167381
0.206435 0.219363 0.226634
0.194025 0.193484 0.188106
0.168442 0.168270 0.166969
0.192006 0.190028 0.189936
0.183249 0.183541 0.189871
0.190885 0.189531 0.189798
0.163753 0.163989 0.162624
0.162693 0.161661 0.161338
0.228795 0.228169 0.229373
0.202213 0.204030 0.203795
0.170386 0.170841 0.170648
0.163645 0.161543 0.158584
0.305247 0.305138 0.305978
0.181419 0.180790 0.180427
0.167116 0.166549 0.165709
0.190091 0.190389 0.186056
0.184610 0.186819 0.188423
0.238315 0.238155 0.238618
0.199519 0.197568 0.195900
0.208872 0.174102 0.165956
0.185219 0.184572 0.184489
