0.025639 0.025792 0.025848
0.022636 0.022712 0.022740
0.022654 0.022664 0.022673
0.017332 0.017329 0.017299
0.020580 0.020445 0.020256
0.014169 0.014209 0.014196
0.022392 0.022365 0.022325
0.023743 0.023614 0.023634
0.020245 0.020408 0.020365
0.025229 0.025252 0.025122
0.026480 0.026519 0.026814
0.026764 0.026795 0.026732
0.024751 0.024749 0.025491
0.014316 0.014209 0.014198
0.020547 0.020477 0.020546
0.023551 0.023456 0.023439
0.026253 0.026494 0.026669
0.020252 0.020267 0.020186
0.025144 0.025193 0.025256
0.022810 0.022852 0.022847
0.020753 0.020696 0.020762
0.024604 0.024665 0.024747
0.024299 0.024268 0.024240
0.015950 0.015956 0.015975
0.025094 0.025024 0.024925
0.016283 0.016418 0.016430
0.023093 0.023077 0.022960
0.015537 0.015502 0.015611
0.020863 0.020531 0.020467
0.045362 0.045410 0.045625
0.014156 0.014217 0.014377
0.026713 0.026682 0.026641
0.024512 0.024446 0.025260
0.020391 0.020426 0.020522
0.017414 0.017455 0.017533
0.023751 0.023447 0.023115
0.026809 0.027057 0.027000
0.016032 0.015901 0.015902
0.015588 0.015625 0.015633
0.022620 0.022730 0.022778
0.025569 0.025528 0.025709
0.021926 0.021897 0.021782
0.015404 0.015365 0.015361
0.016600 0.016529 0.016243
0.021454 0.021471 0.021173
0.016743 0.016834 0.016818
0.015470 0.015617 0.015679
0.019747 0.019741 0.019859
0.016246 0.016235 0.016111
0.019480 0.019866 0.019837
0.022934 0.023516 0.023752
0.015487 0.015610 0.015614
0.033456 0.034216 0.034145
0.021281 0.021062 0.020784
0.031849 0.031813 0.031565
0.023137 0.022804 0.023420
0.017108 0.017083 0.016946
0.017374 0.017242 0.017161
0.014283 0.014308 0.014345
0.020235 0.020137 0.020247
0.019622 0.019716 0.019881
0.021109 0.021275 0.021321
0.015412 0.015588 0.015737
0.024486 0.024569 0.024524
0.015871 0.015936 0.015857
0.014096 0.013984 0.013980
0.015175 0.015233 0.015238
0.016798 0.016797 0.016670
0.029889 0.029531 0.027235
0.023241 0.023901 0.024220
0.016544 0.016134 0.016008
0.023686 0.023877 0.024019
0.024643 0.024607 0.024646
0.025789 0.025815 0.025806
0.021413 0.021015 0.020835
0.022062 0.022042 0.022110
0.019527 0.019576 0.019618
0.014715 0.014831 0.014968
0.016836 0.016765 0.016900
0.015910 0.016015 0.016282
0.016409 0.016307 0.016392
0.024999 0.025023 0.024948
0.016729 0.016742 0.016722
0.015168 0.015282 0.015256
0.023586 0.023712 0.023774
0.027095 0.026731 0.027188
0.023704 0.023685 0.023606
0.020306 0.020309 0.020195
0.017361 0.017257 0.017252
0.022065 0.022056 0.022257
0.016198 0.016242 0.016166
0.020240 0.020149 0.020303
0.018726 0.018926 0.018905
0.019958 0.019793 0.020060
0.016568 0.016560 0.016599
0.020134 0.020184 0.020153
0.021194 0.021268 0.021287
0.023014 0.023069 0.023030
0.024728 0.024852 0.024813
0.014961 0.014733 0.014782
0.019522 0.019540 0.019515
0.015294 0.015248 0.015220
0.026677 0.026728 0.026591
0.017017 0.016798 0.016732
0.020249 0.020205 0.020226
0.020119 0.019233 0.018996
0.015121 0.014949 0.014933
0.014217 0.014247 0.014248
0.016634 0.016495 0.016520
0.016772 0.016722 0.016500
0.024812 0.025003 0.024715
0.017102 0.017078 0.016806
0.018787 0.018901 0.018858
0.018356 0.018605 0.018707
0.015096 0.015276 0.015298
0.021503 0.021651 0.021751
0.016080 0.016200 0.016153
0.023937 0.023778 0.023597
0.023590 0.023490 0.023514
0.027744 0.027742 0.027796
0.026365 0.026334 0.026379
0.017406 0.017617 0.017749
0.016858 0.017091 0.017142
0.016603 0.016348 0.016427
0.016211 0.016200 0.016233
0.025589 0.025660 0.025570
0.021326 0.021387 0.021491
0.016269 0.016314 0.016189
0.022174 0.022212 0.022201
0.024043 0.024156 0.023791
0.020467 0.020532 0.020588
0.016086 0.016147 0.016053
0.020296 0.020168 0.020242
0.020694 0.020595 0.020512
0.017652 0.017675 0.017878
0.021769 0.021655 0.021639
0.027580 0.027453 0.027468
0.017298 0.017325 0.017274
0.015555 0.016264 0.016634
0.022442 0.022460 0.022369
0.025922 0.026002 0.025860
0.020645 0.020713 0.020579
0.023002 0.023309 0.023141
0.021343 0.021853 0.022740
0.017248 0.017299 0.017419
0.016566 0.016470 0.016529
0.024724 0.024589 0.024621
0.015310 0.015492 0.015582
0.023414 0.023123 0.023222
0.022864 0.022909 0.022966
0.022763 0.022658 0.022648
0.023944 0.023798 0.023746
0.014949 0.015080 0.015207
0.022357 0.022349 0.022363
0.021357 0.021425 0.021397
0.016773 0.016839 0.016746
0.021583 0.021332 0.021193
0.021487 0.021535 0.021783
0.021040 0.020971 0.020907
0.016058 0.015989 0.016056
0.022546 0.022409 0.023103
0.015559 0.015675 0.015500
0.015059 0.015162 0.015195
0.023540 0.023473 0.023391
0.022369 0.022388 0.022457
0.015531 0.015557 0.015606
0.026927 0.026902 0.026855
0.021802 0.021710 0.021586
0.016670 0.016861 0.016769
0.015178 0.015343 0.015228
0.021398 0.021295 0.021213
0.015890 0.015899 0.015997
0.019844 0.019893 0.020006
0.015700 0.015425 0.015599
0.017571 0.017584 0.017623
0.023080 0.023403 0.023593
0.015726 0.015790 0.015926
0.015430 0.015418 0.015348
0.025448 0.025404 0.025525
0.016154 0.016152 0.016137
0.014447 0.014661 0.014783
0.014887 0.014967 0.015043
0.016672 0.016718 0.016723
0.015318 0.015360 0.015737
0.022712 0.022598 0.022537
0.016170 0.016582 0.016778
0.018799 0.018798 0.018783
0.015010 0.014993 0.014956
0.023080 0.023168 0.023089
0.014936 0.015012 0.015015
0.018601 0.018587 0.018647
0.022330 0.022360 0.022566
0.020554 0.020564 0.020518
0.017171 0.017128 0.017312
0.020356 0.020524 0.020644
0.015159 0.015177 0.015183
0.022204 0.022205 0.022184
0.026670 0.026541 0.026095
0.015718 0.015649 0.015808
0.021238 0.021162 0.021227
0.022735 0.022721 0.022763
0.016405 0.016476 0.016535
0.015490 0.015327 0.015255
0.023587 0.023589 0.023599
0.019827 0.019865 0.019908
0.021699 0.021911 0.022037
0.022733 0.022728 0.022811
0.028187 0.028116 0.028627
0.020230 0.020266 0.020250
0.019221 0.019249 0.019492
0.024576 0.024540 0.024519
0.025081 0.025155 0.025041
0.026019 0.026139 0.025963
0.024903 0.024946 0.025054
0.026200 0.026141 0.026100
0.014442 0.014340 0.014349
0.024123 0.023866 0.024155
0.024867 0.024707 0.024636
0.021961 0.021876 0.021959
0.022690 0.022728 0.022703
0.022777 0.022827 0.023012
0.014415 0.014417 0.014267
0.021612 0.021678 0.021599
0.015600 0.015515 0.015656
0.016067 0.016054 0.016068
0.014270 0.014011 0.014144
0.022466 0.022498 0.022458
0.020446 0.020601 0.020591
0.025201 0.024823 0.024644
0.016188 0.016216 0.016155
0.020939 0.020579 0.020841
0.021127 0.021142 0.021117
0.023783 0.023668 0.023469
0.022294 0.022831 0.022814
0.016415 0.016171 0.016139
0.017062 0.017073 0.017097
0.021721 0.021471 0.021365
0.016894 0.017088 0.017093
0.023898 0.024010 0.024095
0.022005 0.022047 0.022124
0.021016 0.020994 0.020821
0.016600 0.016618 0.016648
0.025583 0.025669 0.025644
0.015534 0.015547 0.015579
0.020023 0.020183 0.020133
0.016300 0.016434 0.016436
0.020327 0.020332 0.020406
0.045474 0.045526 0.045467
0.014101 0.014106 0.014152
0.025546 0.025448 0.025404
0.019246 0.019265 0.019145
0.022879 0.022957 0.023260
0.016522 0.016630 0.016666
0.022510 0.022440 0.022241
0.021564 0.021564 0.021544
0.028814 0.028188 0.027512
0.028575 0.028570 0.028327
0.025630 0.025530 0.025493
0.021329 0.021065 0.021142
0.023685 0.023606 0.023545
0.018667 0.018664 0.018579
0.019496 0.019332 0.019181
0.023642 0.023780 0.023807
0.024038 0.024307 0.024297
0.014189 0.014071 0.014109
0.020834 0.020962 0.020909
0.015696 0.015699 0.015556
0.024927 0.024897 0.024530
0.022463 0.022382 0.022470
0.025283 0.025241 0.025226
0.022294 0.022543 0.022478
0.016454 0.016574 0.016505
0.020349 0.020429 0.020389
0.020395 0.020434 0.020537
0.016049 0.016242 0.016305
0.015345 0.015307 0.015177
0.021976 0.021848 0.021791
0.022838 0.023116 0.023142
0.016657 0.016628 0.016609
0.014027 0.014099 0.014093
0.020407 0.020307 0.020193
0.024954 0.024998 0.025268
0.016834 0.016795 0.016822
0.016629 0.016590 0.016555
0.017112 0.017117 0.017210
0.023588 0.023552 0.023868
0.020482 0.020547 0.020380
0.019904 0.019605 0.019736
0.021190 0.021166 0.021253
0.024711 0.024723 0.024639
0.015060 0.015023 0.015022
0.014223 0.014209 0.014133
0.024688 0.024734 0.024952
0.017727 0.017756 0.017583
0.016487 0.016510 0.016707
0.016435 0.016593 0.016389
0.021473 0.021487 0.021440
0.014783 0.014801 0.015042
0.023916 0.023864 0.024031
0.014146 0.014206 0.014191
0.017850 0.017879 0.017889
0.016043 0.015884 0.015904
0.020216 0.020171 0.020345
0.023193 0.023574 0.023613
0.015180 0.015164 0.015335
0.021724 0.021529 0.021489
0.014302 0.014224 0.014162
0.025539 0.025531 0.025167
0.027091 0.026950 0.026616
0.016719 0.016675 0.016697
0.018935 0.018991 0.019246
0.026144 0.026150 0.026143
0.024680 0.024391 0.024461
0.015018 0.015171 0.015288
0.016645 0.016688 0.016746
0.027209 0.026121 0.025298
0.020650 0.020921 0.021049
0.016011 0.016171 0.016216
0.021903 0.021879 0.022163
0.017237 0.017139 0.017121
0.020988 0.021115 0.021113
0.020134 0.020058 0.020012
0.017119 0.017082 0.017077
0.016964 0.017041 0.017066
0.015992 0.016104 0.016162
0.014350 0.014292 0.014283
0.016265 0.016291 0.016206
0.015136 0.015191 0.015241
0.015088 0.015034 0.015095
0.027031 0.027140 0.026982
0.017515 0.017183 0.017293
0.023658 0.023843 0.023803
0.014835 0.014706 0.014728
0.020638 0.020279 0.019254
0.019830 0.019844 0.019775
0.018007 0.017606 0.017469
0.014626 0.014710 0.015144
0.015755 0.015767 0.015796
0.017432 0.017441 0.017489
0.023203 0.023339 0.023159
0.015655 0.015688 0.015736
0.024115 0.023903 0.023928
0.022056 0.022257 0.022113
0.016061 0.016213 0.016430
0.014249 0.014261 0.014065
0.015744 0.015892 0.015877
0.020142 0.020124 0.020151
0.023502 0.023488 0.023297
0.022718 0.022793 0.022836
0.016936 0.016965 0.016971
0.023186 0.023063 0.022869
0.024852 0.024661 0.024518
0.021183 0.021227 0.021330
0.015715 0.015805 0.015863
0.022361 0.022245 0.022220
0.022006 0.022291 0.022686
0.016213 0.016118 0.016099
0.028382 0.028557 0.028674
0.015901 0.015799 0.015812
0.018791 0.018863 0.018923
0.017088 0.017093 0.017077
0.016294 0.016365 0.016434
0.015817 0.015879 0.015725
0.020119 0.019981 0.020078
0.015950 0.015859 0.015886
0.019623 0.019829 0.020035
0.025527 0.025413 0.025426
0.015361 0.015383 0.015402
0.015000 0.015013 0.015092
0.022501 0.022427 0.022711
0.025188 0.025106 0.025092
0.024236 0.024207 0.024169
0.014170 0.014053 0.013950
0.017909 0.018106 0.018691
0.023793 0.023802 0.023925
0.023539 0.022899 0.022841
0.021847 0.021805 0.021810
0.024856 0.024999 0.024828
0.017400 0.017475 0.017585
0.016220 0.016204 0.016276
0.014791 0.014837 0.014950
0.013826 0.013794 0.013874
0.019585 0.019666 0.019314
0.015128 0.015045 0.015036
0.017230 0.017127 0.016775
0.016789 0.016754 0.016621
0.024855 0.024894 0.025025
0.014520 0.014533 0.014578
0.014021 0.014016 0.014051
0.016026 0.015952 0.015908
0.016004 0.016368 0.016283
0.015791 0.015861 0.015800
0.017519 0.017468 0.017547
0.027577 0.027648 0.027548
0.019246 0.019351 0.019388
0.016589 0.016563 0.016565
0.020897 0.020939 0.020830
0.017070 0.016966 0.016614
0.025448 0.025288 0.025696
0.015595 0.015692 0.015667
0.014787 0.014677 0.014705
0.016425 0.016348 0.016580
0.023196 0.023202 0.023119
0.015001 0.014977 0.015030
0.020146 0.020111 0.020186
0.014309 0.014301 0.014321
0.019096 0.019211 0.019352
0.026403 0.026483 0.026523
0.025159 0.025133 0.025182
0.014966 0.014841 0.014856
0.017002 0.016920 0.017080
0.016741 0.016729 0.016742
0.022856 0.023049 0.022914
0.023761 0.023479 0.023291
0.024977 0.024799 0.024792
0.020359 0.020240 0.020395
0.022520 0.022529 0.022466
0.020400 0.020369 0.020462
0.023448 0.023421 0.023427
0.026817 0.027195 0.027394
0.021226 0.021369 0.021486
0.023436 0.023303 0.023320
0.026152 0.026139 0.026135
0.016499 0.016462 0.016574
0.017146 0.017142 0.017110
0.020009 0.019959 0.020059
0.022179 0.021591 0.021362
0.023027 0.022812 0.022630
0.015535 0.015575 0.015568
0.016774 0.016820 0.017070
0.031550 0.031577 0.031670
0.017558 0.017544 0.017552
0.023273 0.023357 0.023377
0.020128 0.020090 0.020094
0.016639 0.016670 0.016658
0.016143 0.016204 0.016324
0.024462 0.024668 0.024826
0.026932 0.026797 0.026725
0.023143 0.023108 0.023176
0.022473 0.022342 0.022294
0.023828 0.023979 0.024550
0.023823 0.023607 0.023214
0.024375 0.024329 0.024369
0.017274 0.017258 0.017261
0.015715 0.015701 0.015748
0.017153 0.017135 0.017021
0.026425 0.026527 0.026379
0.016797 0.016831 0.016895
0.020381 0.020525 0.020521
0.016191 0.016212 0.016151
0.023552 0.023868 0.023883
0.015534 0.015208 0.015103
0.016467 0.016535 0.016533
0.016733 0.016690 0.016749
0.015226 0.015258 0.015227
0.021929 0.021862 0.021788
0.025274 0.025044 0.025080
0.016066 0.016063 0.016015
0.021146 0.021225 0.021276
0.023107 0.023081 0.023126
0.017521 0.017435 0.017438
0.024732 0.024203 0.024156
0.026221 0.025455 0.025296
0.024193 0.024166 0.024042
0.013916 0.013892 0.013828
0.015642 0.015660 0.015878
0.025195 0.025276 0.025340
0.015857 0.016092 0.016164
0.021430 0.021482 0.021226
0.019919 0.019951 0.020089
0.014052 0.014055 0.014084
0.023295 0.023390 0.023426
0.020323 0.020548 0.020495
0.022260 0.022195 0.022363
0.021932 0.021944 0.021926
0.025546 0.025479 0.025331
0.021855 0.021738 0.021812
0.021491 0.021539 0.021480
0.018546 0.018559 0.018368
0.020730 0.020731 0.020803
0.024573 0.024625 0.024614
0.025280 0.025706 0.025687
0.017263 0.017225 0.017058
0.020767 0.020853 0.020987
0.015252 0.015200 0.015183
0.023627 0.023745 0.023578
0.019799 0.019968 0.020003
0.025467 0.025178 0.025011
0.015287 0.015371 0.015433
0.016953 0.016895 0.016937
0.023244 0.023252 0.022930
0.024380 0.024476 0.025273
0.015454 0.015429 0.015583
0.015233 0.015276 0.015243
0.023943 0.023883 0.023333
0.015735 0.015531 0.015648
0.015551 0.015495 0.015457
0.029847 0.029167 0.027214
0.022650 0.022534 0.022781
0.014558 0.014587 0.014647
0.023460 0.023459 0.023394
0.028476 0.028534 0.028593
0.022745 0.022663 0.022656
0.020008 0.020128 0.020353
0.018985 0.018963 0.018937
0.022480 0.022354 0.022285
0.015206 0.015221 0.015248
0.015678 0.015650 0.015615
0.016629 0.016645 0.016646
0.017070 0.017140 0.017099
0.023212 0.024059 0.024546
0.015321 0.015121 0.015452
0.023053 0.023108 0.022718
0.021091 0.020945 0.021001
0.026588 0.026501 0.026300
0.016230 0.016292 0.016283
0.019175 0.019270 0.019249
0.023428 0.023467 0.023436
0.019757 0.019767 0.019728
0.022188 0.021969 0.021932
0.014681 0.014835 0.014871
0.021067 0.020944 0.020810
0.020362 0.020413 0.020483
0.023588 0.023834 0.023777
0.014828 0.014959 0.015195
0.015951 0.015821 0.015916
0.016315 0.016387 0.016395
0.026863 0.026791 0.026549
0.027269 0.027393 0.027852
0.022626 0.022668 0.022493
0.016734 0.016792 0.016800
0.016185 0.016162 0.016145
0.021462 0.021557 0.021367
0.017484 0.017330 0.017274
0.015943 0.015896 0.015902
0.016068 0.016081 0.016073
0.015657 0.015653 0.015604
0.021163 0.021214 0.021122
0.022711 0.022770 0.022824
0.018432 0.018482 0.019146
0.016218 0.016206 0.016230
0.023542 0.023441 0.023419
0.015213 0.015381 0.015408
0.015578 0.015598 0.015661
0.016331 0.016343 0.016348
0.033784 0.033843 0.033805
0.020552 0.020512 0.020295
0.016846 0.016892 0.016747
0.016130 0.016075 0.016009
0.015905 0.015826 0.015734
0.017297 0.017371 0.017520
0.022396 0.022512 0.022692
0.023752 0.023741 0.023874
0.028936 0.029358 0.029135
0.018974 0.019193 0.019724
0.014997 0.015047 0.014884
0.017017 0.016966 0.017026
0.024302 0.024155 0.023998
0.022897 0.022961 0.022979
0.022143 0.022177 0.022330
0.022288 0.022261 0.021944
0.015049 0.015058 0.015070
0.016066 0.016215 0.016181
0.023852 0.023979 0.023931
0.024549 0.024664 0.024470
0.019900 0.019675 0.019193
0.016225 0.016144 0.016081
0.016223 0.016205 0.016208
0.024300 0.024181 0.024101
0.024748 0.024401 0.024073
0.023931 0.023942 0.023912
0.024106 0.024409 0.024431
0.025313 0.025453 0.025631
0.022376 0.022317 0.022503
0.016846 0.017360 0.017278
0.020378 0.020349 0.020255
0.022145 0.022294 0.022557
0.014724 0.014761 0.014899
0.023554 0.023369 0.023587
0.017821 0.017833 0.017856
0.023140 0.023331 0.023918
0.017289 0.017174 0.017160
0.022376 0.022416 0.022481
0.024702 0.024710 0.024496
0.022043 0.022240 0.022236
0.015476 0.015502 0.015498
0.020076 0.019902 0.019886
0.014531 0.014495 0.014626
0.022331 0.022267 0.022355
0.018609 0.018637 0.018631
0.021559 0.021532 0.021608
0.021578 0.021485 0.021385
0.015845 0.015874 0.015850
0.024731 0.024689 0.024688
0.020690 0.020545 0.020344
0.016394 0.016411 0.016154
0.015230 0.015407 0.015545
0.016069 0.016045 0.015955
0.016515 0.016552 0.016739
0.024853 0.024851 0.025122
0.015830 0.015696 0.015763
0.018450 0.018534 0.018569
0.015600 0.015552 0.015894
0.018248 0.018500 0.018551
0.015161 0.015253 0.015231
0.017433 0.017458 0.017504
0.021086 0.020984 0.021137
0.019138 0.019345 0.019254
0.019589 0.019587 0.019434
0.024223 0.023995 0.023957
0.016093 0.016105 0.016136
0.021808 0.021882 0.021460
0.014572 0.014558 0.014589
0.020627 0.020894 0.020962
0.015893 0.015833 0.015642
0.015905 0.015779 0.015736
0.023647 0.023387 0.023407
0.017274 0.017301 0.017424
0.021834 0.021790 0.022071
0.021766 0.021462 0.021483
0.016138 0.016167 0.016309
0.024621 0.024628 0.024917
0.021536 0.021492 0.021691
0.016629 0.017065 0.017667
0.016750 0.016728 0.016607
0.017970 0.017929 0.017996
0.019758 0.019753 0.019795
0.020630 0.020558 0.020491
0.020254 0.020377 0.020370
0.020596 0.020388 0.020330
0.014856 0.014959 0.015083
0.024678 0.024613 0.024546
0.024264 0.024722 0.024759
0.021602 0.021677 0.021189
0.023874 0.023830 0.024077
0.015539 0.015667 0.015676
0.020345 0.020625 0.020608
0.014337 0.014360 0.014356
0.020802 0.020761 0.020728
0.026833 0.026871 0.027075
0.021995 0.022006 0.022053
0.015963 0.015867 0.015686
0.014212 0.014152 0.014190
0.019752 0.019574 0.019303
0.016166 0.016325 0.016315
0.015363 0.015345 0.015377
0.016316 0.016467 0.016394
0.022978 0.022930 0.023070
0.020525 0.020676 0.020558
0.027573 0.027958 0.027722
0.019086 0.019148 0.019120
0.021426 0.021265 0.021044
0.024827 0.025064 0.025156
0.023061 0.023166 0.023254
0.017189 0.017146 0.017154
0.024398 0.024396 0.024392
0.023439 0.023410 0.023390
0.020893 0.020821 0.020231
0.014092 0.014105 0.014184
0.026149 0.026119 0.026507
0.016257 0.016352 0.016367
0.021770 0.021794 0.021989
0.020028 0.019847 0.019757
0.021707 0.021913 0.022296
0.019441 0.019591 0.019482
0.015374 0.015353 0.015363
0.024522 0.024492 0.024475
0.022152 0.022160 0.022235
0.016068 0.016071 0.016231
0.014657 0.014751 0.014580
0.022586 0.022560 0.022465
0.016339 0.016117 0.016065
0.021024 0.020682 0.020731
0.027137 0.027046 0.026897
0.014247 0.014124 0.014021
0.024175 0.024197 0.024249
0.025751 0.025735 0.025542
0.022383 0.022446 0.022400
0.026346 0.026533 0.026732
0.018476 0.018500 0.018355
0.014728 0.014550 0.014317
0.021731 0.021654 0.021594
0.015704 0.015776 0.015892
0.020860 0.020972 0.021090
0.016743 0.017030 0.016915
0.015106 0.015127 0.015163
0.024052 0.024010 0.023985
0.024808 0.024799 0.024978
0.015596 0.015566 0.015648
0.020519 0.020235 0.020137
0.017695 0.017767 0.017693
0.025595 0.025676 0.026000
0.023447 0.023122 0.023184
0.027359 0.027332 0.027309
0.023812 0.024206 0.024204
0.023516 0.023424 0.023827
0.016304 0.016325 0.016102
0.020800 0.020892 0.020871
0.015334 0.015539 0.015735
0.017024 0.016948 0.017082
0.017715 0.017576 0.017352
0.021406 0.021265 0.021194
0.015662 0.015485 0.015474
0.016848 0.017078 0.017058
0.021252 0.020859 0.020818
0.017740 0.017695 0.017767
0.024646 0.024548 0.024578
0.021617 0.021674 0.021612
0.016127 0.016103 0.016065
0.024755 0.024838 0.024720
0.014531 0.014392 0.014041
0.015161 0.015257 0.015495
0.020312 0.020449 0.020580
0.021138 0.021195 0.021106
0.024645 0.024843 0.025064
0.018169 0.018297 0.018371
0.024546 0.024475 0.024542
0.020224 0.020402 0.020427
0.016537 0.016515 0.016566
0.023487 0.023586 0.023569
0.016415 0.016417 0.016339
0.013862 0.013873 0.013894
0.019662 0.019834 0.020694
0.026247 0.026256 0.026455
0.021123 0.021131 0.021158
0.045095 0.045002 0.044988
0.015691 0.015559 0.015544
0.014963 0.014953 0.014807
0.015316 0.015242 0.015370
0.015983 0.015728 0.015627
0.026809 0.026683 0.026625
0.015388 0.015396 0.015391
0.020254 0.020238 0.020141
0.019821 0.019836 0.019813
0.017679 0.017690 0.017626
0.019514 0.019531 0.019505
0.016958 0.017070 0.017005
0.017159 0.017189 0.017146
0.020836 0.020903 0.021068
0.015763 0.015764 0.015590
0.015785 0.015844 0.015700
0.020832 0.021076 0.021107
0.014049 0.014073 0.014076
0.014249 0.014175 0.014193
0.021232 0.021416 0.022279
0.015026 0.015002 0.015201
0.015259 0.015286 0.015269
0.017991 0.017992 0.017860
0.020298 0.020330 0.020445
0.016240 0.016185 0.015974
0.016780 0.016932 0.017150
0.013906 0.013822 0.013811
0.015148 0.015109 0.015145
0.014107 0.014051 0.014402
0.016652 0.016841 0.016771
0.023333 0.023082 0.023013
0.026075 0.026142 0.026020
0.026037 0.026136 0.026166
0.016571 0.016668 0.016787
0.020634 0.020558 0.020576
0.017778 0.017757 0.017693
0.013833 0.013855 0.013825
0.025595 0.025624 0.025769
0.014142 0.014170 0.014174
0.021427 0.021451 0.021496
0.027957 0.027998 0.028058
0.016665 0.016620 0.016642
0.024668 0.024693 0.024941
0.024996 0.025025 0.024737
0.022273 0.022331 0.022329
0.015812 0.015820 0.015985
0.017814 0.017862 0.017883
0.022441 0.022493 0.022452
0.020597 0.020632 0.020663
0.017664 0.017721 0.017781
0.016218 0.016221 0.016068
0.025338 0.025032 0.024980
0.027147 0.027048 0.026818
0.015358 0.015276 0.015271
0.021334 0.021125 0.020766
0.017029 0.016999 0.017077
0.027428 0.027403 0.027417
0.017085 0.017041 0.017044
0.014537 0.014656 0.014606
0.025958 0.025814 0.025632
0.016674 0.016657 0.016631
0.022400 0.022191 0.022395
0.016664 0.016641 0.016586
0.021636 0.021748 0.022041
0.013775 0.013732 0.013759
0.015299 0.015361 0.015702
0.016243 0.016342 0.016419
0.021197 0.021149 0.021213
0.016740 0.016924 0.016874
0.016784 0.016825 0.016828
0.020123 0.020083 0.020001
0.020230 0.020160 0.020626
0.015837 0.015873 0.015711
0.023476 0.023299 0.023486
0.028211 0.028168 0.028100
0.027746 0.027616 0.027702
0.025686 0.025603 0.025551
0.015686 0.015589 0.015696
0.018576 0.018587 0.018522
0.024616 0.024702 0.024823
0.022282 0.022373 0.022351
0.014378 0.014477 0.014447
0.021279 0.021276 0.021455
0.022468 0.022414 0.022382
0.017566 0.016983 0.016312
0.020405 0.020424 0.020638
0.023124 0.023118 0.023027
0.021366 0.021249 0.021269
0.014992 0.015011 0.015021
0.014739 0.014881 0.014978
0.014021 0.014297 0.014367
0.026987 0.027324 0.027353
0.016229 0.016168 0.016200
0.016739 0.016709 0.016662
0.015955 0.015884 0.015837
0.027722 0.027730 0.027767
0.016961 0.016804 0.016822
0.016452 0.016468 0.016462
0.025642 0.025554 0.025612
0.030090 0.029218 0.029289
0.023508 0.023494 0.023430
0.024839 0.024813 0.024769
0.022866 0.022915 0.022871
0.015053 0.015032 0.014810
0.021120 0.021201 0.021136
0.024541 0.024507 0.024529
0.022747 0.022737 0.022706
0.018254 0.018228 0.017834
0.022572 0.023436 0.023542
0.017444 0.017460 0.017447
0.016047 0.016138 0.016526
0.026800 0.026829 0.027274
0.016927 0.016800 0.016860
0.015571 0.015806 0.015708
0.015719 0.015579 0.015678
0.018112 0.018099 0.018113
0.016657 0.016654 0.016600
0.015535 0.015574 0.015506
0.019297 0.019293 0.019028
0.033877 0.033852 0.033956
0.018238 0.018208 0.018048
0.014523 0.014517 0.014453
0.025082 0.024274 0.024185
0.021140 0.021150 0.021127
0.020638 0.020976 0.020992
0.016752 0.016760 0.016726
0.024114 0.024099 0.024174
0.020190 0.019996 0.020024
0.015387 0.015449 0.015342
0.022148 0.022268 0.022255
0.045623 0.045635 0.045698
0.024855 0.024848 0.024688
0.020241 0.019979 0.020172
0.016091 0.015862 0.016006
0.018970 0.018971 0.018953
0.018192 0.018124 0.018093
0.022959 0.022944 0.023248
0.023260 0.023293 0.023187
0.016342 0.016261 0.016201
0.019521 0.019513 0.019533
0.024568 0.024604 0.024665
0.015786 0.015544 0.015554
0.022208 0.022139 0.022047
0.015616 0.015663 0.015639
0.018234 0.018521 0.018515
0.019904 0.020314 0.020276
0.015846 0.015921 0.015800
0.025853 0.025839 0.025545
0.021681 0.021874 0.021898
0.018865 0.018805 0.018788
0.016857 0.016753 0.016662
0.015278 0.015171 0.015170
0.027414 0.027779 0.028014
0.026032 0.026149 0.026130
0.020625 0.020457 0.020360
0.023532 0.023409 0.023495
0.017573 0.017338 0.017280
0.017556 0.017332 0.017282
0.024837 0.024808 0.024798
0.042501 0.042633 0.042754
0.023907 0.023845 0.023855
0.019503 0.019428 0.019198
0.024269 0.024271 0.024133
0.027688 0.027588 0.027439
0.045024 0.044964 0.044955
0.023038 0.023064 0.023119
0.015438 0.015398 0.015413
0.024035 0.024268 0.024345
0.024297 0.024180 0.024152
0.021384 0.021524 0.022186
0.022465 0.022461 0.022406
0.020405 0.020344 0.020325
0.016047 0.016326 0.016568
0.016635 0.016985 0.017034
0.016040 0.015959 0.015986
0.025043 0.024894 0.024778
0.024595 0.024572 0.024733
0.021474 0.021497 0.021345
0.014512 0.014572 0.014558
0.016559 0.016439 0.016467
0.017268 0.017299 0.017325
0.022324 0.022157 0.022098
0.024338 0.024334 0.024165
0.016351 0.016331 0.016343
0.014932 0.014826 0.014843
0.016317 0.016277 0.016250
0.016076 0.015993 0.015950
0.013914 0.013850 0.013845
0.014888 0.014798 0.014669
0.016944 0.016746 0.016718
0.015750 0.015688 0.015856
0.018561 0.018437 0.018318
0.016761 0.016759 0.016934
0.018693 0.018571 0.018600
0.015889 0.015602 0.015742
0.027059 0.027014 0.026999
0.021856 0.022177 0.022526
0.020721 0.020688 0.020672
0.018846 0.018787 0.018901
0.017755 0.017687 0.017709
0.015087 0.015158 0.015229
0.015758 0.015729 0.015664
0.022358 0.022616 0.022773
0.016723 0.016585 0.016530
0.017836 0.017726 0.017734
0.020467 0.020606 0.020657
0.015699 0.015527 0.015510
0.026435 0.026445 0.026178
0.023216 0.023335 0.023217
0.019924 0.019905 0.019885
0.016207 0.016334 0.016383
0.013483 0.013728 0.013892
0.015498 0.015490 0.015497
0.015765 0.015955 0.016052
0.020280 0.020399 0.020440
0.021934 0.021731 0.021594
0.027897 0.028178 0.028246
0.014156 0.014207 0.014245
0.016329 0.016331 0.016163
0.023558 0.023568 0.023547
0.026004 0.025510 0.025614
0.016677 0.016665 0.016731
0.023420 0.023443 0.023554
0.020244 0.020207 0.020143
0.020540 0.020878 0.020878
0.018708 0.018656 0.018664
0.019372 0.019376 0.019377
0.019965 0.019838 0.019927
0.020258 0.020112 0.020020
0.019012 0.018966 0.018984
0.042737 0.042753 0.043213
0.013987 0.014136 0.014180
0.020493 0.020322 0.020273
0.027663 0.027670 0.027676
0.025255 0.024927 0.024897
0.019526 0.019374 0.018921
0.023929 0.024130 0.024152
0.018823 0.018799 0.018851
0.019190 0.019204 0.019200
0.013920 0.014122 0.014165
0.016544 0.016468 0.016346
0.021773 0.021891 0.021695
0.042381 0.042499 0.042672
0.017424 0.017303 0.017172
0.025709 0.025689 0.025681
0.022921 0.022985 0.022961
0.020987 0.020719 0.020585
0.021554 0.021603 0.021424
0.015500 0.015490 0.015327
0.021306 0.021329 0.021144
0.015201 0.015434 0.015433
0.016650 0.016691 0.016816
0.016497 0.016601 0.016616
0.025617 0.025620 0.025688
0.022400 0.022343 0.022097
0.024555 0.024430 0.025086
0.016872 0.016872 0.016895
0.024629 0.024778 0.024781
0.022364 0.022442 0.022515
0.024941 0.024854 0.023906
0.020154 0.020222 0.020712
0.023107 0.023157 0.023152
0.016030 0.016009 0.016059
0.021109 0.021219 0.021118
0.021753 0.021939 0.021978
0.016190 0.016200 0.016153
0.015344 0.015383 0.015423
0.024621 0.024751 0.024756
0.017564 0.017567 0.017562
0.023252 0.023274 0.023326
0.016464 0.016505 0.016722
0.022924 0.022862 0.023394
0.015141 0.015221 0.015239
0.024679 0.024853 0.025124
0.019731 0.019914 0.020222
