0.725546 0.725957 0.727408
0.490870 0.492267 0.490815
0.531057 0.531755 0.533201
0.386950 0.387004 0.384992
0.593614 0.596499 0.591945
0.527207 0.527625 0.526373
0.411641 0.411284 0.409736
0.649835 0.640494 0.637785
0.399126 0.399904 0.407844
0.629481 0.636325 0.639356
0.553724 0.553369 0.553315
0.586257 0.565966 0.556954
0.467508 0.464913 0.462275
0.640742 0.638589 0.638068
0.660638 0.660594 0.661091
0.540233 0.538140 0.537229
0.732297 0.735172 0.743809
0.756576 0.774547 0.780223
0.820352 0.826072 0.828949
0.467568 0.462175 0.434002
0.352894 0.352959 0.341671
0.894752 0.897232 0.895255
0.353503 0.352846 0.353063
0.396964 0.391469 0.390407
0.356741 0.354727 0.348847
0.445037 0.440771 0.437503
0.715177 0.707906 0.707103
0.471880 0.468723 0.462774
0.414471 0.415663 0.417627
0.750007 0.753306 0.757651
0.750157 0.745798 0.746749
0.570952 0.570515 0.570150
0.358911 0.357533 0.356165
0.480479 0.480675 0.480746
0.733451 0.718061 0.709905
0.780473 0.777882 0.803820
0.584510 0.585029 0.586259
0.410330 0.411265 0.412791
0.693278 0.692110 0.684189
0.758206 0.754991 0.746515
0.640913 0.636154 0.641057
0.669147 0.668946 0.686299
0.613594 0.621282 0.628948
0.358455 0.359064 0.357964
0.672615 0.672167 0.665001
0.536104 0.540060 0.541737
0.597072 0.597185 0.586095
0.380189 0.381692 0.381715
0.434549 0.430088 0.423412
0.419860 0.432696 0.431617
0.470910 0.480834 0.481673
0.605257 0.623167 0.630489
0.378211 0.369209 0.367263
0.535888 0.535947 0.538516
0.453420 0.448119 0.446111
0.751465 0.752531 0.751038
0.382910 0.382192 0.378035
0.718667 0.719325 0.720747
0.646334 0.635565 0.616446
0.412428 0.413224 0.413481
0.391596 0.392326 0.396987
0.397291 0.394444 0.392092
0.714703 0.715679 0.707799
0.398361 0.383036 0.379865
0.662369 0.665914 0.678117
0.377485 0.377429 0.372662
0.695040 0.695178 0.696530
0.501847 0.506746 0.506235
0.557772 0.557865 0.557858
0.421460 0.421425 0.420365
0.448874 0.454311 0.461003
0.658980 0.658562 0.657040
0.488583 0.489290 0.483976
0.491317 0.493063 0.495728
0.584446 0.580881 0.576543
0.698726 0.699643 0.708233
0.355049 0.356907 0.362218
0.631187 0.622024 0.617447
0.639209 0.637933 0.624228
0.518477 0.512936 0.511731
0.779641 0.778793 0.777873
0.733981 0.728777 0.708432
0.394796 0.399269 0.396063
0.400564 0.399925 0.395816
0.391106 0.391873 0.392150
0.649123 0.671643 0.680215
0.415663 0.417627 0.422024
0.488612 0.489936 0.491158
0.448101 0.458431 0.453555
0.394497 0.395186 0.395652
0.455128 0.457128 0.459649
0.691475 0.681116 0.672398
0.426407 0.426465 0.427886
0.352490 0.353410 0.352001
0.710942 0.716944 0.720304
0.386475 0.385819 0.385316
0.670976 0.671644 0.684060
0.617344 0.616780 0.616142
0.387983 0.390675 0.389448
0.477000 0.451887 0.450918
0.608245 0.608024 0.608007
0.656013 0.650478 0.637322
0.669360 0.676936 0.662812
0.422646 0.425750 0.426708
0.724228 0.719686 0.714262
0.660609 0.661653 0.658340
0.639735 0.638340 0.638237
0.614768 0.610109 0.620158
0.571084 0.575395 0.590864
0.723104 0.716757 0.708623
0.384978 0.383140 0.383004
0.753183 0.758504 0.758745
0.370337 0.373336 0.373194
0.654877 0.649931 0.635411
0.812310 0.795556 0.797484
0.623828 0.631942 0.639046
0.742817 0.741369 0.740149
0.490861 0.488577 0.486770
0.754262 0.752558 0.745223
0.565908 0.560311 0.569087
0.618326 0.611736 0.610514
0.479043 0.474726 0.477675
0.641447 0.637609 0.635358
0.695536 0.699368 0.701187
0.447768 0.445575 0.445258
0.406840 0.405912 0.407979
0.638186 0.637661 0.636770
0.654820 0.661088 0.657822
0.527815 0.527253 0.527035
0.282907 0.278178 0.277883
0.602396 0.597399 0.592738
0.598547 0.598343 0.594058
0.473319 0.473834 0.475633
0.349733 0.349392 0.349840
0.651327 0.654643 0.660222
0.705167 0.711116 0.711024
0.801721 0.805967 0.811666
0.353670 0.352904 0.351388
0.762266 0.763986 0.764949
0.439476 0.434259 0.429199
0.373694 0.372828 0.370396
0.645766 0.645235 0.638990
0.370430 0.370779 0.368851
0.626407 0.628626 0.628619
0.426738 0.435082 0.447378
0.725646 0.729520 0.729165
0.721152 0.715237 0.710993
0.710295 0.707330 0.710721
0.623575 0.618740 0.591170
0.477474 0.477782 0.483341
0.477250 0.477040 0.478955
0.599970 0.599245 0.598356
0.391636 0.391958 0.392677
0.576588 0.594282 0.594713
0.688957 0.651650 0.645861
0.405445 0.403198 0.402030
0.626086 0.629481 0.636325
0.504508 0.500969 0.500704
0.661663 0.658519 0.655866
0.689874 0.697129 0.702630
0.410981 0.414363 0.415739
0.809963 0.795169 0.798980
0.441113 0.443874 0.444112
0.422622 0.420727 0.415460
0.759881 0.758261 0.751307
0.601136 0.608724 0.605995
0.353053 0.353381 0.352812
0.631968 0.616821 0.611364
0.371195 0.382717 0.384972
0.662955 0.664108 0.678270
0.619146 0.618165 0.625165
0.640511 0.642340 0.645442
0.396098 0.397737 0.395762
0.686338 0.684458 0.687353
0.416443 0.414834 0.414462
0.835217 0.838101 0.839457
0.399973 0.396028 0.395747
0.400808 0.396809 0.401179
0.367601 0.358180 0.361054
0.722059 0.721266 0.718553
0.731995 0.727155 0.722287
0.811838 0.822071 0.820654
0.476303 0.470591 0.469225
0.703185 0.706902 0.703775
0.647650 0.637898 0.637179
0.586127 0.586433 0.586948
0.684462 0.682940 0.682231
0.477827 0.478592 0.481466
0.378213 0.378854 0.379485
0.359651 0.360789 0.361238
0.411830 0.411397 0.411035
0.376399 0.374142 0.376333
0.616446 0.608404 0.606065
0.801641 0.802411 0.805007
0.355691 0.355623 0.354934
0.384350 0.378347 0.385398
0.393809 0.391101 0.388612
0.696530 0.700780 0.704660
0.365477 0.371853 0.383523
0.738712 0.736274 0.738494
0.782520 0.781157 0.776431
0.626550 0.624951 0.619918
0.369230 0.368317 0.369220
0.444906 0.442580 0.443612
0.370462 0.371645 0.369604
0.604023 0.614777 0.619401
0.712901 0.715788 0.726083
0.792401 0.792762 0.787588
0.405881 0.403351 0.402363
0.357599 0.360176 0.368512
0.817072 0.816680 0.818762
0.643639 0.644502 0.641935
0.698552 0.701019 0.706848
0.368051 0.367601 0.358180
0.586356 0.586795 0.586925
0.415263 0.409900 0.410003
0.428401 0.418066 0.423005
0.711869 0.710370 0.714658
0.721142 0.737890 0.731036
0.609940 0.605657 0.607801
0.607631 0.606205 0.606592
0.434334 0.433876 0.427724
0.718559 0.719304 0.718828
0.384491 0.383531 0.383674
0.712102 0.709022 0.672699
0.444467 0.440938 0.440683
0.361849 0.359531 0.354497
0.559476 0.557051 0.545259
0.700973 0.701158 0.705597
0.702070 0.704038 0.708617
0.393092 0.393280 0.393676
0.745170 0.744291 0.751703
0.372570 0.371949 0.360500
0.605707 0.606995 0.606273
0.607191 0.629639 0.643223
0.692186 0.692656 0.696338
0.490990 0.491449 0.496941
0.731119 0.726821 0.735713
0.378408 0.376442 0.376123
0.693421 0.692655 0.689096
0.628614 0.645147 0.647353
0.371242 0.371994 0.370114
0.708771 0.711498 0.710405
0.650344 0.650756 0.650182
0.391315 0.396084 0.396208
0.636004 0.635352 0.638635
0.803728 0.803808 0.803590
0.648224 0.645985 0.634133
0.601980 0.603378 0.609436
0.566524 0.575196 0.582886
0.716780 0.718952 0.724749
0.472113 0.466774 0.466684
0.333347 0.329192 0.327539
0.408209 0.408852 0.407560
0.625312 0.625880 0.631326
0.751270 0.754598 0.763488
0.300453 0.304846 0.330828
0.496242 0.485038 0.482765
0.438854 0.442762 0.452800
0.618786 0.614570 0.603787
0.647708 0.648390 0.647143
0.688987 0.687072 0.688488
0.692172 0.701902 0.727915
0.448922 0.439564 0.440593
0.631800 0.630820 0.630524
0.887219 0.888622 0.889110
0.699357 0.704223 0.705166
0.753285 0.756110 0.767202
0.714898 0.723015 0.726192
0.368512 0.379624 0.385746
0.711743 0.710600 0.707828
0.478180 0.457345 0.451517
0.491496 0.497136 0.497955
0.675858 0.678569 0.686228
0.488952 0.489344 0.492238
0.655323 0.660388 0.652900
0.804011 0.812713 0.819306
0.418048 0.415304 0.413162
0.679227 0.673513 0.672936
0.380006 0.381291 0.387136
0.394287 0.396206 0.396654
0.484125 0.480759 0.469726
0.534767 0.529673 0.529860
0.667196 0.667995 0.675725
0.753283 0.719534 0.713310
0.607817 0.607219 0.607503
0.737749 0.739436 0.737500
0.448098 0.449586 0.449530
0.651841 0.656612 0.659874
0.382192 0.379722 0.379584
0.641169 0.650252 0.663696
0.601118 0.599695 0.599072
0.712097 0.711634 0.697479
0.570413 0.570103 0.570193
0.357857 0.367292 0.366040
0.411619 0.413153 0.406873
0.469025 0.469043 0.469565
0.431077 0.445782 0.460312
0.815949 0.816263 0.815648
0.703823 0.703788 0.701762
0.384728 0.384759 0.382758
0.471433 0.476165 0.479707
0.675553 0.678634 0.691003
0.360035 0.359940 0.359591
0.397851 0.394297 0.395661
0.763417 0.771354 0.771777
0.803346 0.804011 0.812713
0.657276 0.656259 0.658624
0.411102 0.412578 0.411620
0.763663 0.761777 0.759186
0.733166 0.734282 0.734210
0.660739 0.661775 0.661809
0.778050 0.776519 0.776635
0.412388 0.431258 0.419617
0.536884 0.533166 0.518905
0.638944 0.640251 0.647554
0.662460 0.660083 0.662281
0.728899 0.731502 0.729819
0.509881 0.514407 0.514853
0.577215 0.573033 0.566752
0.718641 0.722923 0.717661
0.664095 0.661549 0.660963
0.700648 0.701669 0.704327
0.681792 0.671999 0.674819
0.781044 0.774902 0.735054
0.476563 0.476229 0.477135
0.651712 0.648324 0.656845
0.470880 0.471641 0.467642
0.404831 0.403467 0.401100
0.669950 0.670094 0.672016
0.365313 0.365329 0.362844
0.563861 0.577141 0.568268
0.312583 0.312451 0.311684
0.674454 0.663779 0.663054
0.640536 0.643069 0.641738
0.516994 0.516383 0.518478
0.711204 0.706767 0.713827
0.679848 0.683717 0.682386
0.628592 0.625312 0.625880
0.397177 0.397730 0.396872
0.428032 0.429330 0.429948
0.773017 0.772524 0.771994
0.340005 0.338487 0.335458
0.708681 0.701030 0.698009
0.779635 0.781750 0.788602
0.472525 0.478922 0.480333
0.702014 0.698969 0.709545
0.414027 0.418094 0.418624
0.658316 0.659152 0.665910
0.840047 0.842273 0.848856
0.307530 0.307703 0.306157
0.829478 0.834169 0.844520
0.618426 0.609212 0.603988
0.608846 0.607269 0.613594
0.707672 0.705511 0.702051
0.375037 0.375466 0.374922
0.684754 0.683142 0.682649
0.753023 0.766200 0.772214
0.511637 0.502522 0.499443
0.710143 0.712526 0.711585
0.416300 0.409939 0.412206
0.662650 0.658599 0.655540
0.584834 0.583774 0.581338
0.762065 0.763397 0.746373
0.452827 0.469580 0.506647
0.649154 0.650805 0.655945
0.752279 0.754576 0.760815
0.541612 0.553974 0.555026
0.749454 0.752057 0.751305
0.769919 0.768224 0.763029
0.655855 0.652534 0.654288
0.465034 0.464864 0.462725
0.667585 0.674230 0.675356
0.492951 0.499930 0.494050
0.401913 0.405457 0.420980
0.511072 0.512030 0.510245
0.594951 0.596403 0.595521
0.415676 0.411986 0.403498
0.355064 0.360693 0.357138
0.435522 0.441378 0.443476
0.577383 0.584273 0.588268
0.408103 0.408801 0.411068
0.395745 0.395114 0.394457
0.723449 0.721695 0.715175
0.628732 0.628328 0.622531
0.485676 0.501605 0.502146
0.394854 0.393642 0.388591
0.454350 0.453723 0.450933
0.640470 0.644172 0.657881
0.608065 0.606834 0.612641
0.706031 0.705354 0.695082
0.652148 0.651033 0.648972
0.418216 0.416709 0.411964
0.358938 0.357513 0.358224
0.400445 0.399674 0.402107
0.733644 0.737191 0.736150
0.613785 0.613028 0.612225
0.367344 0.369125 0.367628
0.571182 0.570971 0.570683
0.489420 0.486986 0.484488
0.635393 0.632928 0.632797
0.730763 0.731298 0.731279
0.597800 0.598964 0.598770
0.643285 0.642632 0.642001
0.695119 0.702027 0.704521
0.669597 0.670415 0.674218
0.399003 0.398345 0.397183
0.492688 0.491778 0.492139
0.361891 0.362355 0.365830
0.720271 0.721736 0.722752
0.438065 0.436494 0.434512
0.413971 0.424335 0.430396
0.546538 0.555761 0.563468
0.610431 0.613719 0.625807
0.489971 0.485031 0.482629
0.318833 0.318765 0.319583
0.685529 0.676875 0.675529
0.714310 0.716218 0.716699
0.498234 0.488099 0.475138
0.389575 0.389139 0.389548
0.454686 0.440248 0.431180
0.653405 0.650910 0.649652
0.704759 0.705741 0.706568
0.408193 0.406438 0.400373
0.594855 0.602446 0.605637
0.737481 0.732297 0.735172
0.428122 0.433436 0.432066
0.694877 0.697950 0.696727
0.388513 0.389031 0.391449
0.675282 0.683195 0.686421
0.440855 0.424055 0.425158
0.709952 0.718025 0.686115
0.394002 0.393952 0.392396
0.731172 0.729086 0.749770
0.629852 0.631625 0.634585
0.490165 0.492631 0.491215
0.716376 0.713394 0.713324
0.764265 0.774040 0.780565
0.538170 0.535686 0.524875
0.354235 0.358388 0.363475
0.442762 0.452800 0.448913
0.389086 0.383525 0.379728
0.625577 0.601680 0.601030
0.870011 0.869790 0.869793
0.698229 0.697291 0.703295
0.694575 0.685718 0.687512
0.411180 0.410366 0.407496
0.602277 0.604317 0.612997
0.359656 0.361796 0.364104
0.636895 0.615398 0.610476
0.427710 0.421207 0.418953
0.766558 0.771040 0.772454
0.567832 0.572286 0.573880
0.633955 0.639008 0.649893
0.490443 0.491034 0.489819
0.315872 0.315018 0.311431
0.541939 0.535647 0.534762
0.676355 0.654254 0.637821
0.688677 0.685593 0.677147
0.540624 0.540262 0.539903
0.423357 0.429691 0.436526
0.496108 0.493554 0.481520
0.540543 0.532506 0.527873
0.359256 0.359727 0.365894
0.785877 0.780493 0.779451
0.465264 0.464823 0.464823
0.641828 0.641617 0.639694
0.446749 0.447775 0.446886
0.372580 0.372740 0.372920
0.761166 0.759891 0.758324
0.535837 0.554672 0.562480
0.627328 0.599769 0.605257
0.733163 0.732075 0.720584
0.885263 0.888236 0.885867
0.430598 0.428456 0.427182
0.396451 0.401754 0.403289
0.560157 0.553561 0.538621
0.388139 0.387838 0.388311
0.555352 0.545484 0.540364
0.713197 0.715202 0.718099
0.770215 0.772256 0.770216
0.362844 0.364688 0.362592
0.761383 0.746208 0.745069
0.406034 0.405398 0.405480
0.672239 0.674735 0.674003
0.350115 0.348059 0.347234
0.758686 0.762469 0.761400
0.369207 0.370579 0.370534
0.670296 0.686318 0.691818
0.492528 0.490861 0.488577
0.729692 0.725189 0.734637
0.633545 0.635720 0.635270
0.725946 0.722477 0.722197
0.619543 0.623686 0.632700
0.636676 0.628649 0.630697
0.467480 0.466287 0.463696
0.669882 0.669950 0.670094
0.732766 0.733811 0.735516
0.422462 0.421363 0.420494
0.355351 0.355503 0.351689
0.355308 0.355686 0.357494
0.525971 0.527269 0.525820
0.385260 0.386964 0.380788
0.472842 0.517370 0.517608
0.824289 0.829494 0.832154
0.711614 0.679409 0.671547
0.485204 0.486126 0.486162
0.649419 0.651364 0.652380
0.599244 0.594846 0.592429
0.397230 0.397172 0.397961
0.383735 0.383719 0.383015
0.665927 0.668621 0.674810
0.473293 0.473727 0.474412
0.454437 0.447946 0.449290
0.341214 0.346860 0.355709
0.473938 0.473290 0.473128
0.729422 0.739303 0.749810
0.639469 0.639735 0.638340
0.381020 0.386146 0.387479
0.364628 0.363226 0.361277
0.526228 0.525859 0.525351
0.367030 0.367927 0.370711
0.883445 0.870574 0.869852
0.806736 0.802896 0.791099
0.535734 0.538697 0.556278
0.395146 0.396855 0.400502
0.380691 0.381009 0.377162
0.449906 0.439482 0.436977
0.352788 0.352806 0.353441
0.362478 0.364496 0.365621
0.303370 0.306358 0.305966
0.821827 0.827824 0.826196
0.393558 0.388200 0.389088
0.383290 0.381989 0.381032
0.870586 0.868899 0.866492
0.460524 0.454863 0.454130
0.475747 0.463689 0.456951
0.445255 0.445267 0.442426
0.604105 0.586540 0.576936
0.779233 0.777193 0.772862
0.684293 0.703936 0.712312
0.490415 0.491814 0.496294
0.497963 0.496916 0.490227
0.504317 0.501336 0.500456
0.679409 0.671547 0.668433
0.706671 0.706718 0.706875
0.672221 0.675227 0.675015
0.797688 0.798500 0.798560
0.615086 0.615674 0.626008
0.832495 0.828357 0.822590
0.600257 0.598520 0.596102
0.604713 0.607063 0.606572
0.658845 0.657077 0.652128
0.490802 0.491368 0.492551
0.531940 0.530246 0.526457
0.696388 0.693896 0.692489
0.404792 0.399973 0.396028
0.691370 0.690303 0.679116
0.828643 0.827790 0.825711
0.465512 0.466654 0.465566
0.436881 0.433519 0.434266
0.665729 0.660770 0.657930
0.495573 0.482554 0.479128
0.575062 0.579365 0.586464
0.576260 0.579024 0.576071
0.445887 0.448171 0.448910
0.640972 0.632608 0.626500
0.386578 0.395008 0.397330
0.576419 0.575322 0.582144
0.357765 0.359319 0.359709
0.375923 0.373184 0.374308
0.723802 0.727392 0.731176
0.557277 0.560176 0.558465
0.473227 0.473323 0.472939
0.730886 0.716339 0.697117
0.399376 0.397874 0.397323
0.631702 0.613721 0.611348
0.795168 0.802944 0.802858
0.633217 0.636344 0.641328
0.722670 0.724339 0.722116
0.382568 0.383266 0.384574
0.373012 0.372149 0.372354
0.705597 0.704952 0.691320
0.701023 0.702396 0.705355
0.748981 0.745178 0.745969
0.368976 0.369002 0.368160
0.595837 0.603633 0.590208
0.608698 0.607759 0.605892
0.444198 0.445118 0.442669
0.370245 0.368630 0.367436
0.769883 0.770238 0.770315
0.674571 0.673820 0.670349
0.649535 0.649748 0.650479
0.436255 0.445314 0.432619
0.366473 0.369394 0.373823
0.310339 0.309681 0.309038
0.430981 0.431064 0.431218
0.734017 0.730141 0.729503
0.672547 0.670476 0.663764
0.690429 0.687464 0.672675
0.478909 0.484990 0.493162
0.735579 0.735970 0.739025
0.543648 0.542759 0.541612
0.437542 0.431054 0.423944
0.397388 0.404487 0.406372
0.435349 0.434830 0.435247
0.818576 0.818274 0.820938
0.460083 0.459603 0.461524
0.411685 0.413792 0.403675
0.596448 0.598661 0.595023
0.734653 0.735464 0.729673
0.825955 0.823006 0.771170
0.400506 0.400056 0.398807
0.432843 0.434602 0.435532
0.691667 0.690769 0.697548
0.538682 0.536964 0.541084
0.445264 0.448254 0.445501
0.676420 0.676547 0.674109
0.449631 0.450254 0.450199
0.719946 0.721993 0.727545
0.659543 0.663648 0.654280
0.477771 0.478540 0.478666
0.686859 0.684337 0.680637
0.388606 0.389862 0.390670
0.751930 0.749553 0.753588
0.407305 0.409250 0.409550
0.616464 0.624515 0.647774
0.593482 0.610996 0.620892
0.625833 0.626397 0.627185
0.368689 0.367763 0.366594
0.449009 0.449272 0.446955
0.583737 0.580741 0.579050
0.372332 0.373861 0.372517
0.407244 0.406347 0.410168
0.769772 0.771956 0.774360
0.748499 0.740104 0.718148
0.400903 0.401637 0.407434
0.454458 0.454735 0.454723
0.417964 0.419485 0.421392
0.673089 0.668930 0.665966
0.404576 0.407421 0.410483
0.389913 0.387252 0.383611
0.555297 0.554534 0.554151
0.442460 0.443291 0.443185
0.579088 0.580343 0.592264
0.770880 0.763663 0.761777
0.438364 0.438514 0.439478
0.456738 0.454765 0.453613
0.369939 0.369466 0.364960
0.523481 0.521859 0.517550
0.492298 0.496546 0.494250
0.383566 0.385687 0.387753
0.533940 0.523726 0.518029
0.428151 0.435071 0.436224
0.355682 0.366685 0.367835
0.396158 0.396669 0.399339
0.656832 0.656590 0.654716
0.656959 0.668579 0.673578
0.691311 0.703418 0.708167
0.358400 0.358931 0.358342
0.668737 0.668397 0.673435
0.367070 0.366928 0.366630
0.680905 0.683716 0.681702
0.368951 0.370664 0.368672
0.399416 0.399472 0.400050
0.736193 0.736896 0.755587
0.648768 0.650814 0.651995
0.448898 0.457818 0.461063
0.724864 0.726938 0.764547
0.356698 0.360192 0.358785
0.453042 0.446748 0.445169
0.731512 0.730520 0.730994
0.318661 0.320510 0.321225
0.342256 0.341663 0.340005
0.688370 0.686678 0.680697
0.357982 0.364910 0.364628
0.584797 0.589061 0.581400
0.629110 0.628301 0.626593
0.728163 0.724596 0.711681
0.641034 0.642807 0.643033
0.469769 0.464129 0.453086
0.393112 0.392529 0.394259
0.467576 0.468138 0.475410
0.474068 0.473315 0.468964
0.389099 0.392128 0.398148
0.430616 0.430744 0.431837
0.688528 0.689969 0.696055
0.694427 0.692929 0.692909
0.576811 0.572427 0.581557
0.365177 0.363807 0.364825
0.525025 0.526474 0.525809
0.352740 0.352635 0.351739
0.429271 0.426204 0.421499
0.428052 0.426988 0.426512
0.490779 0.490661 0.492271
0.369297 0.367608 0.368635
0.698071 0.706048 0.713495
0.700695 0.705172 0.698653
0.640884 0.646294 0.648350
0.501324 0.474258 0.455912
0.529985 0.528851 0.528184
0.591830 0.590222 0.586240
0.652193 0.654419 0.656313
0.540765 0.551493 0.552619
0.354998 0.347645 0.352466
0.653555 0.653093 0.651432
0.741391 0.731404 0.728702
0.672592 0.686893 0.691817
0.688273 0.689683 0.701427
0.440690 0.462993 0.471994
0.356884 0.359789 0.360663
0.538214 0.536451 0.537261
0.794626 0.794622 0.795363
0.477375 0.475925 0.475454
0.514797 0.517245 0.527668
0.466595 0.459591 0.451905
0.378027 0.375865 0.375121
0.544140 0.541806 0.539295
0.381478 0.378281 0.375786
0.774499 0.773590 0.771218
0.476931 0.488157 0.493331
0.880323 0.880332 0.870585
0.829769 0.830970 0.830264
0.719946 0.717528 0.719860
0.390019 0.387664 0.384584
0.761973 0.759745 0.754273
0.349765 0.349353 0.349604
0.394832 0.396650 0.396794
0.410205 0.410533 0.416048
0.657619 0.661912 0.662404
0.365376 0.364001 0.363567
0.659659 0.659826 0.658473
0.442352 0.444928 0.448039
0.799151 0.798704 0.798122
0.895255 0.887586 0.880323
0.477286 0.475286 0.471778
0.646412 0.649460 0.647388
0.737422 0.735247 0.730866
0.340827 0.340947 0.342882
0.473259 0.473243 0.474058
0.438954 0.442127 0.442285
0.477611 0.465786 0.465175
0.658007 0.658845 0.657077
0.474885 0.494418 0.496482
0.434501 0.425919 0.410641
0.780444 0.774593 0.781419
0.687560 0.688232 0.687668
0.648470 0.647413 0.649924
0.765495 0.764794 0.788105
0.685786 0.693646 0.703614
0.693830 0.691580 0.689506
0.510070 0.504945 0.499270
0.803523 0.810916 0.817243
0.415878 0.418099 0.423662
0.747001 0.747714 0.749288
0.718804 0.719533 0.719610
0.736645 0.736685 0.735845
0.411285 0.412260 0.407318
0.671388 0.668735 0.670668
0.781509 0.781441 0.781546
0.653687 0.655151 0.655855
0.444789 0.444590 0.443957
0.801140 0.805155 0.814194
0.365462 0.366051 0.366473
0.406855 0.409393 0.408209
0.345927 0.348828 0.349792
0.596627 0.594076 0.592665
0.359413 0.362622 0.363849
0.401855 0.412656 0.414605
0.641136 0.637382 0.636248
0.712590 0.712480 0.711740
0.448655 0.450927 0.458831
0.384679 0.384733 0.382023
0.340469 0.338198 0.338135
0.346955 0.347022 0.347051
0.750888 0.746362 0.745432
0.457230 0.453239 0.437162
0.729823 0.729649 0.755248
0.364093 0.363955 0.366233
0.413714 0.416842 0.421764
0.781344 0.789308 0.801219
0.789854 0.785738 0.778030
0.720985 0.720260 0.718317
0.749984 0.764767 0.767555
0.649583 0.664708 0.669171
0.724531 0.714584 0.719793
0.725317 0.724724 0.724211
0.742614 0.742808 0.744567
0.396877 0.403793 0.411655
0.428201 0.428997 0.430381
0.767841 0.768098 0.769574
0.656069 0.656970 0.657540
0.709695 0.705060 0.696874
0.427148 0.422220 0.419528
0.675980 0.670592 0.673661
0.759649 0.759689 0.755912
0.701030 0.698009 0.696785
0.377974 0.383813 0.384414
0.351725 0.352474 0.357726
0.392120 0.372950 0.382430
0.707938 0.698626 0.693456
0.758504 0.758745 0.764789
0.599077 0.600538 0.600438
0.501194 0.500351 0.499477
0.397690 0.398058 0.395864
0.648129 0.662486 0.667150
0.396171 0.394648 0.383944
0.730929 0.750664 0.755014
0.690664 0.697757 0.696322
0.749899 0.756155 0.749986
0.620784 0.620025 0.614339
0.584418 0.583502 0.581870
0.682960 0.694427 0.692929
0.691346 0.684783 0.682387
0.408599 0.408534 0.409714
0.685827 0.687055 0.691395
0.471576 0.473151 0.472265
0.393109 0.394151 0.392977
0.378374 0.376206 0.379322
0.434080 0.438721 0.443420
0.659817 0.649158 0.645377
0.384463 0.390026 0.389902
0.726007 0.734991 0.745308
0.449052 0.447825 0.446980
0.701250 0.697266 0.689398
0.767551 0.766558 0.771040
0.440268 0.440755 0.441334
0.703111 0.703178 0.699569
0.463918 0.462745 0.464402
0.790284 0.786060 0.784872
0.383228 0.382686 0.380971
0.562959 0.562600 0.562781
0.824622 0.826764 0.811301
0.801148 0.813432 0.819208
0.490799 0.493411 0.494828
0.621968 0.638066 0.655825
0.447256 0.445238 0.443069
0.403375 0.419903 0.421441
0.556047 0.557526 0.557360
0.393454 0.392142 0.390581
0.856390 0.837191 0.835080
0.568510 0.569180 0.571297
0.694408 0.690528 0.677456
0.448490 0.444986 0.444371
0.721669 0.716376 0.713394
0.453767 0.457032 0.463209
0.602246 0.608526 0.615527
0.758731 0.749397 0.717637
0.410937 0.412551 0.413202
0.458211 0.458449 0.454128
0.443189 0.435162 0.430849
0.362532 0.363555 0.363686
0.710659 0.705418 0.707625
0.642686 0.641212 0.642623
0.432176 0.431169 0.430470
0.530829 0.529635 0.528903
0.715328 0.714319 0.718944
0.539903 0.540993 0.543105
0.607672 0.607822 0.607801
0.479069 0.483591 0.484315
0.354841 0.352878 0.349885
0.769024 0.771875 0.769297
0.696785 0.689470 0.678330
0.542318 0.542803 0.554107
0.706493 0.708535 0.714215
0.483724 0.485000 0.488069
0.594333 0.596909 0.600278
0.456547 0.454944 0.453060
0.597335 0.598185 0.612055
0.681622 0.677166 0.677900
0.742457 0.746611 0.743149
0.537233 0.537568 0.538248
0.399157 0.397648 0.391686
0.437067 0.425422 0.426532
0.731909 0.734674 0.735663
0.320697 0.316029 0.310343
0.673921 0.670212 0.670876
0.346384 0.345761 0.345972
0.419146 0.419113 0.425405
0.651849 0.650514 0.649673
0.701521 0.702936 0.701277
0.603826 0.604580 0.593630
0.365964 0.365558 0.365940
0.682505 0.680116 0.679596
0.640612 0.642958 0.642955
0.394673 0.404717 0.406516
0.357921 0.349371 0.342023
0.437622 0.435091 0.428759
0.395911 0.402021 0.406812
0.626663 0.626215 0.616958
0.339792 0.340638 0.338278
0.388913 0.388039 0.388397
0.394846 0.394254 0.393944
0.698822 0.700165 0.699531
0.687542 0.689665 0.691516
0.375972 0.376082 0.376435
0.568424 0.567623 0.570213
0.400346 0.399362 0.401620
0.350488 0.349343 0.347375
0.443362 0.456577 0.458579
0.693640 0.685657 0.687560
0.394315 0.396156 0.396718
0.699531 0.703357 0.703198
0.769398 0.768387 0.767922
0.647173 0.652086 0.650739
0.562700 0.560979 0.562073
0.414192 0.400213 0.414488
0.583628 0.580741 0.579109
0.406962 0.416661 0.423537
0.487740 0.486077 0.484855
0.459122 0.449799 0.450427
0.399209 0.399870 0.406587
0.735807 0.736810 0.747743
0.462696 0.469061 0.475266
0.696066 0.695715 0.696465
0.749334 0.745632 0.742405
0.521010 0.524249 0.523995
0.423145 0.424401 0.426683
0.375023 0.377605 0.384781
0.484277 0.479908 0.469277
0.405538 0.402734 0.398136
0.408477 0.402093 0.401552
0.366763 0.367328 0.368801
0.637629 0.645020 0.645766
0.568601 0.563814 0.555655
0.471513 0.475626 0.479341
0.493685 0.493190 0.492719
0.725855 0.732748 0.737930
0.377164 0.377233 0.378716
0.683709 0.689264 0.694264
0.364882 0.366412 0.374662
0.445173 0.445819 0.445060
0.677980 0.666556 0.666563
0.341400 0.345118 0.348150
0.357544 0.357115 0.359834
0.621070 0.627221 0.633513
0.518215 0.514934 0.515079
0.593275 0.591575 0.591942
0.620556 0.627481 0.624806
0.456750 0.454957 0.441288
0.703267 0.724544 0.731117
0.436399 0.434759 0.434296
0.415281 0.417503 0.420731
0.779048 0.781344 0.789308
0.364425 0.365125 0.371421
0.735902 0.734506 0.733220
0.504376 0.497723 0.497963
0.691637 0.701098 0.711295
0.721415 0.722009 0.726103
0.552484 0.550384 0.548202
0.702054 0.704507 0.713432
0.790256 0.783974 0.778767
0.455466 0.453744 0.455912
0.696605 0.689283 0.691402
0.702960 0.706721 0.701895
0.473281 0.471787 0.471903
0.796281 0.794192 0.794852
0.718551 0.729301 0.738143
0.585799 0.588024 0.595753
0.729628 0.724708 0.722934
0.815761 0.828647 0.828603
0.627711 0.629744 0.633273
0.725213 0.726528 0.725897
0.690962 0.698656 0.704435
0.598740 0.602782 0.605619
0.386044 0.385414 0.383087
0.550370 0.550165 0.553604
0.720018 0.721100 0.723591
0.668278 0.670608 0.673350
0.623587 0.634634 0.643262
0.376960 0.378438 0.379311
0.774356 0.771734 0.769850
0.366665 0.361851 0.355747
0.530670 0.525842 0.520672
0.680676 0.679652 0.679655
0.771743 0.775070 0.779142
0.532400 0.531411 0.531777
0.713437 0.709213 0.700639
0.627345 0.638053 0.632412
0.711904 0.713361 0.712122
0.598878 0.599451 0.599496
0.742249 0.736283 0.727346
0.433293 0.433900 0.434672
0.722709 0.725823 0.725695
0.674266 0.669525 0.685132
0.474184 0.470765 0.469797
0.882770 0.885803 0.886251
0.408324 0.409122 0.409870
0.603965 0.599668 0.613372
0.416374 0.415486 0.413714
0.518284 0.518138 0.517477
0.681913 0.684155 0.689063
0.630333 0.623043 0.623314
0.418505 0.410362 0.407233
0.461362 0.456599 0.454551
0.377479 0.376279 0.375766
0.735210 0.735498 0.739275
0.702847 0.700466 0.705317
0.666535 0.667617 0.671935
0.634886 0.636117 0.627554
