0.334088 0.334440 0.340801
0.607878 0.608609 0.605479
0.473313 0.474830 0.493946
0.315231 0.328384 0.328517
0.497837 0.495457 0.494174
0.529585 0.526856 0.541557
0.447993 0.445987 0.445126
0.531515 0.531472 0.532545
0.677526 0.641655 0.631223
0.434412 0.434721 0.435591
0.415635 0.418053 0.418404
0.384752 0.385144 0.385226
0.272689 0.278738 0.280511
0.325205 0.329570 0.329604
0.575758 0.574658 0.575944
0.375084 0.374450 0.373810
0.503253 0.502822 0.499918
0.373457 0.373183 0.373428
0.597083 0.593912 0.585084
0.477125 0.485018 0.491054
0.387657 0.388431 0.391396
0.370020 0.366168 0.363650
0.577562 0.588243 0.595839
0.707139 0.707916 0.708196
0.509739 0.530216 0.558395
0.368089 0.370241 0.375287
0.772584 0.772709 0.774024
0.444924 0.444277 0.442290
0.771526 0.769017 0.766343
0.409611 0.409483 0.408894
0.965009 0.959938 0.957458
0.741543 0.744513 0.746145
0.624792 0.624210 0.617315
0.573642 0.571951 0.571365
0.872433 0.937480 0.949704
0.361456 0.355588 0.353544
0.500402 0.500317 0.500206
0.593862 0.593423 0.591528
0.715091 0.714956 0.715950
0.671525 0.668919 0.667497
0.640025 0.640948 0.689352
0.475962 0.481989 0.486864
0.664193 0.658512 0.654765
0.501887 0.505820 0.516691
0.577364 0.577217 0.577212
0.298149 0.297409 0.297146
0.392055 0.392107 0.382196
0.348723 0.349092 0.355342
0.536415 0.529091 0.515592
0.468426 0.464218 0.460797
0.479943 0.505680 0.523832
0.671229 0.672844 0.673809
0.657812 0.655500 0.653694
0.436751 0.455762 0.458339
0.715527 0.717362 0.713659
0.390418 0.374997 0.374818
0.726172 0.720351 0.719309
0.683677 0.686431 0.683459
0.490775 0.490161 0.490692
0.389236 0.389382 0.389489
0.581797 0.585229 0.590113
0.307097 0.309380 0.310970
0.361101 0.361118 0.361698
0.641546 0.643736 0.633769
0.445149 0.441274 0.442173
0.611975 0.607857 0.602794
0.422291 0.422352 0.406997
0.344370 0.345976 0.346618
0.373778 0.375103 0.376433
0.576819 0.573843 0.564737
0.414907 0.420450 0.425811
0.424025 0.426134 0.424838
0.985809 0.985306 0.984131
0.314367 0.314929 0.313819
0.470283 0.470079 0.470345
0.366820 0.369019 0.368478
0.581401 0.580264 0.579938
0.489728 0.487593 0.482814
0.384480 0.385770 0.401189
0.510207 0.505106 0.500874
0.582962 0.579994 0.577412
0.499936 0.501233 0.506335
0.695086 0.694272 0.695886
0.625197 0.612476 0.605790
0.551109 0.558944 0.557168
0.395565 0.397907 0.397683
0.509360 0.532752 0.590082
0.382087 0.380945 0.381000
0.533774 0.533316 0.533263
0.429962 0.430097 0.428067
0.433617 0.432680 0.430677
0.310722 0.309567 0.308582
0.777783 0.776892 0.773363
0.452833 0.450118 0.443221
0.413799 0.407655 0.398201
0.474468 0.475444 0.468616
0.426197 0.435497 0.436110
0.349003 0.348654 0.354861
0.453495 0.453353 0.453434
0.476682 0.471475 0.471572
0.502355 0.495882 0.494794
0.547420 0.580509 0.586777
0.455070 0.455186 0.455462
0.630860 0.624881 0.625213
0.520149 0.525863 0.542338
0.572687 0.573552 0.572525
0.473530 0.473853 0.473856
0.390355 0.394721 0.399460
0.334009 0.333816 0.334042
0.441747 0.456334 0.457525
0.606334 0.605194 0.605102
0.475920 0.478541 0.478980
0.578548 0.577593 0.578164
0.414856 0.414513 0.414466
0.705334 0.704606 0.702658
0.562728 0.561964 0.561304
0.395507 0.391263 0.383989
0.373581 0.376619 0.377088
0.656549 0.655380 0.653453
0.307426 0.307417 0.307780
0.425167 0.422578 0.417156
0.354939 0.352080 0.351446
0.562659 0.560706 0.560457
0.769857 0.769209 0.773594
0.374312 0.373877 0.366518
0.442787 0.446894 0.446769
0.651647 0.652096 0.658403
0.501825 0.497475 0.482655
0.332249 0.334537 0.325298
0.518346 0.520509 0.544899
0.409615 0.412871 0.411622
0.601662 0.602191 0.606548
0.672854 0.672572 0.675217
0.511954 0.518580 0.519612
0.754695 0.753961 0.756186
0.464627 0.463863 0.463114
0.495174 0.499282 0.501323
0.306335 0.307115 0.308529
0.658965 0.653585 0.628193
0.526090 0.526029 0.527309
0.460645 0.461113 0.461706
0.575494 0.574253 0.568623
0.562218 0.562514 0.563481
0.545109 0.546303 0.549774
0.561740 0.561841 0.560260
0.442633 0.437914 0.430211
0.657765 0.671237 0.672381
0.596879 0.595822 0.598142
0.361745 0.364188 0.364851
0.431304 0.433304 0.434999
0.421824 0.421679 0.421552
0.373193 0.373371 0.373241
0.465536 0.463376 0.459178
0.347872 0.344487 0.345939
0.367217 0.367418 0.367271
0.640715 0.644040 0.641546
0.376001 0.374526 0.368523
0.548909 0.546434 0.548554
0.539920 0.541018 0.542393
0.362165 0.365009 0.387245
0.377851 0.377782 0.377495
0.605955 0.608854 0.611025
0.468612 0.468590 0.468908
0.445851 0.445316 0.445126
0.653964 0.662957 0.700360
0.652411 0.650899 0.663505
0.366031 0.366287 0.366305
0.311545 0.315192 0.316589
0.668797 0.625530 0.619568
0.585217 0.582631 0.587186
0.340872 0.339944 0.339887
0.332271 0.326044 0.325363
0.501557 0.500843 0.500505
0.422370 0.424482 0.424554
0.514426 0.512902 0.510134
0.684214 0.705186 0.716302
0.309562 0.309063 0.307499
0.394332 0.390787 0.396544
0.694703 0.708122 0.714871
0.313858 0.314143 0.315955
0.434551 0.433635 0.431828
0.473641 0.474338 0.473660
0.370707 0.370355 0.372187
0.321774 0.322664 0.322249
0.367785 0.377051 0.378228
0.416570 0.420809 0.422455
0.501755 0.498787 0.497289
0.469284 0.470568 0.463437
0.284738 0.286596 0.288367
0.523874 0.523806 0.524224
0.657797 0.657093 0.655914
0.566322 0.571940 0.570149
0.562032 0.561721 0.558080
0.399440 0.383057 0.388626
0.446902 0.447094 0.446871
0.544529 0.544352 0.543206
0.668849 0.667037 0.665698
0.344662 0.344341 0.344262
0.445045 0.445758 0.454455
0.447477 0.448873 0.450918
0.310142 0.313563 0.317808
0.449180 0.449879 0.446553
0.689152 0.688970 0.686891
0.651114 0.652044 0.652728
0.715208 0.714413 0.707091
0.538989 0.528084 0.529423
0.646596 0.647981 0.663497
0.389760 0.388774 0.398614
0.345826 0.343567 0.343179
0.409203 0.409868 0.407843
0.852497 0.834128 0.830524
0.328446 0.326905 0.325891
0.397710 0.398059 0.398531
0.646093 0.651353 0.652799
0.389757 0.390062 0.390016
0.517387 0.506690 0.506752
0.373655 0.374436 0.368360
0.336302 0.337091 0.337938
0.636464 0.646987 0.650791
0.545227 0.542658 0.541951
0.664184 0.658444 0.656477
0.879910 0.879947 0.877537
0.399232 0.402183 0.408278
0.584991 0.586431 0.584862
0.534951 0.532606 0.536093
0.447406 0.446696 0.449118
0.655845 0.657733 0.659249
0.528448 0.533709 0.534562
0.618945 0.615877 0.611619
0.482482 0.483125 0.481297
0.503037 0.503353 0.506285
0.380369 0.386275 0.387138
0.332177 0.328990 0.325526
0.323989 0.323647 0.317530
0.358822 0.356224 0.355703
0.368260 0.372201 0.385508
0.394774 0.396627 0.395777
0.658336 0.657677 0.654443
0.587959 0.586678 0.590612
0.370124 0.369171 0.367568
0.597759 0.604858 0.608683
0.341385 0.339271 0.326981
0.462072 0.466288 0.468321
0.592989 0.592529 0.596211
0.517172 0.517199 0.514331
0.499176 0.500042 0.506239
0.577933 0.578995 0.584078
0.617036 0.616432 0.613765
0.585534 0.589405 0.590285
0.494893 0.501855 0.505574
0.831806 0.821261 0.812271
0.502336 0.501129 0.502954
0.316902 0.317800 0.325117
0.746522 0.753961 0.758353
0.502424 0.499450 0.494021
0.441728 0.444980 0.452004
0.689931 0.693221 0.731697
0.286109 0.284915 0.295018
0.762095 0.760622 0.761673
0.390514 0.388395 0.382610
0.365309 0.364120 0.364562
0.713776 0.712776 0.712237
0.395682 0.400411 0.417449
0.685447 0.689931 0.693221
0.435070 0.429919 0.430335
0.594982 0.593139 0.593331
0.300812 0.302486 0.306838
0.545083 0.545290 0.554241
0.282695 0.283493 0.283726
0.526611 0.527428 0.526329
0.372937 0.368894 0.369069
0.388032 0.388693 0.389237
0.514939 0.510447 0.507361
0.584776 0.584292 0.582142
0.349568 0.348529 0.346970
0.575254 0.577060 0.577347
0.634984 0.634441 0.632430
0.629037 0.629071 0.625502
0.767508 0.718311 0.719575
0.492169 0.489370 0.489100
0.431497 0.434740 0.437545
0.344874 0.342118 0.342204
0.396219 0.395691 0.392126
0.411306 0.411197 0.414686
0.389450 0.389456 0.389837
0.646129 0.656078 0.659702
0.471702 0.470575 0.471356
0.404630 0.405841 0.406197
0.758059 0.759444 0.768041
0.498017 0.490202 0.489629
0.339363 0.339474 0.338697
0.300932 0.302808 0.307318
0.430392 0.367973 0.353018
0.571245 0.580036 0.582096
0.412402 0.412344 0.399480
0.531330 0.530110 0.532955
0.758308 0.754935 0.756764
0.486658 0.489524 0.489326
0.568783 0.565999 0.557856
0.452185 0.451092 0.447616
0.511095 0.511583 0.511623
0.391823 0.366398 0.363196
0.500002 0.498827 0.498775
0.675513 0.675271 0.674635
0.341134 0.341769 0.342245
0.443040 0.452237 0.453538
0.546470 0.548979 0.549513
0.662541 0.652398 0.638091
0.392447 0.395313 0.395185
0.666687 0.668042 0.668003
0.557459 0.550564 0.521636
0.737070 0.729169 0.721953
0.777413 0.777348 0.773444
0.335483 0.336397 0.340608
0.396404 0.393718 0.382175
0.428131 0.428608 0.417756
0.672472 0.673838 0.673745
0.526705 0.526630 0.525478
0.302486 0.306838 0.308846
0.547491 0.547777 0.547609
0.313425 0.313394 0.313061
0.366941 0.367735 0.368983
0.588818 0.586910 0.583891
0.501458 0.497215 0.495490
0.488993 0.489016 0.489440
0.307809 0.305413 0.304486
0.414315 0.415145 0.414355
0.721851 0.716483 0.715127
0.547983 0.547025 0.543066
0.469435 0.470972 0.470380
0.585479 0.585945 0.585046
0.375279 0.374727 0.373453
0.442539 0.442509 0.441555
0.766310 0.769199 0.784596
0.333222 0.321265 0.319991
0.285978 0.283891 0.282793
0.707477 0.707977 0.708338
0.622697 0.621628 0.623273
0.719046 0.718985 0.712439
0.648663 0.657954 0.660392
0.578931 0.579536 0.579819
0.353597 0.368793 0.368134
0.267099 0.259964 0.259121
0.454394 0.454328 0.461244
0.519351 0.525256 0.521066
0.577467 0.577896 0.578128
0.341156 0.342189 0.342900
0.516233 0.514869 0.511447
0.548059 0.548464 0.553237
0.593703 0.589081 0.590923
0.467002 0.467050 0.467106
0.341507 0.333330 0.334367
0.580066 0.581648 0.620337
0.324956 0.333001 0.332561
0.316295 0.315545 0.315166
0.324497 0.327149 0.336852
0.822752 0.822740 0.831944
0.724171 0.720152 0.712243
0.554426 0.555832 0.556756
0.617459 0.607403 0.600819
0.682987 0.681744 0.689471
0.414327 0.420398 0.416139
0.691119 0.694577 0.692834
0.377894 0.378981 0.381116
0.574348 0.574052 0.579101
0.394731 0.393237 0.390801
0.447096 0.441394 0.449051
0.466930 0.464695 0.462602
0.340205 0.339739 0.337006
0.573119 0.572096 0.572107
0.582347 0.566114 0.554854
0.352529 0.350416 0.349264
0.443526 0.441269 0.438595
0.652190 0.639489 0.633535
0.701899 0.695784 0.680346
0.323079 0.322568 0.323492
0.357521 0.356815 0.356039
0.371449 0.372527 0.369380
0.540320 0.550555 0.548841
0.462003 0.455516 0.453550
0.378451 0.376284 0.374441
0.362252 0.361883 0.361241
0.465883 0.464728 0.463502
0.481668 0.482021 0.479876
0.361418 0.358923 0.357431
0.524917 0.528899 0.531531
0.542120 0.543503 0.542845
0.642685 0.637521 0.632000
0.314004 0.309877 0.313501
0.549098 0.549821 0.550893
0.571809 0.574340 0.566253
0.314499 0.314948 0.317570
0.427865 0.427459 0.425167
0.593387 0.599786 0.599634
0.843672 0.845530 0.848218
0.341329 0.342297 0.342741
0.685295 0.684725 0.681819
0.452033 0.448322 0.444127
0.578918 0.566276 0.564574
0.396706 0.395851 0.395280
0.422733 0.422273 0.419501
0.365028 0.371839 0.377157
0.410531 0.411629 0.410788
0.623222 0.623975 0.622991
0.500391 0.509767 0.511633
0.412050 0.412267 0.398331
0.375690 0.377792 0.377898
0.542209 0.543178 0.543571
0.397782 0.399286 0.400342
0.390004 0.390195 0.390416
0.339634 0.340716 0.407807
0.309786 0.309411 0.313042
0.587890 0.590165 0.592521
0.558828 0.558086 0.558985
0.542194 0.541437 0.542413
0.421749 0.421997 0.425351
0.325146 0.322822 0.323938
0.544234 0.574440 0.573840
0.315937 0.315577 0.315436
0.729169 0.731441 0.745116
0.527550 0.525934 0.526093
0.362083 0.360727 0.357047
0.295695 0.296705 0.299438
0.485163 0.482580 0.481285
0.310225 0.310632 0.334677
0.625688 0.624879 0.624997
0.415577 0.414042 0.412510
0.454520 0.452705 0.452185
0.578845 0.569875 0.568913
0.577151 0.577842 0.577162
0.417104 0.415925 0.416014
0.369491 0.378399 0.380267
0.566546 0.573620 0.569084
0.343431 0.342941 0.341300
0.554338 0.540956 0.539642
0.617629 0.613330 0.608733
0.892874 0.889357 0.881128
0.533760 0.533397 0.533160
0.511639 0.512455 0.513078
0.491578 0.487302 0.485516
0.775738 0.772849 0.772696
0.779903 0.777324 0.779371
0.563485 0.563536 0.559410
0.862963 0.861063 0.861823
0.626971 0.636292 0.644074
0.664752 0.666088 0.663939
0.455557 0.456366 0.461745
0.333215 0.335967 0.342455
0.597788 0.595710 0.593147
0.343183 0.344883 0.352786
0.433821 0.440794 0.445907
0.659725 0.659839 0.657227
0.529136 0.530407 0.534158
0.422456 0.427550 0.437464
0.560547 0.567260 0.569972
0.544339 0.544785 0.545511
0.625207 0.618000 0.610282
0.395982 0.395088 0.394581
0.522637 0.526821 0.527143
0.396427 0.414749 0.419773
0.336128 0.337529 0.338648
0.411596 0.416579 0.413751
0.516285 0.515187 0.517346
0.831322 0.844798 0.846948
0.456211 0.455868 0.455204
0.572053 0.554157 0.546677
0.703681 0.696284 0.688645
0.574398 0.577090 0.575701
0.417019 0.412402 0.406041
0.772843 0.772640 0.772779
0.562884 0.556142 0.557573
0.520867 0.520359 0.519558
0.390074 0.390224 0.390071
0.411443 0.411589 0.411979
0.370136 0.368093 0.369570
0.423854 0.424512 0.429968
0.379721 0.381139 0.383448
0.482929 0.473137 0.473272
0.450974 0.452770 0.454430
0.661711 0.670568 0.670756
0.315918 0.318085 0.319174
0.620101 0.620927 0.621385
0.554311 0.575391 0.572046
0.322218 0.324107 0.323792
0.404602 0.407093 0.417210
0.349034 0.345765 0.346689
0.539437 0.539012 0.541936
0.421650 0.423245 0.425732
0.784549 0.797944 0.810597
0.372899 0.374056 0.374339
0.310589 0.309202 0.308327
0.746325 0.753147 0.743127
0.511022 0.509700 0.502255
0.559708 0.534739 0.522512
0.777222 0.780226 0.783754
0.341550 0.341385 0.339271
0.413144 0.415605 0.416075
0.624286 0.627816 0.631939
0.288931 0.301936 0.287716
0.828494 0.814175 0.813134
0.406045 0.407524 0.417562
0.652282 0.657853 0.660807
0.573908 0.575550 0.575719
0.618882 0.616521 0.619331
0.361463 0.360498 0.359874
0.538718 0.540221 0.540548
0.648660 0.630122 0.620590
0.623748 0.622611 0.622870
0.825169 0.829190 0.834184
0.553298 0.552344 0.551889
0.639883 0.640765 0.688700
0.432562 0.419075 0.418247
0.352859 0.347188 0.347301
0.336966 0.339097 0.341593
0.769113 0.762422 0.754362
0.351633 0.352183 0.351865
0.395912 0.390414 0.384538
0.766084 0.766324 0.764068
0.297832 0.295399 0.294992
0.321495 0.300405 0.302829
0.727116 0.731478 0.734462
0.683907 0.683435 0.700978
0.649358 0.664519 0.773581
0.439629 0.439566 0.440110
0.767450 0.766703 0.767484
0.522727 0.528002 0.529002
0.588591 0.584112 0.577543
0.778843 0.768740 0.767108
0.805763 0.803865 0.798179
0.333666 0.334088 0.334440
0.517824 0.520867 0.526911
0.449936 0.447888 0.450687
0.624763 0.629344 0.630096
0.743869 0.745238 0.756112
0.335913 0.352669 0.354540
0.589012 0.590565 0.592401
0.303213 0.303548 0.301308
0.428633 0.430686 0.430933
0.564394 0.582050 0.583212
0.558944 0.558831 0.558685
0.562607 0.558134 0.556652
0.416142 0.415619 0.415623
0.402653 0.396699 0.394886
0.391767 0.391213 0.385897
0.561178 0.559960 0.546744
0.455332 0.455299 0.455612
0.446384 0.454821 0.454950
0.380173 0.380047 0.374656
0.411184 0.423031 0.449685
0.618726 0.615969 0.606873
0.718569 0.716869 0.708257
0.539698 0.529923 0.527187
0.531863 0.532868 0.533381
0.343346 0.349928 0.348819
0.376719 0.376122 0.377658
0.503704 0.502813 0.501850
0.466622 0.468624 0.474006
0.458322 0.451844 0.449041
0.791852 0.793876 0.789993
0.371724 0.369866 0.358876
0.605534 0.606300 0.607889
0.349880 0.346261 0.344312
0.420854 0.418673 0.418084
0.315852 0.315978 0.316375
0.715025 0.706571 0.707760
0.328643 0.327714 0.322571
0.534043 0.533821 0.531502
0.459970 0.458981 0.458626
0.577543 0.571386 0.570202
0.560472 0.555041 0.549495
0.344471 0.347133 0.346641
0.427543 0.436847 0.442466
0.658488 0.655365 0.654349
0.521275 0.520302 0.519290
0.561036 0.558165 0.558834
0.536281 0.535972 0.516157
0.558418 0.556824 0.558011
0.375009 0.382621 0.391587
0.671265 0.669062 0.671203
0.269484 0.269831 0.266366
0.342431 0.349395 0.350208
0.500181 0.502989 0.510460
0.316386 0.316795 0.317230
0.567102 0.571704 0.572998
0.633491 0.619474 0.608648
0.325165 0.330484 0.330023
0.338628 0.321322 0.320740
0.549481 0.557699 0.552008
0.532789 0.529686 0.521556
0.527610 0.531500 0.533204
0.511157 0.493487 0.489534
0.736360 0.738600 0.736565
0.355000 0.356555 0.355857
0.381468 0.381553 0.380911
0.509577 0.506321 0.506713
0.424828 0.436052 0.434863
0.531791 0.531905 0.534619
0.603119 0.596518 0.596938
0.529172 0.522007 0.542853
0.767806 0.765791 0.773665
0.417174 0.411603 0.412613
0.667450 0.666419 0.665626
0.483787 0.483939 0.484313
0.694188 0.693271 0.689593
0.515342 0.515635 0.518716
0.743669 0.759066 0.759673
0.311183 0.311556 0.314920
0.442077 0.442870 0.440984
0.589535 0.591061 0.596236
0.348456 0.349301 0.348720
0.467013 0.467049 0.467109
0.778798 0.767063 0.773116
0.480262 0.479891 0.481951
0.469019 0.468081 0.466618
0.646825 0.651492 0.651746
0.668346 0.667636 0.665053
0.559584 0.559394 0.558890
0.411185 0.410644 0.408893
0.542358 0.546139 0.549264
0.313340 0.309580 0.311554
0.383605 0.383207 0.385318
0.417422 0.414925 0.415876
0.599180 0.591430 0.590889
0.466945 0.471364 0.481237
0.527890 0.531625 0.542358
0.583438 0.582149 0.578433
0.544691 0.544397 0.538995
0.472721 0.472367 0.471587
0.440508 0.440625 0.440163
0.508223 0.500207 0.500625
0.545857 0.543612 0.539607
0.495221 0.492940 0.491020
0.377717 0.378258 0.377661
0.311923 0.309953 0.306530
0.605270 0.632167 0.639863
0.623545 0.619966 0.627077
0.513227 0.515708 0.514817
0.423082 0.421944 0.422129
0.331291 0.331674 0.332473
0.500413 0.500362 0.498602
0.534486 0.533133 0.535324
0.959938 0.957458 0.956629
0.495304 0.509958 0.516981
0.771534 0.771734 0.768868
0.322388 0.330292 0.332342
0.415455 0.417289 0.419136
0.568739 0.571902 0.584532
0.435788 0.437465 0.439188
0.491694 0.490217 0.488708
0.627292 0.631408 0.641667
0.381174 0.379422 0.379287
0.683794 0.679900 0.669389
0.502508 0.501688 0.503404
0.653301 0.650449 0.652352
0.848666 0.867630 0.868574
0.490436 0.495160 0.481816
0.515506 0.512256 0.507807
0.442590 0.440354 0.440092
0.425347 0.423884 0.423312
0.526130 0.526704 0.528051
0.482853 0.482746 0.497701
0.414211 0.415021 0.411909
0.551379 0.559708 0.534739
0.356742 0.357382 0.355677
0.687086 0.685366 0.693247
0.458879 0.456718 0.452594
0.660975 0.663277 0.663238
0.450097 0.447946 0.446491
0.366408 0.366290 0.366707
0.296198 0.297124 0.299175
0.442021 0.445640 0.447892
0.564196 0.567308 0.569074
0.463168 0.464848 0.465390
0.339829 0.343618 0.339869
0.482717 0.482131 0.483087
0.532453 0.532680 0.533680
0.392307 0.346306 0.331247
0.388081 0.388192 0.389450
0.349455 0.346800 0.347552
0.369647 0.362181 0.357602
0.586704 0.590110 0.584672
0.548733 0.555153 0.557340
0.942396 0.942621 0.940145
0.352857 0.359841 0.358292
0.477388 0.478352 0.474384
0.619536 0.615800 0.595235
0.500329 0.500226 0.499987
0.352905 0.353110 0.352946
0.355339 0.359009 0.356647
0.479707 0.477837 0.478269
0.472008 0.465228 0.458683
0.470867 0.470228 0.470342
0.415623 0.412191 0.412429
0.424925 0.422491 0.413809
0.444045 0.434551 0.433635
0.325698 0.323843 0.321486
0.518794 0.516156 0.514230
0.342721 0.347414 0.349711
0.376394 0.377380 0.374738
0.621012 0.620054 0.619410
0.537908 0.536027 0.530165
0.537894 0.535283 0.534923
0.411154 0.407991 0.406066
0.380771 0.380765 0.382364
0.547199 0.547087 0.553995
0.448411 0.448347 0.448810
0.428307 0.417194 0.412125
0.527969 0.519404 0.501810
0.453268 0.448563 0.447379
0.300969 0.303107 0.309270
0.529857 0.532077 0.536283
0.342034 0.339500 0.334361
0.594595 0.597246 0.592264
0.423258 0.422872 0.421292
0.461268 0.452945 0.451571
0.669468 0.671606 0.671078
0.283978 0.284177 0.287637
0.648195 0.645989 0.644703
0.462271 0.469879 0.469067
0.463212 0.466113 0.465920
0.658890 0.650685 0.639268
0.399180 0.399782 0.409135
0.510504 0.510137 0.509514
0.402093 0.400047 0.412885
0.394938 0.392837 0.397504
0.490471 0.488661 0.482984
0.375518 0.376681 0.376378
0.357890 0.353801 0.353441
0.689939 0.659105 0.658372
0.399540 0.394625 0.391121
0.378927 0.380268 0.379527
0.409075 0.409824 0.409547
0.318270 0.317120 0.315864
0.606434 0.606464 0.606334
0.596565 0.601558 0.592444
0.698907 0.676540 0.650895
0.707666 0.709518 0.710616
0.533940 0.527874 0.521947
0.431736 0.429023 0.424456
0.574095 0.577695 0.604944
0.477496 0.498864 0.501167
0.324372 0.324414 0.324492
0.562097 0.552330 0.555182
0.707760 0.714643 0.726630
0.441410 0.426376 0.424188
0.557401 0.556466 0.558229
0.394872 0.392278 0.392248
0.392428 0.394219 0.407343
0.573343 0.571913 0.571253
0.535929 0.536373 0.535363
0.821825 0.818870 0.780483
0.439149 0.442217 0.445476
0.580749 0.576629 0.589248
0.356993 0.363189 0.363999
0.874242 0.867907 0.841903
0.568757 0.571220 0.572728
0.338575 0.334554 0.333788
0.417281 0.417680 0.415411
0.297771 0.299649 0.287626
0.392488 0.408259 0.412933
0.814989 0.815597 0.819019
0.463667 0.464730 0.464859
0.531502 0.531363 0.530673
0.557108 0.555860 0.552394
0.378054 0.377465 0.376624
0.396299 0.397803 0.399450
0.471519 0.472697 0.475430
0.454607 0.451332 0.449584
0.312654 0.314138 0.313837
0.411578 0.439828 0.450832
0.730485 0.732982 0.739020
0.633834 0.632338 0.629714
0.395185 0.394167 0.389367
0.579139 0.577328 0.578879
0.476301 0.476096 0.485349
0.296783 0.299846 0.300913
0.508048 0.506974 0.506164
0.363924 0.366155 0.368734
0.366776 0.362911 0.359851
0.715001 0.715774 0.715581
0.588701 0.586121 0.584316
0.797284 0.801840 0.805348
0.575917 0.575869 0.572847
0.341776 0.339963 0.338297
0.641227 0.640821 0.642202
0.697125 0.679444 0.679332
0.389895 0.389996 0.389941
0.605081 0.599714 0.600297
0.598882 0.598160 0.598245
0.775168 0.775816 0.775271
0.717331 0.715034 0.711093
0.329080 0.301808 0.302866
0.448551 0.450339 0.464138
0.341285 0.340563 0.333006
0.810058 0.806463 0.803938
0.828988 0.841463 0.842957
0.956762 0.953683 0.954115
0.344374 0.345940 0.347052
0.552080 0.539144 0.539043
0.556331 0.549920 0.549491
0.373719 0.371907 0.372269
0.281771 0.279114 0.279467
0.362603 0.362530 0.339162
0.391244 0.390645 0.390308
0.354659 0.355809 0.356994
0.733966 0.733396 0.726172
0.452744 0.443526 0.441269
0.585724 0.589248 0.585436
0.447899 0.446358 0.445374
0.289122 0.289309 0.288605
0.649659 0.645766 0.645785
0.420374 0.413737 0.410180
0.333170 0.330060 0.329440
0.349027 0.347906 0.345794
0.386198 0.390986 0.391570
0.417217 0.422179 0.422663
0.362369 0.375092 0.375727
0.762066 0.761029 0.759015
0.389494 0.386445 0.381188
0.420472 0.422356 0.423357
0.445218 0.445493 0.446799
0.339643 0.339477 0.338632
0.320447 0.320797 0.322161
0.772108 0.773325 0.773772
0.404301 0.404476 0.403397
0.541922 0.538877 0.537238
0.316667 0.316834 0.316298
0.381830 0.380505 0.381168
0.376964 0.378964 0.381895
0.597470 0.595740 0.583182
0.321335 0.320527 0.324478
0.448511 0.444794 0.443525
0.416519 0.417200 0.418450
0.394842 0.395454 0.394897
0.490265 0.489723 0.485163
0.461064 0.452614 0.439169
0.348698 0.347884 0.346627
0.342464 0.339943 0.342398
0.414210 0.399097 0.377267
0.487402 0.491554 0.496842
0.734788 0.738040 0.739747
0.332675 0.333560 0.334343
0.463108 0.461518 0.461991
0.377322 0.380061 0.380739
0.299313 0.299775 0.300775
0.651470 0.653155 0.652491
0.560503 0.559917 0.559321
0.428252 0.427665 0.428564
0.694224 0.694464 0.696344
0.656223 0.657373 0.662457
0.290688 0.292247 0.296409
0.553193 0.551441 0.549652
0.535806 0.537198 0.545880
0.536353 0.534590 0.531600
0.297894 0.300234 0.306904
0.324414 0.324492 0.327033
0.545077 0.546939 0.544837
0.332133 0.329819 0.321808
0.564703 0.563638 0.559944
0.546118 0.543482 0.523177
0.348554 0.349145 0.348353
0.773841 0.773610 0.773778
0.673171 0.673353 0.672690
0.566046 0.575749 0.577435
0.405259 0.407325 0.411292
0.363989 0.365831 0.369181
0.421913 0.421260 0.421343
0.366398 0.363196 0.366950
0.323059 0.322530 0.320405
0.335820 0.335041 0.329886
0.435537 0.436294 0.437206
0.519563 0.521117 0.518961
0.510955 0.513180 0.511123
0.535972 0.516157 0.515878
0.704635 0.697851 0.682136
0.424515 0.423279 0.419710
0.501423 0.500644 0.495338
0.300375 0.300683 0.311427
0.532100 0.541159 0.537699
0.661475 0.661226 0.660907
0.696551 0.688547 0.688506
0.354328 0.354398 0.354248
0.332615 0.337015 0.337820
0.611207 0.615130 0.619063
0.320151 0.317977 0.321893
0.555467 0.553851 0.553735
0.522847 0.512748 0.501423
0.592024 0.592484 0.591327
0.800865 0.794486 0.769644
0.553279 0.553840 0.553193
0.371342 0.367242 0.360366
0.574915 0.576700 0.579967
0.347277 0.353486 0.356553
0.694052 0.689739 0.685808
0.647220 0.634368 0.628543
0.573053 0.578771 0.578574
0.453994 0.452600 0.451882
0.476107 0.487503 0.484127
0.464728 0.463502 0.462757
0.500544 0.500413 0.500323
0.422828 0.419484 0.416337
0.789569 0.792780 0.793897
0.518662 0.521735 0.519113
0.733845 0.733492 0.734221
0.784811 0.816009 0.831245
0.444251 0.443106 0.442673
0.485441 0.486549 0.486545
0.579999 0.581026 0.580550
0.609188 0.607829 0.608625
0.450370 0.449625 0.446692
0.379833 0.379167 0.380231
0.350231 0.344437 0.342387
0.534866 0.518813 0.514977
0.319616 0.321904 0.327143
0.328065 0.329028 0.330388
0.472972 0.472553 0.471985
0.387131 0.387790 0.388610
0.361022 0.360524 0.360578
0.382385 0.386593 0.376161
0.602466 0.600864 0.595426
0.701202 0.704090 0.705023
0.375066 0.375682 0.376189
0.544047 0.532605 0.533850
0.566878 0.573791 0.577420
0.313405 0.315901 0.313619
0.311341 0.297178 0.297042
0.485053 0.482764 0.482621
0.507182 0.504057 0.510977
0.382610 0.376710 0.375480
0.428716 0.431075 0.432928
0.313900 0.314651 0.316364
0.527270 0.524831 0.529085
0.470211 0.472711 0.475085
0.387105 0.387600 0.388076
0.339397 0.357176 0.366707
0.340042 0.338190 0.337066
0.586989 0.590976 0.593199
0.733767 0.734428 0.735668
0.298902 0.299176 0.298787
0.534961 0.534624 0.533002
0.320207 0.320550 0.333053
0.768941 0.783428 0.779149
0.299527 0.295535 0.294962
0.489036 0.489000 0.489394
0.517643 0.512853 0.508023
0.776125 0.775403 0.767489
0.323919 0.326393 0.330235
0.555275 0.560438 0.563063
0.632239 0.641647 0.646548
0.331687 0.332366 0.331881
0.378760 0.370925 0.356724
0.633906 0.636763 0.658085
0.578483 0.573779 0.546772
0.329714 0.329649 0.329602
0.415217 0.415754 0.415038
0.459721 0.462026 0.462612
0.389230 0.389380 0.389367
0.607734 0.608917 0.611524
0.415676 0.413675 0.413759
0.347157 0.349933 0.347487
0.451697 0.450574 0.455464
0.391336 0.400783 0.401394
0.511445 0.512469 0.519140
0.428498 0.423987 0.418893
0.626084 0.634243 0.632567
0.448031 0.446055 0.445019
0.338405 0.341312 0.342632
0.477842 0.476324 0.475852
0.454709 0.466126 0.471805
0.321411 0.326700 0.326279
0.454381 0.463997 0.473395
0.439647 0.436550 0.434241
0.413567 0.413396 0.414158
0.476992 0.488993 0.489118
0.522262 0.514173 0.390159
0.407788 0.407723 0.408747
0.482828 0.486985 0.498662
0.561191 0.558877 0.558836
0.668521 0.671903 0.671258
0.364343 0.363761 0.362844
0.566739 0.570000 0.571948
0.566334 0.571793 0.579043
0.589702 0.590378 0.591726
0.717519 0.720688 0.722271
0.380905 0.372695 0.372931
0.516933 0.521732 0.525943
0.431235 0.434751 0.433447
0.511385 0.507223 0.506682
0.299313 0.299588 0.300489
0.566609 0.568621 0.569223
0.433899 0.439209 0.442759
0.779371 0.782203 0.783423
0.900829 0.879365 0.878367
0.685808 0.680394 0.679595
0.729923 0.725117 0.718657
0.323792 0.314366 0.313906
0.563252 0.548043 0.543404
0.650795 0.654557 0.654373
0.315780 0.316359 0.315896
0.380482 0.381554 0.381686
