0.017377 0.017314 0.017267
0.017264 0.017122 0.017043
0.018358 0.018389 0.018553
0.017501 0.017582 0.017350
0.018696 0.018707 0.018850
0.019386 0.019449 0.019405
0.024310 0.024422 0.024620
0.034883 0.035109 0.035207
0.017448 0.017341 0.017343
0.020755 0.020648 0.020757
0.018828 0.018935 0.019003
0.019055 0.019067 0.018998
0.019201 0.018703 0.018755
0.023514 0.023598 0.023584
0.017082 0.017011 0.017034
0.018162 0.018045 0.018251
0.022055 0.022145 0.022176
0.027371 0.027209 0.027217
0.019204 0.019360 0.019433
0.025115 0.025085 0.025257
0.021036 0.020683 0.020448
0.031001 0.031085 0.031788
0.024113 0.024127 0.024027
0.019785 0.019668 0.019678
0.018093 0.018183 0.018232
0.020521 0.020552 0.020554
0.016927 0.017065 0.017141
0.016689 0.016755 0.017020
0.023360 0.023300 0.023269
0.017467 0.017457 0.017417
0.020997 0.020937 0.020849
0.019776 0.019785 0.019978
0.023139 0.023210 0.023269
0.022169 0.022166 0.022188
0.022199 0.022225 0.022115
0.019434 0.019467 0.019719
0.023924 0.023791 0.023718
0.021704 0.021668 0.021920
0.017418 0.017256 0.017197
0.020712 0.020894 0.020848
0.017976 0.018240 0.018236
0.022261 0.022415 0.022534
0.021680 0.021685 0.021845
0.023842 0.023915 0.023953
0.019001 0.019003 0.018990
0.022595 0.022580 0.022516
0.065849 0.066095 0.066389
0.022703 0.022914 0.022805
0.018039 0.018011 0.017946
0.018603 0.018710 0.018669
0.056788 0.056289 0.056077
0.029228 0.029440 0.029498
0.020097 0.020692 0.020595
0.021871 0.021868 0.021921
0.017567 0.017526 0.017498
0.052932 0.052152 0.051376
0.025823 0.025725 0.025801
0.026053 0.026074 0.026085
0.016296 0.016434 0.016550
0.022307 0.022348 0.022413
0.020923 0.020961 0.020905
0.017246 0.017161 0.017084
0.020365 0.020203 0.020104
0.019702 0.019605 0.019620
0.021555 0.021468 0.021490
0.018511 0.018586 0.018140
0.021212 0.021091 0.021004
0.019961 0.019859 0.019996
0.022222 0.022223 0.022128
0.019491 0.019433 0.019278
0.017838 0.017870 0.017946
0.017031 0.016988 0.017044
0.024756 0.025000 0.025020
0.018140 0.018187 0.018507
0.018106 0.018142 0.018222
0.017227 0.017258 0.017489
0.017881 0.017874 0.018043
0.020187 0.020159 0.020049
0.020778 0.020773 0.020818
0.015968 0.016046 0.016035
0.020817 0.020826 0.020770
0.019613 0.019683 0.019683
0.018749 0.018708 0.018774
0.025845 0.025854 0.026853
0.020715 0.020918 0.021001
0.019429 0.019258 0.019219
0.018538 0.018490 0.018586
0.022382 0.022489 0.022632
0.020434 0.020513 0.020429
0.023270 0.023264 0.023142
0.020417 0.020415 0.020201
0.017158 0.017227 0.017251
0.018354 0.018376 0.018371
0.023106 0.023665 0.023822
0.017409 0.017297 0.017392
0.017156 0.017232 0.017278
0.019128 0.019073 0.019062
0.018046 0.018073 0.018247
0.031613 0.031589 0.031576
0.022419 0.022440 0.022425
0.016189 0.016066 0.016057
0.016029 0.015960 0.016004
0.018872 0.018935 0.019276
0.021175 0.021266 0.021316
0.021788 0.021662 0.021830
0.022088 0.022488 0.022860
0.047787 0.047701 0.047698
0.023108 0.022890 0.022871
0.017530 0.017523 0.017601
0.015332 0.015328 0.015371
0.021614 0.021558 0.021064
0.015454 0.015418 0.015515
0.023402 0.023438 0.023427
0.018776 0.018705 0.018662
0.019770 0.019546 0.019274
0.019139 0.019056 0.019025
0.017948 0.017791 0.017705
0.027651 0.027674 0.027466
0.016979 0.017027 0.017082
0.023237 0.023144 0.023184
0.018919 0.018714 0.018860
0.056581 0.056765 0.056210
0.020011 0.020105 0.020097
0.018092 0.018133 0.018181
0.018434 0.018086 0.018360
0.018166 0.017935 0.018064
0.020596 0.020589 0.020583
0.017094 0.016993 0.016920
0.018851 0.018803 0.019338
0.022225 0.022174 0.022171
0.026392 0.027510 0.029936
0.018683 0.018679 0.018711
0.016819 0.016875 0.016765
0.019691 0.019797 0.019669
0.019323 0.019299 0.019307
0.023494 0.023812 0.023852
0.020163 0.020028 0.020073
0.018596 0.018779 0.018791
0.023114 0.022822 0.022788
0.027666 0.027077 0.026441
0.020087 0.020082 0.020091
0.019693 0.019342 0.019045
0.023024 0.023079 0.023075
0.016845 0.016833 0.016807
0.022800 0.022663 0.022650
0.015956 0.015999 0.015842
0.026463 0.026444 0.026534
0.019936 0.020205 0.020132
0.019277 0.019259 0.019259
0.025870 0.025872 0.026125
0.029086 0.029057 0.029390
0.021296 0.021560 0.021605
0.018622 0.018627 0.018542
0.020354 0.020398 0.020434
0.018938 0.018963 0.018918
0.020692 0.020635 0.020717
0.020198 0.020188 0.020172
0.024687 0.024740 0.024742
0.022298 0.022149 0.022163
0.021676 0.021635 0.021484
0.022390 0.022301 0.022060
0.024293 0.024497 0.024766
0.024704 0.024751 0.024703
0.021107 0.021113 0.021079
0.024340 0.024354 0.024403
0.018479 0.018369 0.018213
0.017234 0.017250 0.017233
0.017452 0.017708 0.018145
0.020050 0.020204 0.020244
0.021771 0.021815 0.021856
0.049448 0.049451 0.049526
0.021685 0.022027 0.022012
0.018611 0.018622 0.018693
0.049821 0.049599 0.049716
0.018611 0.018333 0.018552
0.021271 0.021241 0.020846
0.017650 0.017431 0.017441
0.017208 0.017194 0.017247
0.021337 0.020837 0.020999
0.018282 0.018274 0.018414
0.018775 0.018795 0.018719
0.017760 0.017782 0.017721
0.018198 0.018001 0.018213
0.020304 0.020044 0.020257
0.018071 0.018017 0.018059
0.016136 0.016152 0.016186
0.019950 0.020001 0.019893
0.020435 0.020495 0.020453
0.019681 0.019646 0.019420
0.018807 0.018662 0.018480
0.018057 0.018223 0.018045
0.016471 0.016424 0.016428
0.018254 0.018313 0.018342
0.016760 0.016636 0.016741
0.022821 0.022794 0.022586
0.019649 0.019690 0.019723
0.019876 0.019998 0.019958
0.040513 0.040278 0.040269
0.017693 0.017714 0.017680
0.018761 0.018765 0.018979
0.024340 0.024227 0.024163
0.064737 0.065378 0.065448
0.018447 0.018382 0.018254
0.023550 0.023674 0.023613
0.023516 0.023506 0.023425
0.027577 0.027674 0.027323
0.016878 0.016963 0.016949
0.018806 0.018688 0.018517
0.020802 0.020983 0.020999
0.023677 0.023504 0.023614
0.027550 0.027451 0.027361
0.018504 0.018572 0.018645
0.019077 0.019070 0.019097
0.025609 0.025559 0.025549
0.019856 0.020222 0.020172
0.017433 0.017420 0.017367
0.032765 0.032936 0.033051
0.019701 0.019688 0.019549
0.017999 0.017994 0.017841
0.039686 0.039400 0.038854
0.019612 0.019412 0.020040
0.018534 0.018708 0.018746
0.021903 0.021565 0.021553
0.022552 0.022594 0.022620
0.027537 0.027425 0.027427
0.019992 0.020013 0.020044
0.021835 0.022260 0.022226
0.022049 0.022080 0.022115
0.023006 0.023468 0.023294
0.024498 0.024504 0.024631
0.024554 0.024484 0.024443
0.018208 0.018345 0.018275
0.020868 0.020886 0.020759
0.021354 0.021456 0.021252
0.020217 0.020027 0.020030
0.021720 0.021717 0.022057
0.019745 0.019673 0.019604
0.017778 0.017701 0.017732
0.020500 0.020299 0.020338
0.017672 0.017820 0.017860
0.017967 0.018059 0.018045
0.018960 0.018517 0.018360
0.039582 0.044150 0.045466
0.015953 0.015940 0.015971
0.021199 0.021222 0.021325
0.018496 0.018264 0.018205
0.019908 0.020043 0.020281
0.018772 0.018892 0.018920
0.022291 0.022314 0.022140
0.018759 0.019021 0.019080
0.025962 0.025741 0.025390
0.022311 0.022272 0.022529
0.019819 0.019846 0.019763
0.017948 0.017960 0.017852
0.018206 0.018319 0.018416
0.019012 0.018990 0.018935
0.019361 0.019595 0.019514
0.017772 0.017773 0.017672
0.022232 0.022312 0.022324
0.018247 0.018227 0.018784
0.017216 0.017231 0.017223
0.018232 0.018377 0.018355
0.022611 0.022652 0.022596
0.019535 0.019190 0.019129
0.032229 0.032223 0.032182
0.017293 0.017310 0.017435
0.021673 0.021228 0.021098
0.019060 0.019286 0.019320
0.022795 0.022827 0.022761
0.023198 0.023188 0.023220
0.023176 0.023146 0.023068
0.017053 0.016850 0.016549
0.019805 0.019645 0.019436
0.020684 0.020514 0.020466
0.017243 0.017246 0.017205
0.024721 0.025099 0.025449
0.019047 0.019104 0.019060
0.020930 0.021043 0.021232
0.019640 0.019605 0.019573
0.020443 0.020381 0.020280
0.022387 0.022580 0.022332
0.020070 0.019961 0.019898
0.017172 0.017274 0.017469
0.019323 0.019452 0.019537
0.018115 0.018146 0.018226
0.022035 0.022015 0.022084
0.024105 0.024070 0.024027
0.016090 0.016045 0.016128
0.031749 0.032080 0.032142
0.025233 0.025056 0.024782
0.017582 0.017431 0.017717
0.017280 0.017281 0.017212
0.017616 0.017474 0.017440
0.017360 0.017671 0.018092
0.017665 0.017734 0.017765
0.019522 0.019250 0.019279
0.016718 0.016754 0.016734
0.026894 0.026642 0.025083
0.022745 0.022735 0.022517
0.016322 0.016197 0.016225
0.023514 0.023500 0.023520
0.020933 0.021328 0.021816
0.023041 0.022801 0.022790
0.021181 0.021022 0.020885
0.020255 0.020042 0.020035
0.024073 0.024102 0.023789
0.028044 0.028205 0.028559
0.054716 0.055145 0.055237
0.018648 0.018788 0.018783
0.018010 0.018133 0.018025
0.023512 0.023683 0.023773
0.021847 0.021740 0.021435
0.019865 0.019949 0.020019
0.017718 0.017708 0.017681
0.018299 0.018279 0.018532
0.020636 0.020603 0.020884
0.020194 0.020222 0.020222
0.017953 0.017947 0.017861
0.016440 0.016806 0.016770
0.020417 0.020512 0.020717
0.024813 0.024810 0.024192
0.019608 0.019676 0.019609
0.024444 0.024444 0.024549
0.018845 0.018232 0.018439
0.024106 0.023716 0.023632
0.027136 0.026459 0.026058
0.020635 0.020437 0.020281
0.019389 0.019167 0.019119
0.016089 0.016208 0.016111
0.022552 0.022556 0.022587
0.033420 0.033732 0.034200
0.031605 0.031263 0.031226
0.024509 0.024548 0.024725
0.017708 0.017803 0.017796
0.017948 0.017920 0.017971
0.019474 0.019437 0.019464
0.020379 0.020202 0.020167
0.019134 0.019219 0.019352
0.016843 0.016845 0.016833
0.040745 0.040771 0.040818
0.017979 0.018188 0.018421
0.016544 0.016444 0.016417
0.018541 0.018871 0.019001
0.019142 0.019155 0.019188
0.025047 0.025133 0.025097
0.036795 0.036765 0.036764
0.017610 0.017721 0.017737
0.022360 0.022189 0.022161
0.020699 0.020775 0.020759
0.018221 0.018371 0.018300
0.035292 0.035544 0.035568
0.016247 0.016209 0.016435
0.020102 0.020381 0.020736
0.025551 0.025709 0.025388
0.018328 0.018318 0.018272
0.017088 0.017024 0.017064
0.019725 0.019817 0.019982
0.025560 0.025517 0.025496
0.017893 0.018044 0.018128
0.023300 0.023048 0.023122
0.020861 0.020705 0.020652
0.024145 0.024406 0.024589
0.021249 0.021118 0.021096
0.055966 0.056118 0.055725
0.019229 0.019505 0.019689
0.021556 0.021606 0.021676
0.021489 0.021502 0.021394
0.016952 0.016867 0.016886
0.018283 0.018320 0.018264
0.022351 0.022566 0.022435
0.023608 0.023421 0.023251
0.024430 0.024417 0.024553
0.026459 0.026058 0.025577
0.025557 0.025866 0.025892
0.022031 0.021997 0.022030
0.016070 0.016046 0.016180
0.019006 0.019073 0.019054
0.022048 0.022024 0.022001
0.018872 0.018785 0.018769
0.023775 0.023870 0.023864
0.021317 0.021145 0.021095
0.015948 0.016133 0.016327
0.016588 0.016710 0.016681
0.019305 0.019356 0.019372
0.020091 0.020708 0.020647
0.019843 0.019607 0.019614
0.017761 0.017681 0.017833
0.024640 0.024117 0.024267
0.046612 0.046623 0.046611
0.017340 0.017392 0.017430
0.016293 0.016303 0.016318
0.032053 0.030901 0.030032
0.017542 0.017653 0.017341
0.020967 0.021077 0.021470
0.026121 0.025710 0.026032
0.018119 0.018054 0.018041
0.027865 0.027728 0.027613
0.016988 0.017007 0.016963
0.020036 0.019977 0.020166
0.016764 0.016770 0.016697
0.015669 0.015715 0.015726
0.024560 0.024464 0.024455
0.025573 0.025819 0.025897
0.022839 0.023047 0.022940
0.024894 0.024896 0.024815
0.018930 0.018671 0.018888
0.018301 0.018458 0.018352
0.028102 0.028041 0.028088
0.020490 0.020314 0.020343
0.023999 0.023919 0.024066
0.017301 0.017217 0.017141
0.020059 0.019716 0.019834
0.020211 0.020104 0.019964
0.023053 0.023040 0.022533
0.026017 0.025839 0.025727
0.023701 0.023737 0.023694
0.018455 0.018327 0.018463
0.025336 0.025143 0.024921
0.015762 0.015750 0.015796
0.017856 0.017870 0.017771
0.022166 0.022148 0.021926
0.019747 0.019677 0.019684
0.022223 0.022184 0.022286
0.022942 0.023085 0.022967
0.019512 0.019448 0.019429
0.019106 0.018999 0.019057
0.020262 0.019975 0.019684
0.024353 0.024396 0.024590
0.019898 0.019818 0.019726
0.021232 0.021444 0.021458
0.020170 0.020058 0.019994
0.015988 0.015875 0.015883
0.019345 0.019442 0.019516
0.022334 0.022550 0.022652
0.016434 0.016550 0.016451
0.019762 0.019727 0.019794
0.020480 0.020420 0.020421
0.017504 0.017563 0.017866
0.025224 0.025120 0.024332
0.020141 0.020044 0.019927
0.019032 0.019401 0.019648
0.023370 0.023568 0.023440
0.021637 0.021652 0.021619
0.017311 0.017231 0.017134
0.021502 0.021449 0.021539
0.023858 0.023676 0.023615
0.019937 0.019952 0.020151
0.023040 0.022627 0.022379
0.021429 0.021379 0.021364
0.023844 0.023771 0.023414
0.022781 0.022828 0.023016
0.017198 0.017163 0.017198
0.028669 0.028612 0.028443
0.023073 0.023472 0.023310
0.019696 0.019683 0.019571
0.026061 0.026150 0.025975
0.018850 0.018757 0.018547
0.023987 0.023963 0.023999
0.019486 0.019469 0.019511
0.020453 0.020334 0.020483
0.016710 0.016567 0.016618
0.021379 0.021364 0.021360
0.020989 0.020706 0.020765
0.016303 0.016318 0.016520
0.018594 0.018662 0.018710
0.018153 0.018339 0.018579
0.019150 0.019251 0.019637
0.022020 0.022120 0.022260
0.025243 0.025245 0.025194
0.020886 0.020759 0.021053
0.021053 0.021266 0.021577
0.019961 0.019940 0.019888
0.026492 0.026315 0.026299
0.017508 0.017603 0.017665
0.017004 0.016903 0.016848
0.017589 0.017592 0.017610
0.020817 0.020705 0.020589
0.016856 0.017015 0.017024
0.018549 0.018473 0.018544
0.019078 0.019181 0.019135
0.023676 0.023615 0.023621
0.017371 0.017357 0.017325
0.020198 0.020087 0.020080
0.022792 0.022742 0.022741
0.024158 0.024046 0.023964
0.020744 0.020646 0.020664
0.022742 0.022144 0.021606
0.019803 0.019837 0.019808
0.023145 0.023606 0.024097
0.018127 0.018199 0.018188
0.021132 0.021147 0.021181
0.023410 0.023180 0.023177
0.027490 0.027476 0.027528
0.023125 0.023037 0.023263
0.021752 0.021943 0.021991
0.025517 0.025523 0.025254
0.022824 0.022737 0.022664
0.029393 0.029443 0.029511
0.024252 0.024203 0.024059
0.017910 0.017960 0.018025
0.017355 0.017387 0.017379
0.024841 0.024913 0.024946
0.024097 0.024121 0.024286
0.023317 0.023476 0.023551
0.028738 0.028680 0.028633
0.017969 0.017707 0.017670
0.018383 0.018054 0.018314
0.029820 0.029836 0.029407
0.019755 0.019736 0.019856
0.021283 0.021335 0.021492
0.024268 0.024322 0.024375
0.021734 0.022223 0.022115
0.018469 0.018486 0.018482
0.021082 0.021209 0.021284
0.019184 0.019553 0.019591
0.023430 0.023388 0.023139
0.024403 0.024363 0.024445
0.018040 0.017956 0.018108
0.020169 0.020484 0.020423
0.017055 0.017426 0.017281
0.021063 0.020858 0.020581
0.021948 0.021850 0.021809
0.024230 0.024091 0.023798
0.046072 0.045856 0.045056
0.021403 0.021327 0.021351
0.018590 0.018412 0.018566
0.015768 0.015679 0.015812
0.016723 0.016720 0.016740
0.023012 0.023125 0.023014
0.018081 0.018195 0.018078
0.017842 0.017812 0.017870
0.025649 0.025675 0.025700
0.015908 0.015984 0.016017
0.020006 0.020335 0.020175
0.023747 0.023814 0.023768
0.021121 0.021249 0.021210
0.034667 0.034671 0.034666
0.017585 0.017758 0.017911
0.016092 0.016141 0.016045
0.046324 0.046327 0.046304
0.020802 0.020799 0.020749
0.019509 0.019584 0.019958
0.019622 0.019441 0.019435
0.016706 0.016875 0.017310
0.021396 0.021078 0.020692
0.020881 0.020843 0.020709
0.025365 0.025363 0.025464
0.016197 0.016322 0.016292
0.017792 0.017748 0.017805
0.027405 0.027587 0.027595
0.020286 0.020346 0.020387
0.018179 0.017921 0.017907
0.027432 0.027454 0.027500
0.020747 0.020688 0.020733
0.024166 0.024601 0.024759
0.018134 0.018141 0.018165
0.016627 0.016588 0.016594
0.021420 0.021540 0.021573
0.018301 0.018333 0.018406
0.023413 0.023429 0.023468
0.018326 0.018156 0.018364
0.024755 0.024826 0.024868
0.025629 0.025644 0.025747
0.027336 0.027440 0.027525
0.020401 0.020454 0.020472
0.021033 0.020942 0.021143
0.019172 0.019171 0.018966
0.017931 0.017981 0.017915
0.022682 0.022624 0.022596
0.018333 0.018406 0.018292
0.018989 0.018743 0.018570
0.018724 0.018659 0.018610
0.018513 0.018564 0.018532
0.027627 0.027596 0.027565
0.018139 0.018074 0.017990
0.020230 0.020264 0.020409
0.022647 0.022941 0.023214
0.040455 0.040153 0.039651
0.035195 0.035320 0.035477
0.026285 0.026443 0.026300
0.017657 0.017707 0.017699
0.026268 0.026396 0.026284
0.025446 0.025393 0.025418
0.021662 0.021540 0.021610
0.030901 0.030032 0.029644
0.019421 0.019528 0.019739
0.019592 0.019931 0.019718
0.016372 0.016479 0.016541
0.018507 0.018436 0.018517
0.019465 0.019551 0.019456
0.018092 0.018195 0.018182
0.024438 0.024457 0.024440
0.015719 0.015569 0.015496
0.022663 0.022609 0.022568
0.023683 0.023784 0.023938
0.020616 0.020501 0.020507
0.020222 0.020328 0.020329
0.016406 0.016424 0.016511
0.022676 0.022695 0.022670
0.020003 0.019918 0.019915
0.025674 0.025429 0.025842
0.022695 0.022578 0.022594
0.017625 0.017740 0.017637
0.021362 0.021276 0.021103
0.031153 0.031571 0.031209
0.019283 0.019304 0.019225
0.021845 0.021688 0.021478
0.017448 0.017439 0.017494
0.024323 0.024427 0.024341
0.017263 0.017186 0.017162
0.021407 0.021510 0.021604
0.017044 0.017062 0.017001
0.018335 0.018317 0.018240
0.016656 0.016534 0.016613
0.018896 0.019059 0.019130
0.018864 0.019145 0.019232
0.020712 0.020734 0.020685
0.021573 0.021421 0.021667
0.018689 0.018743 0.018709
0.023848 0.023833 0.023727
0.017291 0.017268 0.017271
0.017750 0.017941 0.018485
0.017473 0.017364 0.017318
0.046374 0.046377 0.046391
0.019044 0.018905 0.019050
0.024189 0.024217 0.024303
0.021900 0.021543 0.021301
0.020279 0.020383 0.020315
0.017484 0.017548 0.017593
0.019723 0.019746 0.019692
0.023590 0.023585 0.022999
0.022125 0.022072 0.022043
0.018395 0.018371 0.018595
0.067313 0.067260 0.067217
0.022097 0.022268 0.022396
0.022132 0.022548 0.023005
0.021629 0.021517 0.021494
0.020474 0.020403 0.020474
0.021650 0.021859 0.021939
0.024430 0.024460 0.024516
0.027759 0.028001 0.028052
0.028315 0.028192 0.027981
0.018012 0.018102 0.018184
0.015496 0.015507 0.015480
0.027447 0.027206 0.027338
0.020083 0.020008 0.020010
0.017344 0.017375 0.017329
0.017450 0.017452 0.017350
0.018241 0.018392 0.018277
0.022186 0.022172 0.022128
0.018219 0.018374 0.018453
0.019458 0.019523 0.019545
0.017233 0.017519 0.017499
0.019048 0.019071 0.019146
0.024434 0.024428 0.024184
0.024272 0.024216 0.024306
0.025019 0.025275 0.025205
0.018982 0.018900 0.018981
0.018159 0.018216 0.018070
0.017374 0.017288 0.017164
0.028398 0.028301 0.028052
0.050169 0.050333 0.051272
0.018590 0.018581 0.018645
0.022626 0.022507 0.022464
0.020343 0.020331 0.020192
0.018029 0.018006 0.018019
0.017916 0.017982 0.018054
0.027319 0.027397 0.027332
0.022940 0.022768 0.022808
0.019593 0.019609 0.019436
0.017048 0.017032 0.016956
0.022318 0.022355 0.022372
0.017558 0.017484 0.017547
0.017552 0.017385 0.017348
0.016566 0.016853 0.017060
0.019425 0.019669 0.019816
0.034367 0.034010 0.034257
0.017014 0.017044 0.016908
0.017939 0.017752 0.017748
0.017619 0.017503 0.017458
0.017649 0.017659 0.017865
0.019566 0.019574 0.019760
0.017859 0.017558 0.017498
0.023487 0.023436 0.023369
0.022577 0.022548 0.022582
0.023747 0.023717 0.023630
0.025559 0.025549 0.025511
0.021793 0.021823 0.021894
0.023923 0.023834 0.023917
0.023535 0.023452 0.023459
0.025993 0.025993 0.025942
0.021740 0.021903 0.021874
0.021930 0.021886 0.021831
0.021429 0.021116 0.021239
0.024013 0.023811 0.023780
0.017582 0.017543 0.017261
0.016216 0.016201 0.016220
0.022142 0.021898 0.021672
0.023068 0.022913 0.022865
0.021948 0.021975 0.022360
0.019157 0.019248 0.019418
0.022379 0.021968 0.021962
0.020027 0.019843 0.019771
0.017156 0.017054 0.016901
0.024831 0.024947 0.024944
0.021597 0.021570 0.021545
0.019511 0.019501 0.019336
0.019095 0.019107 0.019043
0.018179 0.017873 0.017795
0.018583 0.018555 0.018553
0.024114 0.024214 0.024285
0.015976 0.015899 0.015760
0.015734 0.015818 0.015793
0.018633 0.018678 0.018565
0.022149 0.022024 0.022106
0.018658 0.018561 0.018478
0.017490 0.017486 0.017434
0.016658 0.016608 0.016584
0.020609 0.020557 0.020515
0.024034 0.023600 0.023485
0.020079 0.020241 0.020616
0.028413 0.028466 0.028428
0.023610 0.023577 0.024168
0.018926 0.019012 0.019048
0.021334 0.021218 0.021225
0.019442 0.019481 0.019483
0.020224 0.020246 0.020054
0.018779 0.018754 0.018725
0.021853 0.021949 0.022021
0.019121 0.018880 0.018871
0.017645 0.017665 0.017666
0.022070 0.022049 0.022026
0.018829 0.018647 0.018888
0.020882 0.020065 0.020044
0.046224 0.046301 0.046296
0.021127 0.021066 0.020962
0.018779 0.018835 0.018861
0.023465 0.023552 0.023536
0.019158 0.019065 0.019103
0.016860 0.016776 0.016856
0.017379 0.017326 0.017348
0.018551 0.018334 0.018420
0.018731 0.018726 0.018691
0.016563 0.016562 0.016556
0.016996 0.017063 0.016852
0.029849 0.029831 0.029673
0.031604 0.031523 0.031621
0.036569 0.036497 0.036554
0.025632 0.025571 0.025508
0.025445 0.025579 0.025559
0.018311 0.018316 0.018413
0.017283 0.016941 0.017058
0.022049 0.022002 0.022164
0.023294 0.023358 0.023334
0.020294 0.020202 0.020038
0.018482 0.018702 0.018795
0.018958 0.018951 0.018957
0.021873 0.021859 0.022043
0.017394 0.017445 0.017314
0.017623 0.017709 0.017716
0.021166 0.021172 0.021166
0.021452 0.021398 0.021113
0.022424 0.022536 0.022516
0.017751 0.017863 0.017773
0.037300 0.037418 0.037236
0.049251 0.049239 0.049222
0.022961 0.022585 0.022517
0.023396 0.023405 0.023572
0.018755 0.018848 0.018927
0.064228 0.064606 0.064703
0.017325 0.017510 0.017610
0.016923 0.017048 0.017023
0.016420 0.016532 0.016317
0.022599 0.022506 0.022209
0.033770 0.034145 0.034158
0.021642 0.021538 0.021457
0.026299 0.026318 0.026284
0.019129 0.019115 0.019190
0.028596 0.028818 0.029032
0.019029 0.018993 0.019015
0.025215 0.025216 0.025237
0.021880 0.021906 0.021977
0.020495 0.020453 0.020300
0.017484 0.017522 0.017398
0.016086 0.016030 0.015965
0.026847 0.026774 0.026864
0.054306 0.054455 0.054856
0.021590 0.021592 0.021878
0.019988 0.019978 0.019916
0.021553 0.021640 0.021619
0.020120 0.020127 0.020246
0.046300 0.046294 0.046374
0.018275 0.018376 0.018532
0.048197 0.047352 0.046485
0.018697 0.018683 0.018649
0.034351 0.034170 0.034355
0.032161 0.031954 0.031970
0.031925 0.031657 0.031707
0.017407 0.017524 0.017477
0.025177 0.025196 0.025349
0.017871 0.017915 0.017855
0.024218 0.024151 0.024246
0.027316 0.027402 0.027453
0.017919 0.017815 0.017782
0.022288 0.021929 0.021889
0.024517 0.024768 0.024823
0.019820 0.019988 0.019929
0.016430 0.016482 0.016471
0.021143 0.021112 0.021242
0.016318 0.016267 0.016411
0.023846 0.023808 0.023573
0.023091 0.023104 0.023622
0.020885 0.020837 0.020866
0.021241 0.021399 0.021526
0.017955 0.017963 0.017948
0.016755 0.016746 0.016808
0.018377 0.018426 0.018488
0.025477 0.025524 0.025413
0.025874 0.027324 0.029655
0.032382 0.032410 0.032373
0.022822 0.022841 0.022703
0.016135 0.016276 0.016442
0.023519 0.023564 0.023455
0.021075 0.020779 0.020695
0.020078 0.020219 0.020266
0.017881 0.017838 0.017724
0.017099 0.017165 0.017094
0.019492 0.019496 0.019523
0.018747 0.018769 0.018854
0.023262 0.023023 0.022969
0.020563 0.020875 0.020868
0.035262 0.035292 0.035544
0.023658 0.023682 0.023645
0.024717 0.024444 0.024444
0.020898 0.021222 0.021083
0.046209 0.046206 0.046274
0.026304 0.026305 0.026844
0.023195 0.023222 0.023298
0.017707 0.017672 0.017758
0.024842 0.024457 0.024103
0.018894 0.018983 0.018977
0.020754 0.020709 0.020717
0.019685 0.019592 0.019573
0.026314 0.026282 0.026349
0.025819 0.025897 0.025871
0.017257 0.017193 0.017254
0.018651 0.018486 0.018433
0.035704 0.035695 0.035687
0.022119 0.022171 0.022226
0.027492 0.027524 0.027109
0.021486 0.021782 0.021700
0.020472 0.020468 0.020998
0.029787 0.029802 0.029794
0.019095 0.019081 0.019230
0.018314 0.018374 0.018437
0.024094 0.024092 0.023997
0.020326 0.020800 0.021087
0.022816 0.022933 0.022880
0.020483 0.021153 0.021331
0.047339 0.047186 0.046760
0.024430 0.024460 0.024569
0.018779 0.018777 0.018787
0.021318 0.021237 0.021084
0.022495 0.022208 0.022076
0.023465 0.023555 0.023638
0.024574 0.024598 0.024655
0.022510 0.022507 0.022466
0.021287 0.021407 0.021232
0.017456 0.017346 0.017273
0.017961 0.017981 0.018127
0.019371 0.019172 0.019152
0.021703 0.022003 0.021886
0.019172 0.019231 0.019018
0.051270 0.051787 0.053016
0.018388 0.018268 0.018377
0.019914 0.019969 0.020080
0.027439 0.027392 0.027626
0.018384 0.018544 0.018687
0.022229 0.022209 0.022286
0.024230 0.024332 0.024303
0.016977 0.016987 0.016972
0.020376 0.020152 0.019798
0.016162 0.016151 0.016242
0.016899 0.016822 0.016834
0.021386 0.021442 0.021457
0.019390 0.019522 0.019695
0.018216 0.018208 0.018182
0.020033 0.020051 0.020200
0.021090 0.021136 0.021132
0.017509 0.017459 0.017404
0.025307 0.025402 0.025446
0.018439 0.018384 0.018383
0.025507 0.025476 0.025386
0.017834 0.017850 0.017813
0.019984 0.020109 0.020191
0.018577 0.018732 0.018610
0.020843 0.020709 0.020705
0.020045 0.020038 0.019935
0.018985 0.019073 0.019047
0.021238 0.021152 0.021222
0.022889 0.023049 0.022907
0.023309 0.023309 0.023417
0.019026 0.019086 0.018995
0.026087 0.026074 0.025685
0.020425 0.020424 0.020147
0.021947 0.021956 0.021966
0.024811 0.024608 0.024270
0.031780 0.031728 0.031803
0.020470 0.020392 0.020410
0.022226 0.021959 0.022107
0.024786 0.024841 0.024904
0.017601 0.017789 0.017953
0.016747 0.016841 0.016753
0.021636 0.021777 0.021929
0.020528 0.020753 0.020781
0.022512 0.022482 0.022531
0.022706 0.022767 0.022723
0.036667 0.036616 0.036569
0.018253 0.018503 0.018400
0.021699 0.021771 0.021796
0.019441 0.019435 0.019354
0.017875 0.017852 0.017853
0.059687 0.059816 0.059927
0.026502 0.026514 0.026532
0.018720 0.018720 0.018749
0.021773 0.021776 0.021815
0.017212 0.017158 0.017124
0.018905 0.018854 0.018776
0.022728 0.022740 0.022760
0.021584 0.021404 0.020817
0.066756 0.066950 0.066988
0.018177 0.017908 0.017970
0.024608 0.024613 0.024641
0.026045 0.026123 0.026017
0.018061 0.017996 0.018086
0.020824 0.020795 0.020888
0.019720 0.019660 0.019631
0.020076 0.019925 0.019911
0.024677 0.024715 0.024754
0.019450 0.019417 0.019365
0.022962 0.022898 0.022929
0.020180 0.020357 0.020286
0.024927 0.024945 0.024635
0.022293 0.022144 0.022089
0.018517 0.018539 0.018438
0.017508 0.017401 0.017207
0.022200 0.022043 0.022222
0.039651 0.039301 0.038850
0.018855 0.019120 0.019108
0.026130 0.026083 0.026172
0.019763 0.019960 0.019886
0.027462 0.026752 0.026612
0.032222 0.032257 0.032398
0.016194 0.016229 0.016211
0.017530 0.017530 0.017523
0.025842 0.025839 0.025878
0.038329 0.038388 0.038707
0.026030 0.026085 0.026105
0.024231 0.024400 0.024514
0.017144 0.017248 0.017300
0.024072 0.023945 0.024141
0.019808 0.019622 0.019625
0.017376 0.017232 0.016806
0.032962 0.033251 0.032737
0.018990 0.018928 0.019067
0.017285 0.017352 0.017340
0.024292 0.024170 0.023799
0.021873 0.021806 0.021793
0.021570 0.021544 0.021597
0.020381 0.020384 0.020315
0.021221 0.021351 0.021687
0.031620 0.031253 0.030937
0.020939 0.020825 0.020833
0.023426 0.023349 0.023433
0.016163 0.016316 0.016190
0.026161 0.026501 0.026533
0.021287 0.021295 0.021565
0.022266 0.022028 0.021913
0.021303 0.021366 0.021356
0.020622 0.020703 0.020693
0.018497 0.018621 0.018754
0.035954 0.036248 0.036129
0.023594 0.023573 0.023606
0.024421 0.024379 0.024440
0.017624 0.017566 0.017573
0.016424 0.016511 0.016589
0.018940 0.018694 0.018835
0.026521 0.026254 0.026135
0.040626 0.040448 0.040325
0.019119 0.019044 0.018805
0.019988 0.019934 0.019961
0.019334 0.019447 0.019706
0.019842 0.019839 0.019738
0.018350 0.018397 0.018502
0.022109 0.021927 0.021953
0.034283 0.034065 0.032392
0.017421 0.017484 0.017311
0.022937 0.022769 0.022719
0.019418 0.019441 0.019428
0.017327 0.017315 0.017395
