0.192120 0.192182 0.192152
0.140454 0.139188 0.140047
0.171542 0.172959 0.172890
0.185935 0.186426 0.187032
0.192016 0.190468 0.192385
0.199227 0.198667 0.198420
0.185328 0.185618 0.186049
0.187025 0.188684 0.188599
0.184242 0.183913 0.184953
0.207207 0.207337 0.206378
0.189719 0.188547 0.188375
0.189053 0.186960 0.189227
0.162080 0.163702 0.163797
0.201921 0.201361 0.201136
0.114637 0.113960 0.113612
0.117399 0.117931 0.118197
0.221212 0.210611 0.210065
0.208779 0.208905 0.209582
0.115045 0.115749 0.116440
0.200779 0.200723 0.200477
0.136443 0.136432 0.136445
0.212127 0.211044 0.211164
0.142203 0.140076 0.139455
0.127836 0.127484 0.126752
0.203876 0.204055 0.203394
0.186766 0.187778 0.189580
0.142562 0.142771 0.141434
0.118510 0.118737 0.114852
0.162519 0.160452 0.160662
0.171824 0.172284 0.172754
0.185036 0.184836 0.184929
0.124352 0.124132 0.123949
0.196927 0.196504 0.196643
0.222535 0.223189 0.224055
0.169659 0.170045 0.169916
0.114902 0.115420 0.115330
0.190571 0.200418 0.195305
0.205966 0.207047 0.210073
0.188247 0.189537 0.191320
0.161605 0.163531 0.163842
0.202197 0.204336 0.205265
0.127127 0.126992 0.127881
0.186210 0.186509 0.188413
0.194359 0.195017 0.196862
0.178140 0.177738 0.178023
0.139868 0.136788 0.136563
0.177308 0.179855 0.179762
0.207502 0.207712 0.208035
0.164841 0.163957 0.161260
0.165214 0.166783 0.167182
0.204727 0.199389 0.199542
0.173902 0.173495 0.176641
0.184506 0.184089 0.184653
0.208988 0.210211 0.210339
0.191775 0.193178 0.194114
0.173848 0.174616 0.176286
0.200394 0.202790 0.204860
0.151434 0.152302 0.153755
0.127220 0.127500 0.127549
0.186450 0.187420 0.187464
0.171566 0.171215 0.170752
0.177112 0.176798 0.176291
0.187865 0.187598 0.186657
0.169655 0.169585 0.168330
0.131568 0.130978 0.130677
0.118793 0.119368 0.120168
0.109820 0.109584 0.109134
0.155848 0.155419 0.155356
0.145987 0.145098 0.145258
0.206664 0.206682 0.205356
0.130183 0.128480 0.127604
0.136484 0.135511 0.135280
0.177649 0.177496 0.178514
0.183509 0.182666 0.184240
0.188694 0.187863 0.187498
0.124866 0.123165 0.122375
0.184517 0.186279 0.186840
0.174687 0.175259 0.174911
0.161773 0.161504 0.160867
0.193771 0.194673 0.199118
0.120619 0.120898 0.121051
0.165163 0.165798 0.165839
0.192662 0.192405 0.191461
0.173201 0.173109 0.170767
0.136226 0.136756 0.136639
0.159745 0.159275 0.159276
0.121014 0.120408 0.120746
0.142193 0.141460 0.140551
0.213576 0.213276 0.213225
0.135858 0.136194 0.136394
0.129806 0.133434 0.134378
0.187357 0.187865 0.187598
0.196651 0.164511 0.158516
0.119331 0.119364 0.119503
0.216143 0.215668 0.216323
0.191862 0.191231 0.191844
0.126925 0.127990 0.128232
0.173491 0.171245 0.171652
0.211635 0.211200 0.207320
0.176440 0.176950 0.172859
0.215501 0.213686 0.213525
0.119292 0.118736 0.117964
0.129579 0.129831 0.131392
0.239058 0.238928 0.238590
0.125131 0.125222 0.125703
0.213556 0.213605 0.214232
0.138374 0.139110 0.139228
0.164577 0.164474 0.164594
0.182445 0.182438 0.182163
0.139728 0.139841 0.139628
0.181235 0.180566 0.180997
0.188940 0.189050 0.189078
0.138114 0.137870 0.138242
0.136272 0.138159 0.138788
0.132453 0.132539 0.132027
0.132623 0.130579 0.130830
0.178534 0.173773 0.173633
0.121315 0.121503 0.122476
0.199144 0.203089 0.203951
0.171065 0.171240 0.170754
0.135606 0.131295 0.130984
0.198938 0.198729 0.197705
0.204022 0.200520 0.204291
0.230751 0.231592 0.231460
0.182202 0.190125 0.192651
0.223511 0.223050 0.225070
0.148785 0.148587 0.149528
0.195018 0.197111 0.196989
0.164032 0.159176 0.164497
0.175244 0.175621 0.175164
0.139958 0.140678 0.140183
0.172616 0.171830 0.172218
0.132762 0.133555 0.134796
0.189438 0.197264 0.198331
0.216565 0.217110 0.217360
0.179346 0.179432 0.179374
0.109757 0.110986 0.111466
0.212679 0.212794 0.211861
0.125750 0.125605 0.125762
0.164050 0.164091 0.163759
0.206644 0.203338 0.202706
0.189127 0.189137 0.188723
0.129200 0.129868 0.130196
0.135214 0.136049 0.135476
0.134448 0.134716 0.134670
0.215740 0.216213 0.215762
0.156840 0.152315 0.151200
0.177684 0.177411 0.177613
0.174068 0.174199 0.174218
0.135633 0.136043 0.136088
0.211553 0.212573 0.211409
0.136524 0.135807 0.130880
0.207005 0.206607 0.204280
0.167576 0.167754 0.167861
0.183397 0.183314 0.183919
0.181431 0.176042 0.175489
0.145836 0.145330 0.145436
0.200157 0.199401 0.199488
0.247447 0.246189 0.246981
0.126427 0.126707 0.126265
0.187669 0.190965 0.191091
0.127819 0.127367 0.127347
0.217764 0.218447 0.218915
0.179984 0.179446 0.179182
0.197138 0.197267 0.197348
0.191506 0.191011 0.188053
0.200216 0.200359 0.203669
0.183533 0.185272 0.185607
0.134919 0.136410 0.135845
0.166641 0.166887 0.167068
0.164631 0.161092 0.160789
0.131231 0.130503 0.130549
0.217435 0.217764 0.218447
0.204720 0.205591 0.206878
0.151672 0.151836 0.151737
0.188067 0.188666 0.189175
0.170830 0.171349 0.170160
0.217389 0.217428 0.219966
0.134911 0.134901 0.136193
0.203102 0.204015 0.203822
0.186375 0.184594 0.185354
0.202920 0.202883 0.202400
0.188350 0.188273 0.185101
0.182677 0.181728 0.180622
0.189372 0.189427 0.189642
0.186432 0.181770 0.181136
0.193778 0.195777 0.195927
0.140022 0.138063 0.137783
0.183276 0.183322 0.184282
0.134854 0.134755 0.134527
0.209856 0.209853 0.207693
0.182056 0.182597 0.182268
0.150834 0.147884 0.148072
0.124432 0.123263 0.123990
0.209845 0.202191 0.201866
0.144388 0.141215 0.141260
0.188416 0.187414 0.189970
0.211399 0.211359 0.221591
0.241623 0.242195 0.242159
0.209424 0.209273 0.208984
0.203147 0.197381 0.196994
0.151159 0.151679 0.151544
0.130568 0.130192 0.130121
0.186552 0.186898 0.187296
0.116485 0.115912 0.115989
0.195267 0.194489 0.192852
0.175850 0.175439 0.176321
0.137686 0.138166 0.138631
0.175304 0.175466 0.179537
0.111631 0.111187 0.111607
0.137890 0.137259 0.138751
0.192081 0.192310 0.192950
0.119049 0.119687 0.120038
0.174952 0.171442 0.178792
0.154642 0.155129 0.155284
0.190999 0.189815 0.186771
0.137997 0.138369 0.138570
0.195389 0.194973 0.193111
0.188912 0.188676 0.189134
0.190874 0.189907 0.190624
0.214937 0.216375 0.215162
0.128506 0.127640 0.127439
0.131059 0.130595 0.130963
0.189608 0.190088 0.191428
0.210502 0.210597 0.211813
0.140508 0.140612 0.140107
0.145794 0.145677 0.147051
0.209108 0.209518 0.210461
0.125345 0.125711 0.125440
0.205994 0.202276 0.202183
0.134148 0.134174 0.134815
0.189825 0.189763 0.189594
0.132386 0.131992 0.130817
0.184669 0.185072 0.184885
0.130464 0.130388 0.129059
0.133229 0.133082 0.133161
0.189910 0.190940 0.197592
0.208292 0.209724 0.208891
0.238018 0.237411 0.237831
0.208135 0.203640 0.203603
0.125856 0.124107 0.125035
0.130448 0.130410 0.130678
0.140102 0.140276 0.140435
0.162675 0.162709 0.162431
0.202614 0.201788 0.195844
0.187362 0.185766 0.186211
0.112959 0.113103 0.113142
0.183803 0.184117 0.185254
0.176278 0.175940 0.175636
0.180838 0.181261 0.181126
0.193478 0.193285 0.193557
0.166977 0.168039 0.170193
0.132741 0.133083 0.134701
0.207786 0.208567 0.207774
0.183424 0.183330 0.185301
0.210386 0.210199 0.210276
0.206716 0.210408 0.210735
0.174226 0.172886 0.170044
0.184704 0.184642 0.184856
0.203333 0.202531 0.198117
0.175088 0.174750 0.175219
0.187311 0.186585 0.186724
0.188326 0.185435 0.185288
0.112683 0.112089 0.112120
0.210550 0.211603 0.211968
0.197079 0.202331 0.201689
0.116786 0.116454 0.115199
0.172993 0.172613 0.172733
0.173218 0.172426 0.173571
0.168303 0.167146 0.169086
0.158211 0.158088 0.157934
0.134692 0.134916 0.137049
0.175806 0.175102 0.175424
0.184352 0.184840 0.187986
0.170291 0.170497 0.170321
0.132163 0.132321 0.131671
0.184099 0.184671 0.183749
0.135778 0.136022 0.135258
0.190209 0.189542 0.189254
0.162426 0.162615 0.161319
0.203544 0.202848 0.203215
0.192485 0.191952 0.192122
0.136953 0.136547 0.137481
0.105711 0.104034 0.103896
0.191173 0.191918 0.191219
0.176113 0.175895 0.171475
0.134849 0.134980 0.134019
0.127587 0.130335 0.130258
0.214421 0.210096 0.206329
0.214851 0.213294 0.212096
0.171517 0.170654 0.169548
0.133317 0.133270 0.132635
0.168264 0.170620 0.170046
0.112161 0.115121 0.116431
0.166283 0.166571 0.166417
0.140973 0.139090 0.140219
0.189589 0.190714 0.186659
0.199723 0.200737 0.201989
0.206678 0.205701 0.205950
0.129750 0.129405 0.128436
0.134055 0.134152 0.134249
0.161027 0.161425 0.162503
0.129865 0.129779 0.130844
0.179205 0.178235 0.173660
0.134838 0.138642 0.137549
0.113474 0.113898 0.114377
0.130405 0.129462 0.129645
0.202606 0.202152 0.199926
0.141871 0.142178 0.141873
0.150148 0.150160 0.149341
0.123374 0.122678 0.122698
0.119584 0.119538 0.119502
0.181919 0.202197 0.204336
0.173893 0.173892 0.174617
0.135927 0.136386 0.136559
0.189355 0.188726 0.188408
0.120580 0.121751 0.122374
0.196365 0.203123 0.202767
0.181449 0.180017 0.181213
0.152726 0.153003 0.153153
0.133345 0.133591 0.134397
0.125715 0.125982 0.126254
0.128408 0.129035 0.129732
0.198296 0.198332 0.197741
0.180891 0.180969 0.174031
0.177805 0.174538 0.175032
0.221848 0.220780 0.220370
0.125155 0.127221 0.127744
0.162401 0.162589 0.163552
0.180794 0.180701 0.180597
0.179080 0.179462 0.179645
0.132315 0.132874 0.133944
0.188185 0.183198 0.182850
0.180169 0.179883 0.179320
0.147672 0.147479 0.147930
0.197775 0.197468 0.201085
0.164537 0.164591 0.163953
0.144968 0.145403 0.145421
0.197014 0.195063 0.195044
0.191757 0.189482 0.189318
0.189005 0.188506 0.188629
0.176662 0.176742 0.177616
0.111485 0.111997 0.112265
0.174892 0.174085 0.173854
0.176502 0.175841 0.175695
0.165750 0.165382 0.165095
0.213287 0.206797 0.206743
0.178100 0.177571 0.180526
0.173376 0.172299 0.170431
0.121153 0.122235 0.122989
0.171977 0.171096 0.170558
0.202663 0.203129 0.206261
0.169455 0.168870 0.168742
0.129711 0.129538 0.130157
0.130560 0.131442 0.131320
0.145917 0.145800 0.146808
0.201247 0.197996 0.197900
0.184588 0.184648 0.182301
0.191585 0.191913 0.192292
0.134762 0.135154 0.135333
0.200681 0.197618 0.198296
0.130988 0.130040 0.129453
0.110219 0.109992 0.110271
0.214601 0.213837 0.209304
0.179821 0.176636 0.175702
0.126796 0.126220 0.127095
0.163626 0.169840 0.169703
0.181443 0.184649 0.189608
0.129686 0.130599 0.134325
0.207132 0.207103 0.207411
0.197604 0.197225 0.197761
0.179921 0.180128 0.181444
0.155659 0.155179 0.152471
0.138134 0.138075 0.138384
0.202659 0.202268 0.202326
0.208891 0.204331 0.203183
0.183267 0.183969 0.183893
0.131475 0.132270 0.132166
0.227264 0.227507 0.227742
0.186576 0.184455 0.183966
0.197022 0.197330 0.198290
0.112953 0.113431 0.113775
0.130464 0.131470 0.132319
0.164723 0.164411 0.164813
0.163502 0.163321 0.163362
0.180169 0.181957 0.176528
0.194138 0.194211 0.192446
0.115397 0.115517 0.117475
0.165499 0.165636 0.165463
0.136424 0.135633 0.135589
0.139536 0.139462 0.134641
0.124859 0.125701 0.125850
0.181687 0.185749 0.185387
0.161842 0.161580 0.162106
0.134336 0.134106 0.134344
0.201881 0.201941 0.201997
0.152395 0.152804 0.153188
0.192342 0.189199 0.189298
0.134064 0.133934 0.133661
0.175523 0.173880 0.173330
0.153005 0.154508 0.154299
0.118700 0.116946 0.116740
0.131230 0.130755 0.131350
0.161277 0.161500 0.161117
0.127711 0.128089 0.128729
0.130582 0.130900 0.131929
0.210648 0.210481 0.210969
0.168958 0.165347 0.164639
0.129320 0.129901 0.129878
0.206380 0.206146 0.205291
0.161867 0.161625 0.160746
0.137400 0.136667 0.136557
0.191528 0.193453 0.194167
0.243013 0.242493 0.242157
0.211855 0.211999 0.212491
0.165666 0.165522 0.165749
0.135400 0.135887 0.136403
0.133969 0.134804 0.135158
0.177306 0.176693 0.177205
0.186125 0.186124 0.186204
0.183750 0.181804 0.182753
0.201470 0.201583 0.201858
0.186649 0.186023 0.186106
0.111392 0.110341 0.108992
0.199704 0.200850 0.205153
0.198527 0.199756 0.200280
0.185503 0.189156 0.189304
0.125550 0.125609 0.125947
0.137272 0.136722 0.136614
0.154193 0.152370 0.152294
0.135995 0.133559 0.132651
0.196505 0.198721 0.199675
0.129351 0.125817 0.124671
0.150363 0.150486 0.150933
0.245530 0.247127 0.246278
0.112850 0.113083 0.112840
0.174676 0.173757 0.178059
0.162113 0.163879 0.169059
0.151324 0.152160 0.151965
0.176239 0.176830 0.176962
0.139734 0.139226 0.139394
0.173645 0.173958 0.173970
0.168121 0.168243 0.168685
0.186008 0.186568 0.185871
0.184543 0.186079 0.186566
0.172529 0.170108 0.170831
0.139893 0.140277 0.141771
0.194258 0.194267 0.196290
0.179493 0.179717 0.180381
0.202787 0.200857 0.201264
0.143524 0.143811 0.144775
0.138599 0.137370 0.137511
0.117551 0.117555 0.117512
0.119845 0.119026 0.118290
0.186481 0.186413 0.186174
0.135208 0.135550 0.135483
0.185766 0.185678 0.184748
0.210417 0.206924 0.206949
0.130213 0.130297 0.131776
0.191836 0.191908 0.192230
0.189422 0.191175 0.190915
0.181074 0.181336 0.181878
0.192874 0.193100 0.193750
0.181688 0.181976 0.184606
0.204280 0.204102 0.203604
0.177591 0.177210 0.178123
0.181150 0.180359 0.180940
0.184409 0.185042 0.185132
0.133049 0.132742 0.131924
0.173127 0.172209 0.172095
0.182830 0.181836 0.181442
0.176081 0.176090 0.175331
0.187609 0.184842 0.185654
0.161461 0.160622 0.158826
0.189775 0.192385 0.192772
0.180424 0.182228 0.203034
0.191445 0.190607 0.190505
0.183070 0.190261 0.190731
0.140017 0.139985 0.138617
0.173237 0.173883 0.173465
0.124612 0.124969 0.124792
0.215420 0.217073 0.214465
0.179580 0.179883 0.180324
0.126952 0.127163 0.127611
0.109566 0.110130 0.110377
0.189199 0.189298 0.193973
0.122128 0.122790 0.122422
0.181455 0.182202 0.190125
0.168801 0.169163 0.169293
0.170250 0.171614 0.171189
0.195136 0.194916 0.193832
0.205513 0.206648 0.204248
0.136004 0.135467 0.131791
0.206658 0.205287 0.204732
0.188709 0.189113 0.188413
0.229996 0.229732 0.230105
0.124985 0.124819 0.124817
0.179939 0.181626 0.181415
0.110427 0.108204 0.107253
0.157338 0.157402 0.157200
0.152320 0.151349 0.151989
0.207577 0.208061 0.208918
0.205392 0.204965 0.205391
0.162669 0.164091 0.163670
0.180286 0.181922 0.186523
0.161875 0.162328 0.166158
0.192659 0.193045 0.202906
0.197258 0.198432 0.198610
0.132386 0.134321 0.133567
0.146729 0.148028 0.148328
0.129276 0.129054 0.130033
0.134839 0.135410 0.131452
0.137031 0.137015 0.137572
0.172521 0.172743 0.174640
0.196459 0.195395 0.194308
0.188859 0.195827 0.195664
0.141285 0.140519 0.139455
0.190411 0.192472 0.190691
0.209176 0.209107 0.209708
0.192633 0.200249 0.200778
0.197872 0.197961 0.197684
0.132098 0.132056 0.131779
0.193173 0.193987 0.198187
0.210793 0.213729 0.214523
0.126333 0.125924 0.126103
0.164600 0.165559 0.163851
0.220669 0.221638 0.222052
0.189533 0.194691 0.195051
0.195856 0.195609 0.196234
0.198382 0.198791 0.195839
0.198649 0.199196 0.197702
0.212544 0.211938 0.209301
0.138778 0.138400 0.138144
0.189179 0.189762 0.195624
0.128349 0.128130 0.128116
0.188461 0.183290 0.181732
0.231802 0.232521 0.232795
0.150855 0.150450 0.150903
0.190114 0.193473 0.193633
0.174013 0.173426 0.173374
0.130070 0.130297 0.130642
0.131834 0.131777 0.132001
0.191114 0.192937 0.183863
0.199172 0.198340 0.198239
0.138882 0.138136 0.137144
0.159579 0.159773 0.157908
0.137850 0.136615 0.136813
0.176445 0.177234 0.178093
0.209042 0.209323 0.209769
0.203067 0.205957 0.206425
0.172759 0.175784 0.175267
0.123441 0.123672 0.123777
0.154653 0.154697 0.153238
0.185871 0.183918 0.183744
0.153718 0.154344 0.154770
0.210116 0.210255 0.205081
0.208496 0.208552 0.209577
0.214596 0.214806 0.214292
0.227617 0.227810 0.227764
0.180662 0.180744 0.181192
0.122514 0.123024 0.122306
0.140426 0.140224 0.138061
0.168601 0.168633 0.169958
0.172615 0.172871 0.174055
0.190898 0.190031 0.187702
0.130830 0.134181 0.134196
0.126105 0.124615 0.126993
0.184497 0.185101 0.186891
0.211113 0.213564 0.213254
0.207130 0.207517 0.207353
0.188547 0.188375 0.190724
0.193579 0.194107 0.194498
0.162779 0.163091 0.163798
0.137423 0.137444 0.137190
0.179352 0.181352 0.182089
0.155282 0.155133 0.155118
0.208340 0.207655 0.205890
0.178488 0.180768 0.180667
0.122680 0.124443 0.125958
0.191727 0.191392 0.190835
0.173796 0.173790 0.174187
0.131992 0.130817 0.131207
0.180893 0.181484 0.181303
0.188941 0.188439 0.190876
0.110271 0.110456 0.110137
0.163228 0.164514 0.164841
0.140209 0.140301 0.139883
0.150083 0.150260 0.149268
0.182196 0.181791 0.179013
0.146392 0.145775 0.145358
0.114492 0.113955 0.113625
0.173814 0.173352 0.173434
0.218560 0.215545 0.215969
0.188375 0.190724 0.190083
0.205808 0.204225 0.200385
0.174776 0.176036 0.176663
0.161018 0.160380 0.163312
0.186370 0.190927 0.190201
0.188840 0.188568 0.188418
0.189473 0.189350 0.188593
0.117907 0.119232 0.117647
0.180724 0.180252 0.179786
0.172853 0.172741 0.172876
0.196111 0.195954 0.195776
0.238332 0.237883 0.237542
0.203351 0.202028 0.208142
0.211527 0.202083 0.199813
0.210121 0.209578 0.209575
0.186866 0.187083 0.186954
0.111052 0.111417 0.110779
0.139066 0.138647 0.139023
0.194549 0.196165 0.197515
0.202377 0.202342 0.202551
0.162224 0.161645 0.161423
0.116650 0.116833 0.116682
0.181060 0.181677 0.178521
0.135917 0.136375 0.137211
0.189320 0.179838 0.180427
0.113478 0.113618 0.113574
0.200372 0.200662 0.200325
0.167286 0.166481 0.164022
0.175253 0.174682 0.174456
0.197914 0.195320 0.194337
0.136044 0.135016 0.135814
0.188148 0.189821 0.189735
0.221534 0.220643 0.212980
0.174511 0.174617 0.180742
0.201037 0.202073 0.202667
0.189847 0.190686 0.191467
0.171340 0.171014 0.171043
0.204384 0.204345 0.202323
0.152261 0.155026 0.154836
0.209759 0.209885 0.210408
0.189111 0.188253 0.187916
0.228899 0.227723 0.225437
0.159174 0.159527 0.159099
0.187844 0.186187 0.186003
0.135249 0.134728 0.135378
0.183236 0.182703 0.180974
0.124211 0.123871 0.123685
0.154103 0.154253 0.154369
0.213800 0.214256 0.213719
0.195856 0.198951 0.201103
0.201899 0.203723 0.202130
0.138751 0.138796 0.138896
0.174055 0.175504 0.175595
0.133155 0.132749 0.131691
0.209343 0.209456 0.207540
0.202772 0.200486 0.198510
0.127439 0.129171 0.129320
0.210049 0.209789 0.209665
0.214522 0.214894 0.215375
0.179912 0.180100 0.178751
0.137186 0.139361 0.140097
0.188922 0.189263 0.188922
0.183640 0.186030 0.186289
0.170605 0.170030 0.169090
0.126208 0.125801 0.126248
0.123637 0.122850 0.122746
0.182315 0.189061 0.189974
0.194724 0.195425 0.194268
0.163005 0.165945 0.166541
0.138956 0.137635 0.138151
0.188727 0.191771 0.191842
0.139829 0.140080 0.140239
0.176119 0.177189 0.176175
0.144036 0.144182 0.144323
0.147738 0.147686 0.148239
0.143035 0.143288 0.142640
0.169616 0.169197 0.167857
0.180560 0.182106 0.182144
0.201691 0.203210 0.202928
0.197702 0.190040 0.191662
0.161026 0.161373 0.162062
0.198017 0.194950 0.194387
0.202383 0.201125 0.198705
0.165065 0.164614 0.156655
0.214747 0.215736 0.215732
0.176767 0.175709 0.175299
0.198129 0.200169 0.200804
0.191926 0.191772 0.192489
0.135136 0.135238 0.134419
0.149528 0.150185 0.149568
0.172675 0.174966 0.175081
0.126122 0.126363 0.127587
0.199729 0.199938 0.200148
0.195441 0.200902 0.201744
0.186478 0.187043 0.183264
0.127378 0.127642 0.127227
0.188475 0.188170 0.189647
0.194205 0.194241 0.196294
0.171439 0.171542 0.172959
0.172184 0.172098 0.171866
0.193610 0.191578 0.192650
0.120960 0.121018 0.121348
0.140004 0.139454 0.139873
0.138515 0.139384 0.139175
0.171245 0.171652 0.171990
0.193129 0.191894 0.191508
0.113809 0.114090 0.114814
0.154192 0.154263 0.154688
0.138020 0.140975 0.142564
0.165332 0.169990 0.170438
0.111163 0.111372 0.111142
0.133049 0.133317 0.133270
0.201167 0.202064 0.201657
0.164004 0.165721 0.165709
0.150454 0.150948 0.151961
0.186867 0.186583 0.186758
0.193601 0.191555 0.189586
0.193937 0.193248 0.193846
0.175888 0.175249 0.177647
0.189138 0.189425 0.189693
0.168361 0.168616 0.168398
0.173883 0.173790 0.173581
0.164016 0.164350 0.161875
0.192379 0.191936 0.192129
0.135222 0.135884 0.134933
0.170045 0.169916 0.170548
0.123566 0.124535 0.124836
0.187157 0.182398 0.181474
0.216576 0.216850 0.216695
0.191554 0.191381 0.190723
0.197655 0.199794 0.198305
0.198239 0.190103 0.190579
0.134011 0.134233 0.134073
0.179954 0.179702 0.181307
0.164039 0.163855 0.164099
0.187849 0.186218 0.182362
0.188453 0.187929 0.187966
0.173157 0.176116 0.176183
0.188391 0.188453 0.187929
0.225079 0.225361 0.225623
0.182707 0.182336 0.182300
0.210546 0.210568 0.209627
0.192150 0.192950 0.192250
0.208508 0.208053 0.206480
0.116473 0.116077 0.116791
0.156703 0.157156 0.156842
0.153216 0.153006 0.152680
0.141866 0.138020 0.136360
0.161471 0.162105 0.162725
0.183496 0.183862 0.178330
0.144785 0.145133 0.145240
0.144657 0.145576 0.145861
0.199722 0.199980 0.200858
0.125763 0.126123 0.126095
0.210002 0.209425 0.208991
0.197998 0.197946 0.196914
0.186573 0.186487 0.184366
0.132387 0.133015 0.131290
0.173193 0.173182 0.173224
0.177911 0.177535 0.177378
0.217229 0.216408 0.212227
0.152031 0.152348 0.152289
0.182218 0.182189 0.187551
0.244083 0.243182 0.242684
0.130153 0.129560 0.126109
0.152015 0.152369 0.152662
0.150948 0.151961 0.152031
0.209840 0.209535 0.207732
0.184293 0.185456 0.185540
0.166257 0.166744 0.167849
0.140211 0.138847 0.137965
0.242328 0.242041 0.242941
0.213649 0.213610 0.214622
0.142558 0.142683 0.143181
0.179855 0.178354 0.175773
0.126022 0.126333 0.125924
0.203064 0.202390 0.201929
0.188709 0.186797 0.186316
0.135474 0.135756 0.135328
0.140146 0.140573 0.140236
0.194652 0.195433 0.195328
0.135771 0.134119 0.132906
0.153201 0.153365 0.153265
0.206296 0.207102 0.207062
0.185180 0.184155 0.183638
0.137527 0.135301 0.134780
0.135012 0.135184 0.135355
0.111457 0.111113 0.111997
0.109497 0.110159 0.110397
0.211805 0.212834 0.213322
0.146885 0.147147 0.147107
0.201475 0.204301 0.204396
0.185200 0.185414 0.191484
0.209416 0.209699 0.209582
0.188458 0.189384 0.189582
0.194740 0.195214 0.196058
0.135399 0.136091 0.136187
0.189135 0.188987 0.189170
0.218184 0.217925 0.216223
0.130218 0.130214 0.129774
0.138088 0.139203 0.138347
0.194358 0.194154 0.194298
0.218945 0.218879 0.219233
0.184096 0.182616 0.182910
0.184298 0.189713 0.190369
0.142162 0.145240 0.145787
0.187417 0.187274 0.186934
0.189562 0.193550 0.193108
0.171165 0.171171 0.169857
0.116991 0.116500 0.115967
0.128972 0.128267 0.128627
0.130952 0.130946 0.129864
0.171171 0.169857 0.168588
0.159003 0.161520 0.162815
0.125941 0.125478 0.125804
0.199178 0.200174 0.201256
0.184664 0.184030 0.185346
0.210501 0.210850 0.211937
0.198211 0.197578 0.198391
0.170411 0.171416 0.174454
0.141223 0.141392 0.141861
0.229214 0.229669 0.229815
0.218547 0.217663 0.216560
0.217826 0.220397 0.219223
0.113955 0.113625 0.114003
0.195927 0.196415 0.196487
0.128780 0.128649 0.127486
0.140321 0.140228 0.138502
0.202036 0.197876 0.197222
0.148501 0.149402 0.148375
0.173008 0.172533 0.171545
0.178091 0.180667 0.182090
0.161747 0.162727 0.163732
0.186971 0.186402 0.183953
0.111113 0.111997 0.112495
0.190134 0.191444 0.191180
0.203674 0.203361 0.199640
0.186045 0.186176 0.186537
0.147485 0.147886 0.148429
0.131532 0.131764 0.131498
0.138376 0.138593 0.139339
0.174067 0.181115 0.181434
0.184884 0.182781 0.184502
0.188466 0.188750 0.188509
0.206064 0.205506 0.205142
0.202376 0.202723 0.202440
0.190546 0.190523 0.190388
0.116474 0.116006 0.115509
0.112431 0.112771 0.113084
0.211613 0.210754 0.206578
0.173209 0.172818 0.171766
0.138934 0.138724 0.139039
0.198060 0.197598 0.197553
0.188419 0.187179 0.187020
0.187193 0.188806 0.189020
0.207004 0.205360 0.205391
0.210369 0.207504 0.207579
0.161134 0.161685 0.161989
0.177050 0.177140 0.181331
0.127251 0.127059 0.127261
0.173862 0.173269 0.170094
0.132012 0.132021 0.131554
0.203996 0.200371 0.198679
0.226894 0.226311 0.226577
0.195050 0.196391 0.197299
0.127195 0.127679 0.128557
0.184422 0.182319 0.180673
0.111542 0.111473 0.111701
0.210111 0.210655 0.210575
0.180417 0.179827 0.178539
0.197922 0.198052 0.198930
0.202302 0.202341 0.200848
0.141569 0.141951 0.141673
0.188308 0.188948 0.188426
0.184708 0.185388 0.185772
0.180446 0.179514 0.177763
0.126870 0.127015 0.127082
0.220949 0.221203 0.221570
0.119191 0.119715 0.119340
0.141467 0.141665 0.139906
0.138339 0.139408 0.139403
0.133145 0.133255 0.134063
0.200575 0.199994 0.200879
0.126200 0.126278 0.125706
0.156901 0.156945 0.156736
0.198703 0.199611 0.197995
0.177155 0.175762 0.175723
0.185230 0.183302 0.182151
0.151725 0.151595 0.151783
0.185536 0.185197 0.185038
0.186894 0.187326 0.187229
0.184727 0.184421 0.184491
0.172227 0.171559 0.171323
0.127250 0.126591 0.125619
0.191390 0.188574 0.188364
0.206269 0.206138 0.203681
0.185105 0.185961 0.185973
0.135144 0.135068 0.135611
0.179678 0.180892 0.181718
0.171886 0.171708 0.172198
0.165267 0.166312 0.167395
0.173790 0.174187 0.173616
0.136235 0.136020 0.135985
0.136765 0.137022 0.137226
0.201279 0.200089 0.199625
0.124019 0.123790 0.123705
0.176753 0.181359 0.181276
0.171990 0.173922 0.174126
0.197504 0.197927 0.197146
0.133160 0.132745 0.132422
0.180339 0.180603 0.180428
0.203422 0.196272 0.195943
0.169508 0.168455 0.167986
0.135275 0.134551 0.134448
0.182227 0.181687 0.185749
0.187904 0.189434 0.189777
0.210324 0.210735 0.210553
0.203603 0.202545 0.202149
0.206576 0.206461 0.209400
0.119362 0.120091 0.118609
0.127576 0.126825 0.127332
0.157809 0.158474 0.158671
0.141879 0.142185 0.141841
0.153818 0.156511 0.156411
0.125456 0.126039 0.126755
0.126629 0.125580 0.124258
0.212116 0.212884 0.213121
0.170975 0.175004 0.175107
0.205053 0.204331 0.204675
0.125444 0.125930 0.126230
0.204045 0.206921 0.207467
0.131971 0.132056 0.131689
0.226186 0.225216 0.220544
0.159249 0.160242 0.160372
0.131732 0.131835 0.131895
0.197991 0.198502 0.199005
0.172518 0.172527 0.172851
0.135669 0.135048 0.135223
0.185361 0.181220 0.180959
0.132438 0.133590 0.133695
0.184493 0.184494 0.183641
0.167886 0.166867 0.166703
0.192379 0.192262 0.191557
0.127843 0.128794 0.126367
0.202757 0.202094 0.202009
0.191419 0.190690 0.190477
0.176290 0.178140 0.177738
0.137716 0.137742 0.137477
0.179999 0.174122 0.172921
0.212408 0.212347 0.211540
0.187859 0.203772 0.205071
0.191376 0.191709 0.191979
0.158797 0.159426 0.159662
0.202674 0.197108 0.196861
0.137018 0.137318 0.137294
0.182650 0.184634 0.184956
0.216150 0.215732 0.216150
0.140958 0.141286 0.141470
0.163381 0.162929 0.164524
0.110456 0.110137 0.109727
0.201396 0.199680 0.199110
0.133978 0.132409 0.132214
0.178190 0.177065 0.176384
0.113700 0.111277 0.111064
0.142114 0.142247 0.141400
0.199500 0.199426 0.199162
0.216537 0.217207 0.219436
0.125473 0.125095 0.124716
0.130880 0.130206 0.130179
0.185766 0.184426 0.183359
0.177006 0.179201 0.179211
0.131935 0.131907 0.132087
0.176431 0.176224 0.176003
0.141413 0.141413 0.141879
0.173548 0.173145 0.172481
0.204143 0.203107 0.203026
0.203320 0.202887 0.203129
0.125227 0.125351 0.125828
0.131693 0.133876 0.133783
0.176220 0.175386 0.175667
0.177305 0.176138 0.172074
0.196665 0.197180 0.197994
0.138488 0.138314 0.138157
0.138174 0.139020 0.141430
0.152656 0.152230 0.152502
0.207108 0.206779 0.207141
0.128866 0.129242 0.129729
0.154082 0.154069 0.153839
0.201836 0.202238 0.199360
0.116315 0.115344 0.114968
0.185147 0.185218 0.185619
0.207451 0.207538 0.206646
0.103896 0.103738 0.103238
0.178654 0.176278 0.175242
0.195044 0.197670 0.198683
0.207193 0.207380 0.207031
0.132585 0.132549 0.132552
0.199995 0.199562 0.205903
0.167170 0.166985 0.167014
0.192873 0.189757 0.191543
0.205043 0.205061 0.205999
0.150156 0.149027 0.148373
0.124791 0.124269 0.124154
0.136369 0.136644 0.136205
0.207666 0.208001 0.208020
0.167783 0.172836 0.173078
0.130870 0.130472 0.132214
