0.284412 0.283930 0.283504
0.082946 0.084692 0.092032
0.387543 0.394294 0.394220
0.130868 0.130329 0.131558
0.152208 0.152502 0.153500
0.276927 0.280248 0.281257
0.352015 0.351199 0.349726
0.251204 0.249921 0.250761
0.070353 0.070601 0.070158
0.184496 0.183735 0.176204
0.036352 0.036207 0.036029
0.308436 0.309242 0.313950
0.172201 0.170460 0.169960
0.285996 0.285088 0.284797
0.080769 0.080195 0.079819
0.070612 0.070581 0.070438
0.238421 0.205014 0.200134
0.074217 0.074272 0.072671
0.142057 0.142497 0.141416
0.176389 0.173419 0.172685
0.063856 0.063589 0.063703
0.079025 0.079235 0.079210
0.295625 0.287108 0.282495
0.052192 0.052143 0.051821
0.057178 0.057200 0.057256
0.388722 0.391181 0.391477
0.070288 0.069856 0.069215
0.243575 0.243983 0.246146
0.034824 0.034564 0.034851
0.283994 0.289061 0.290772
0.117232 0.117070 0.116708
0.036654 0.036463 0.036311
0.037093 0.037048 0.036602
0.320723 0.320025 0.320298
0.336868 0.337861 0.340787
0.334821 0.330876 0.330746
0.049823 0.050068 0.050550
0.349290 0.353859 0.361965
0.230784 0.231054 0.231066
0.258477 0.252140 0.242206
0.086221 0.085683 0.085525
0.118195 0.118656 0.118565
0.307428 0.309376 0.308397
0.312694 0.311619 0.308186
0.226002 0.225692 0.227149
0.056276 0.055827 0.055856
0.217332 0.217452 0.217695
0.260378 0.255748 0.250304
0.072584 0.072800 0.073051
0.073486 0.070843 0.068317
0.048367 0.048345 0.048390
0.054434 0.054631 0.054844
0.085755 0.086135 0.086965
0.259592 0.259955 0.260283
0.100438 0.102535 0.106363
0.047750 0.047912 0.048141
0.046594 0.046689 0.046723
0.221078 0.219097 0.216232
0.060429 0.059049 0.058373
0.061637 0.061793 0.062045
0.036245 0.036299 0.036280
0.284448 0.284489 0.283497
0.064617 0.064688 0.064820
0.219886 0.221103 0.219045
0.304914 0.306535 0.306716
0.303584 0.296827 0.291425
0.131631 0.131184 0.131190
0.118717 0.115767 0.115132
0.308954 0.308699 0.308119
0.054361 0.054448 0.054518
0.182104 0.184873 0.189456
0.050832 0.052632 0.053255
0.080804 0.080789 0.080807
0.082566 0.083125 0.082710
0.064707 0.065056 0.065578
0.097781 0.096346 0.093132
0.282636 0.282738 0.282832
0.265413 0.265688 0.265706
0.056944 0.056949 0.056821
0.248473 0.247864 0.247436
0.237256 0.236538 0.235013
0.321489 0.322314 0.319628
0.060943 0.060516 0.059552
0.137667 0.136392 0.135760
0.299220 0.298860 0.298596
0.052559 0.052669 0.053068
0.055886 0.055835 0.055763
0.034819 0.034606 0.034831
0.171029 0.180824 0.185829
0.322020 0.320690 0.314496
0.036234 0.036246 0.036150
0.264132 0.263704 0.261833
0.049400 0.047915 0.048136
0.046689 0.046723 0.047046
0.134155 0.135039 0.135243
0.249826 0.250341 0.254244
0.061202 0.058994 0.055760
0.054200 0.053776 0.054366
0.136316 0.136112 0.137697
0.294119 0.289851 0.288908
0.033444 0.033813 0.033730
0.078421 0.078344 0.078401
0.054692 0.053883 0.052960
0.061543 0.059637 0.050820
0.333900 0.334061 0.333473
0.060220 0.059722 0.059165
0.035407 0.035380 0.035243
0.055027 0.054550 0.056057
0.343401 0.346645 0.351503
0.294801 0.295933 0.294448
0.049173 0.049333 0.049461
0.035556 0.035989 0.036380
0.235688 0.236820 0.238434
0.129061 0.129180 0.125292
0.037876 0.037923 0.037948
0.083815 0.084296 0.084457
0.097671 0.097628 0.097540
0.309360 0.308786 0.313101
0.062650 0.062718 0.062774
0.326965 0.330676 0.334425
0.035042 0.035202 0.035197
0.330605 0.334199 0.336352
0.262105 0.262373 0.262753
0.137519 0.138197 0.138160
0.239179 0.239930 0.241359
0.244352 0.243833 0.245008
0.092025 0.092327 0.094739
0.092801 0.092533 0.093378
0.309249 0.314572 0.315628
0.052156 0.052116 0.051451
0.066655 0.067352 0.067343
0.217562 0.219867 0.221054
0.286791 0.286365 0.286675
0.311456 0.311372 0.312045
0.048345 0.048390 0.048196
0.063306 0.063339 0.063211
0.286770 0.288846 0.289414
0.152872 0.152998 0.152980
0.073095 0.073262 0.073191
0.455488 0.453449 0.452149
0.360914 0.360322 0.360447
0.047499 0.047445 0.047580
0.103626 0.105340 0.106316
0.070089 0.069681 0.069209
0.046750 0.046954 0.047560
0.280300 0.277253 0.278309
0.288782 0.288710 0.288797
0.142850 0.143004 0.142302
0.064104 0.062947 0.062322
0.050290 0.049995 0.049857
0.276486 0.266383 0.259611
0.301627 0.301824 0.301854
0.063691 0.063761 0.065240
0.045606 0.046957 0.047501
0.254710 0.257559 0.254578
0.150069 0.147783 0.147082
0.220127 0.219654 0.222891
0.060791 0.060911 0.060884
0.064053 0.064029 0.064049
0.050174 0.050186 0.050922
0.058155 0.057641 0.058383
0.121346 0.120026 0.119450
0.096962 0.094550 0.092741
0.271845 0.271611 0.270913
0.081810 0.082257 0.082196
0.303330 0.302848 0.302325
0.035448 0.035453 0.035806
0.121812 0.122133 0.121442
0.276516 0.275658 0.275178
0.086349 0.084085 0.082756
0.305706 0.307497 0.303181
0.310039 0.306900 0.303980
0.260965 0.259973 0.264531
0.046457 0.046303 0.046685
0.058660 0.058655 0.058763
0.126853 0.135461 0.142787
0.217843 0.217153 0.216666
0.280763 0.280582 0.280613
0.269000 0.269450 0.272179
0.039937 0.039898 0.040147
0.066906 0.067529 0.067570
0.057912 0.058113 0.057872
0.241564 0.239289 0.238461
0.262631 0.265719 0.266758
0.049027 0.048943 0.048852
0.051741 0.052264 0.052437
0.258284 0.260492 0.263905
0.405273 0.422179 0.416618
0.256297 0.259921 0.262794
0.056869 0.056944 0.056949
0.299107 0.297977 0.297878
0.246163 0.245791 0.244308
0.233358 0.234326 0.235983
0.056613 0.055807 0.055863
0.290873 0.290675 0.291427
0.246408 0.245778 0.246430
0.257871 0.260275 0.260882
0.097732 0.099015 0.099757
0.076121 0.076260 0.076928
0.284805 0.284398 0.284327
0.335602 0.335191 0.333782
0.354278 0.354824 0.354773
0.288865 0.287879 0.284872
0.122382 0.121918 0.120848
0.323091 0.323389 0.323393
0.454404 0.454835 0.453447
0.052085 0.051871 0.051755
0.401279 0.400540 0.399228
0.426927 0.425606 0.425050
0.161709 0.163619 0.163992
0.244755 0.245314 0.243850
0.063379 0.063069 0.063716
0.043312 0.042977 0.043139
0.271336 0.269156 0.258672
0.328840 0.328379 0.326463
0.064790 0.065086 0.065426
0.049935 0.049666 0.049606
0.059694 0.058947 0.058756
0.424588 0.422177 0.421696
0.107883 0.107320 0.106774
0.050727 0.051095 0.050889
0.144700 0.144778 0.145355
0.081962 0.081329 0.080408
0.299407 0.298016 0.297385
0.172811 0.184346 0.214291
0.309962 0.306976 0.305442
0.060151 0.059373 0.058387
0.313768 0.315054 0.312956
0.354167 0.354826 0.354426
0.085812 0.085905 0.086205
0.164660 0.169399 0.178137
0.226678 0.225467 0.222840
0.191746 0.191149 0.190400
0.062825 0.062648 0.063039
0.057345 0.056702 0.056634
0.199077 0.202506 0.203542
0.063428 0.063644 0.062387
0.277755 0.279539 0.279608
0.422232 0.422671 0.422925
0.065303 0.064816 0.064686
0.050503 0.050459 0.050332
0.034770 0.034278 0.034393
0.263419 0.274372 0.276627
0.083027 0.083390 0.083517
0.054631 0.054669 0.057228
0.074483 0.074256 0.074203
0.327279 0.327109 0.326479
0.280810 0.281151 0.281559
0.284016 0.283073 0.283753
0.183272 0.182665 0.183197
0.138723 0.138765 0.138868
0.254470 0.254077 0.253522
0.036713 0.036732 0.036738
0.052489 0.053346 0.053745
0.078831 0.079340 0.081572
0.049073 0.049155 0.048807
0.334878 0.341374 0.342518
0.260341 0.258282 0.246976
0.332604 0.303430 0.298547
0.334782 0.337624 0.337239
0.035663 0.035776 0.035597
0.046559 0.046353 0.046463
0.065335 0.065431 0.065440
0.034621 0.034526 0.034333
0.222840 0.216928 0.216225
0.389193 0.391990 0.392299
0.249807 0.248835 0.245363
0.224521 0.221038 0.219661
0.261161 0.261161 0.263465
0.101150 0.098832 0.098028
0.057228 0.059095 0.058898
0.051296 0.051178 0.052372
0.144165 0.144632 0.145056
0.141523 0.141227 0.141509
0.184122 0.177180 0.177002
0.308052 0.298978 0.298759
0.128729 0.132074 0.131953
0.057284 0.057127 0.056971
0.278893 0.277754 0.277445
0.032214 0.031980 0.032166
0.139932 0.139459 0.141505
0.150594 0.152742 0.153018
0.080938 0.080921 0.080902
0.038876 0.038998 0.038142
0.187211 0.187224 0.184122
0.077674 0.075618 0.075295
0.051928 0.052072 0.052171
0.132397 0.133971 0.136113
0.069850 0.068715 0.069421
0.306460 0.303412 0.302512
0.157332 0.157386 0.156941
0.278001 0.280400 0.277566
0.055370 0.055347 0.055411
0.035697 0.035733 0.035690
0.155078 0.154337 0.154085
0.305275 0.305230 0.304637
0.157383 0.160240 0.160967
0.034242 0.034075 0.034149
0.275713 0.282370 0.282136
0.047749 0.047574 0.047444
0.341741 0.339030 0.337341
0.225768 0.225211 0.226064
0.246575 0.249417 0.250132
0.256327 0.258376 0.260727
0.158997 0.158088 0.156757
0.259434 0.258229 0.256903
0.124926 0.122802 0.121737
0.293018 0.292761 0.294080
0.119671 0.119452 0.119612
0.246173 0.246380 0.248643
0.271411 0.270994 0.270829
0.213975 0.211449 0.206636
0.226176 0.228953 0.230609
0.035438 0.035137 0.035257
0.441871 0.441476 0.438954
0.056555 0.056377 0.056023
0.067343 0.067266 0.066975
0.055621 0.055799 0.056094
0.199288 0.199380 0.199644
0.103881 0.105848 0.105344
0.051984 0.051892 0.051914
0.129232 0.129033 0.129530
0.060615 0.060954 0.060938
0.324473 0.324712 0.324322
0.270723 0.280301 0.281164
0.335812 0.334761 0.333261
0.068146 0.068901 0.068942
0.304680 0.305226 0.304849
0.216599 0.219630 0.223932
0.283394 0.280420 0.278468
0.390734 0.398320 0.403174
0.360382 0.361181 0.362775
0.328356 0.327102 0.325794
0.220996 0.221443 0.221710
0.125849 0.126142 0.126079
0.050046 0.050531 0.051086
0.300938 0.301547 0.301576
0.299236 0.298774 0.295238
0.036194 0.035847 0.035587
0.289823 0.291668 0.291424
0.297036 0.307666 0.316372
0.271150 0.271131 0.270712
0.054005 0.054047 0.054422
0.248491 0.249222 0.249835
0.056707 0.056668 0.056713
0.038905 0.039123 0.039853
0.041557 0.040717 0.040303
0.193128 0.192120 0.190937
0.220815 0.223863 0.223506
0.337024 0.337656 0.343017
0.302433 0.298812 0.295789
0.064150 0.064090 0.064043
0.288175 0.291711 0.292195
0.342831 0.343418 0.340814
0.143042 0.143634 0.143195
0.056515 0.056418 0.056417
0.065133 0.068770 0.068776
0.323614 0.324347 0.323900
0.086627 0.086839 0.086792
0.032772 0.032860 0.032793
0.288733 0.282917 0.278124
0.057892 0.058033 0.058440
0.071380 0.071290 0.071660
0.062757 0.064127 0.063787
0.062912 0.063585 0.064222
0.154103 0.154045 0.153446
0.140809 0.142146 0.142478
0.328687 0.328177 0.328013
0.132650 0.131529 0.131013
0.050879 0.050668 0.050662
0.154036 0.152520 0.152596
0.137587 0.137986 0.138740
0.155967 0.156554 0.157080
0.183258 0.185940 0.187591
0.063847 0.063856 0.063589
0.070482 0.069691 0.069751
0.190573 0.190375 0.188793
0.233503 0.234847 0.235561
0.063981 0.064297 0.064990
0.197125 0.197360 0.197604
0.413653 0.410210 0.407394
0.275688 0.276623 0.276665
0.085189 0.085328 0.085314
0.231635 0.231496 0.230799
0.150867 0.150630 0.150174
0.139074 0.139433 0.140167
0.314368 0.325048 0.325454
0.062696 0.062801 0.063365
0.313092 0.312866 0.311356
0.062776 0.062796 0.062752
0.043151 0.043305 0.043085
0.051650 0.051837 0.052015
0.057376 0.057305 0.057870
0.344912 0.340250 0.338338
0.056336 0.056702 0.056913
0.072184 0.072252 0.073691
0.238762 0.238516 0.238481
0.056054 0.056002 0.055801
0.246916 0.247743 0.247751
0.262820 0.262747 0.262713
0.111942 0.111445 0.111384
0.057582 0.057968 0.057918
0.081749 0.081700 0.081720
0.262231 0.261631 0.260873
0.054429 0.054538 0.054379
0.230855 0.229934 0.226226
0.134858 0.134804 0.135396
0.312768 0.311408 0.310095
0.054996 0.055128 0.054990
0.064161 0.064990 0.070857
0.033676 0.034350 0.034634
0.209568 0.212972 0.213705
0.116697 0.119279 0.119506
0.078609 0.078849 0.080501
0.286878 0.288733 0.292487
0.255759 0.255977 0.261137
0.282674 0.282555 0.281984
0.109667 0.109683 0.109440
0.202487 0.209009 0.212670
0.092226 0.092213 0.092249
0.047220 0.047578 0.049084
0.385162 0.388176 0.388888
0.117893 0.116593 0.116252
0.291159 0.287928 0.288153
0.361109 0.360230 0.360370
0.224636 0.219080 0.210621
0.255539 0.255567 0.254044
0.286776 0.287832 0.292369
0.127377 0.127578 0.127823
0.060408 0.060604 0.060989
0.071249 0.071157 0.071259
0.261720 0.261922 0.263063
0.061028 0.061265 0.061324
0.170637 0.168814 0.163586
0.283958 0.283575 0.284448
0.053330 0.053339 0.053358
0.175802 0.174363 0.173101
0.100048 0.101512 0.102119
0.052897 0.052818 0.052425
0.113142 0.113251 0.113285
0.045242 0.045913 0.049547
0.253533 0.255065 0.251292
0.090170 0.092625 0.096027
0.055450 0.055689 0.055622
0.097219 0.097508 0.098373
0.034780 0.034971 0.034960
0.050922 0.052940 0.053098
0.055079 0.055508 0.055470
0.410463 0.413005 0.415745
0.230652 0.230395 0.231116
0.149023 0.148446 0.149181
0.034960 0.034949 0.034927
0.132754 0.131820 0.130955
0.320014 0.318514 0.316708
0.050534 0.050588 0.050660
0.060833 0.059178 0.058922
0.333148 0.333568 0.334026
0.291024 0.290751 0.290144
0.140905 0.140137 0.140261
0.252433 0.252178 0.252028
0.214229 0.215440 0.218009
0.252081 0.251778 0.251519
0.066280 0.066882 0.066773
0.149896 0.147645 0.143303
0.273079 0.271006 0.272293
0.287449 0.288567 0.287864
0.046142 0.046275 0.046127
0.154639 0.150921 0.150622
0.086592 0.087296 0.089856
0.065631 0.065062 0.064050
0.039360 0.039429 0.039390
0.359513 0.360977 0.367329
0.056724 0.056881 0.057345
0.291897 0.288849 0.289066
0.054818 0.054663 0.054310
0.050245 0.050482 0.051564
0.158397 0.159639 0.159878
0.083413 0.084284 0.084404
0.147783 0.147082 0.147860
0.284843 0.284538 0.284380
0.348726 0.352359 0.355957
0.055823 0.056832 0.057957
0.068216 0.066588 0.066363
0.220903 0.223741 0.223476
0.064046 0.064064 0.064058
0.079170 0.078568 0.078470
0.328285 0.327796 0.325924
0.051460 0.051213 0.051157
0.260880 0.261101 0.261116
0.232210 0.234972 0.236551
0.048902 0.048980 0.049295
0.037796 0.037663 0.037836
0.084614 0.085769 0.085699
0.338253 0.337723 0.336810
0.345455 0.343944 0.343920
0.049050 0.048846 0.048859
0.067905 0.068512 0.068647
0.122957 0.122849 0.122382
0.063351 0.061104 0.062778
0.300695 0.301219 0.301725
0.334636 0.333161 0.333250
0.294434 0.297466 0.296087
0.393754 0.402595 0.405276
0.125773 0.125671 0.125474
0.144891 0.145100 0.144362
0.298720 0.298553 0.292443
0.098500 0.098741 0.098547
0.293997 0.289361 0.288812
0.036796 0.036860 0.039872
0.061433 0.061418 0.060255
0.157998 0.155378 0.153878
0.141510 0.142256 0.138572
0.066102 0.066246 0.066453
0.072939 0.072901 0.076187
0.131061 0.131325 0.131565
0.316834 0.316204 0.315404
0.279098 0.276597 0.274433
0.300713 0.299142 0.306708
0.150080 0.149511 0.149913
0.320376 0.312605 0.309381
0.349013 0.347917 0.347048
0.105234 0.105438 0.105330
0.071015 0.071093 0.071896
0.055818 0.055815 0.055278
0.422697 0.420689 0.418986
0.055324 0.055034 0.054752
0.033977 0.034101 0.034262
0.159305 0.159500 0.159276
0.054550 0.056057 0.056626
0.240819 0.238678 0.235907
0.338561 0.341259 0.341035
0.083827 0.083561 0.083732
0.061400 0.060829 0.061089
0.163669 0.162207 0.161815
0.036534 0.036343 0.036220
0.302396 0.296679 0.274593
0.092514 0.091207 0.090034
0.252334 0.250145 0.247312
0.346124 0.347588 0.353160
0.057196 0.057209 0.057265
0.068078 0.067952 0.067820
0.153539 0.153518 0.153957
0.342581 0.344901 0.348687
0.059958 0.060595 0.061196
0.269640 0.277786 0.279481
0.138643 0.137835 0.137114
0.054696 0.055061 0.054984
0.306817 0.305660 0.305505
0.154916 0.154252 0.153712
0.037857 0.038248 0.038241
0.074398 0.074710 0.075476
0.426002 0.425220 0.424718
0.157809 0.153090 0.152298
0.144806 0.145465 0.146641
0.043008 0.043094 0.043240
0.255101 0.258400 0.259359
0.456479 0.453902 0.454485
0.348154 0.348747 0.351493
0.150896 0.154275 0.153689
0.152078 0.151020 0.150755
0.294415 0.294507 0.297003
0.290557 0.292112 0.294493
0.075779 0.075871 0.076131
0.034659 0.034728 0.034918
0.286027 0.285219 0.284766
0.085643 0.085282 0.084231
0.067330 0.067277 0.067169
0.080840 0.080914 0.081277
0.061122 0.061237 0.060463
0.058772 0.058541 0.057776
0.272667 0.266515 0.265434
0.234226 0.234462 0.239597
0.156650 0.155669 0.154365
0.392385 0.402310 0.402681
0.247097 0.250027 0.251343
0.145564 0.146526 0.147059
0.125775 0.127659 0.127733
0.068349 0.068565 0.068545
0.155044 0.154549 0.154094
0.033243 0.033434 0.033406
0.301844 0.301036 0.299332
0.156168 0.154639 0.150921
0.046130 0.046295 0.046243
0.355495 0.353136 0.349083
0.078649 0.078928 0.080359
0.256030 0.258191 0.263002
0.088593 0.088484 0.088639
0.159331 0.158507 0.159233
0.050520 0.050545 0.050536
0.283669 0.283456 0.284295
0.126454 0.126765 0.126810
0.092684 0.092576 0.092549
0.347299 0.344842 0.344136
0.048380 0.048377 0.048430
0.312416 0.312821 0.312804
0.035845 0.035454 0.035428
0.249725 0.256694 0.268270
0.038241 0.038052 0.038116
0.057162 0.056919 0.056959
0.218916 0.222019 0.222572
0.248436 0.251799 0.251833
0.060931 0.060912 0.061040
0.239140 0.240029 0.241091
0.305484 0.318045 0.318307
0.351995 0.350836 0.349143
0.337454 0.335277 0.334878
0.100347 0.099716 0.099419
0.131197 0.131130 0.130662
0.053797 0.053303 0.052854
0.298757 0.299268 0.295296
0.068183 0.067558 0.067309
0.272963 0.273582 0.274130
0.133960 0.133294 0.133082
0.128679 0.131615 0.131956
0.091567 0.091501 0.090224
0.268110 0.265972 0.264973
0.058421 0.059492 0.059829
0.342223 0.343780 0.346618
0.057772 0.057629 0.057765
0.137899 0.137594 0.132327
0.287832 0.292369 0.293411
0.066616 0.066626 0.066406
0.239359 0.240503 0.243446
0.257963 0.262914 0.263748
0.034843 0.034804 0.034877
0.270227 0.269573 0.269032
0.198152 0.197607 0.196370
0.063857 0.063672 0.064467
0.137252 0.140899 0.141390
0.341678 0.341700 0.335979
0.057111 0.057109 0.057997
0.078153 0.078012 0.078478
0.082712 0.082877 0.082740
0.325512 0.325183 0.323044
0.152306 0.146340 0.146523
0.136258 0.142283 0.143306
0.149484 0.151044 0.153286
0.052583 0.052606 0.052522
0.106061 0.106045 0.105029
0.355880 0.350806 0.350362
0.292056 0.294237 0.296603
0.270134 0.269385 0.268661
0.250924 0.245353 0.243976
0.280203 0.286770 0.288846
0.068566 0.068643 0.068216
0.159424 0.159661 0.159742
0.288868 0.285507 0.285420
0.146951 0.146503 0.146441
0.152065 0.161078 0.163255
0.083793 0.083805 0.083610
0.089297 0.089195 0.089399
0.319289 0.312361 0.310235
0.242700 0.241986 0.238268
0.184780 0.184756 0.182638
0.046372 0.046259 0.046393
0.140895 0.144405 0.146019
0.087219 0.089764 0.089375
0.057438 0.057482 0.057482
0.106145 0.106114 0.106210
0.057423 0.056643 0.056608
0.051686 0.051722 0.052261
0.034532 0.034526 0.034252
0.195801 0.198098 0.201357
0.155709 0.154934 0.154966
0.325386 0.323934 0.321658
0.052354 0.052115 0.049580
0.167531 0.163539 0.163417
0.247137 0.246723 0.246566
0.049946 0.050071 0.049067
0.143876 0.144910 0.146538
0.143129 0.142670 0.138192
0.406688 0.408449 0.410988
0.213267 0.219242 0.220169
0.154617 0.156575 0.155348
0.313522 0.317118 0.317354
0.098116 0.094883 0.094661
0.404474 0.401324 0.407646
0.128565 0.129492 0.129311
0.330463 0.334393 0.336110
0.122295 0.121599 0.121334
0.065988 0.065799 0.065598
0.309856 0.308755 0.308865
0.035281 0.035239 0.035244
0.287309 0.293626 0.293911
0.076818 0.076862 0.077975
0.288748 0.288770 0.288720
0.332872 0.333233 0.332218
0.093929 0.093387 0.093402
0.040751 0.040712 0.040697
0.295130 0.294135 0.293349
0.350662 0.350675 0.349534
0.255415 0.260458 0.261835
0.090698 0.090947 0.091078
0.243466 0.241385 0.239798
0.077610 0.078182 0.079019
0.049470 0.047217 0.046341
0.082755 0.081571 0.081556
0.411131 0.414320 0.419757
0.343494 0.345409 0.344327
0.055227 0.055880 0.055935
0.285233 0.285056 0.285759
0.082661 0.083579 0.083168
0.143141 0.142011 0.141181
0.132271 0.132337 0.132733
0.287916 0.288836 0.288694
0.170999 0.171168 0.172007
0.345848 0.345249 0.340878
0.083320 0.083848 0.084282
0.303678 0.305001 0.305355
0.293135 0.293685 0.303854
0.096874 0.094308 0.093097
0.067981 0.069439 0.070448
0.261451 0.261720 0.261922
0.288794 0.288682 0.288876
0.078392 0.078649 0.078928
0.050378 0.050280 0.050269
0.147168 0.142194 0.118329
0.065061 0.064825 0.064690
0.033990 0.033961 0.033413
0.251475 0.251209 0.250493
0.352900 0.353279 0.354355
0.175587 0.175274 0.174287
0.329824 0.329923 0.331274
0.198422 0.198712 0.198746
0.113127 0.111215 0.110724
0.265122 0.264711 0.259267
0.152488 0.152601 0.153180
0.304031 0.302764 0.305065
0.334385 0.337253 0.341940
0.152145 0.152517 0.152352
0.103039 0.102981 0.099706
0.428693 0.428097 0.427420
0.056267 0.056635 0.056622
0.210291 0.210916 0.217692
0.053349 0.052543 0.052156
0.341023 0.340053 0.336805
0.169718 0.169708 0.168651
0.253498 0.255844 0.256178
0.081490 0.081944 0.082400
0.052326 0.052349 0.052478
0.077807 0.076617 0.076324
0.282704 0.278263 0.275373
0.424823 0.425832 0.432507
0.279728 0.279436 0.280799
0.064578 0.063907 0.063837
0.138200 0.137968 0.139030
0.301070 0.298425 0.294264
0.251171 0.250443 0.249186
0.101820 0.100329 0.099320
0.034451 0.034717 0.034701
0.410761 0.413996 0.415303
0.088597 0.092385 0.094971
0.275243 0.275115 0.275758
0.033266 0.033204 0.033399
0.401493 0.419213 0.415830
0.047841 0.047805 0.047959
0.116599 0.117893 0.118831
0.266038 0.278833 0.281563
0.325258 0.326283 0.327504
0.305409 0.304914 0.304561
0.252596 0.256856 0.260798
0.081330 0.082188 0.082811
0.191696 0.191665 0.191347
0.125603 0.098967 0.093754
0.089874 0.091771 0.092883
0.054409 0.054633 0.054592
0.034987 0.035583 0.035734
0.330876 0.320247 0.310660
0.061985 0.062133 0.062045
0.051637 0.051568 0.050522
0.035061 0.034995 0.034744
0.410276 0.410429 0.412029
0.251939 0.250686 0.248845
0.357398 0.354803 0.355436
0.097023 0.095573 0.093323
0.137027 0.136971 0.137316
0.065323 0.065316 0.065584
0.045028 0.046186 0.046208
0.301711 0.301496 0.303284
0.293051 0.292789 0.293292
0.064042 0.064798 0.066704
0.199452 0.196993 0.197123
0.356402 0.356904 0.356857
0.246133 0.249794 0.250846
0.261552 0.259131 0.255773
0.103387 0.107006 0.107412
0.304096 0.303657 0.302519
0.036754 0.036970 0.037158
0.068032 0.068382 0.068490
0.294844 0.295840 0.294876
0.036707 0.036656 0.036770
0.101010 0.100857 0.100833
0.108319 0.109108 0.105231
0.280667 0.283149 0.283568
0.335461 0.335609 0.336780
0.054821 0.055114 0.056307
0.056535 0.056284 0.056300
0.057137 0.056515 0.056418
0.033953 0.034361 0.034899
0.105745 0.105022 0.103748
0.081910 0.081821 0.081709
0.310617 0.302192 0.306190
0.252798 0.253074 0.254062
0.064289 0.064595 0.065457
0.033294 0.032972 0.033055
0.092167 0.092041 0.091998
0.287293 0.291226 0.292264
0.093177 0.092340 0.091788
0.258318 0.255001 0.261893
0.159851 0.158764 0.158434
0.202709 0.203123 0.202752
0.391683 0.391990 0.393970
0.085947 0.086600 0.086944
0.078053 0.079398 0.080508
0.120426 0.123246 0.123986
0.077306 0.080088 0.080849
0.133148 0.134420 0.134442
0.122851 0.122208 0.121726
0.238134 0.238788 0.243019
0.047574 0.047444 0.045241
0.126280 0.127579 0.127963
0.225488 0.222152 0.217128
0.086507 0.085927 0.082711
0.290938 0.304073 0.304226
0.139599 0.137801 0.136977
0.244946 0.248442 0.248902
0.291815 0.298043 0.298720
0.265550 0.265045 0.264227
0.295789 0.294626 0.283944
0.058928 0.058851 0.058823
0.064632 0.065374 0.065319
0.180824 0.185829 0.187312
0.220174 0.220985 0.220272
0.086090 0.086140 0.086232
0.304434 0.310977 0.313186
0.110982 0.108981 0.108981
0.288482 0.283563 0.282834
0.241661 0.235599 0.236313
0.060911 0.060884 0.060729
0.205748 0.203881 0.202921
0.281472 0.279280 0.277316
0.266142 0.260861 0.257507
0.219780 0.219645 0.219893
0.225932 0.224999 0.224529
0.391993 0.392645 0.392417
0.247897 0.248799 0.248207
0.053338 0.052833 0.053271
0.217202 0.217256 0.217433
0.035516 0.035941 0.035896
0.108843 0.108747 0.109289
0.328081 0.327148 0.326889
0.082770 0.082782 0.082704
0.048531 0.050124 0.050582
0.056732 0.055627 0.054364
0.070998 0.070937 0.071108
0.048886 0.048936 0.049178
0.355012 0.353948 0.354682
0.074681 0.072557 0.071415
0.178037 0.176233 0.173099
0.220118 0.219004 0.218647
0.069544 0.069176 0.068651
0.222120 0.222127 0.222867
0.061117 0.060425 0.059869
0.152017 0.154649 0.157714
0.182361 0.154502 0.151792
0.339630 0.340360 0.343146
0.359161 0.359592 0.357932
0.095864 0.095854 0.095286
0.273079 0.272670 0.270267
0.054548 0.054561 0.053676
0.056874 0.056795 0.056889
0.052813 0.053280 0.053301
0.276270 0.276288 0.273579
0.213832 0.213699 0.215585
0.099421 0.099447 0.095268
0.059062 0.059228 0.059308
0.213218 0.214408 0.216887
0.224970 0.219872 0.217103
0.428373 0.427229 0.429522
0.156731 0.154609 0.155086
0.321323 0.321669 0.325845
0.035886 0.036023 0.035888
0.380511 0.375559 0.362808
0.077945 0.078166 0.078392
0.056921 0.057106 0.057265
0.269296 0.269296 0.268689
0.410289 0.410744 0.413762
0.048354 0.048329 0.048285
0.060974 0.058893 0.058526
0.079647 0.080490 0.081262
0.150210 0.149183 0.148313
0.058333 0.057641 0.058015
0.061436 0.060958 0.061873
0.038980 0.038849 0.036309
0.276676 0.275355 0.275499
0.078089 0.078178 0.079243
0.043323 0.043805 0.046119
0.243734 0.243558 0.244144
0.060013 0.060379 0.061280
0.109562 0.110553 0.110886
0.048325 0.048355 0.048317
0.257391 0.262804 0.263672
0.049111 0.050020 0.050490
0.174626 0.193184 0.196475
0.139257 0.139434 0.135515
0.104842 0.105499 0.106677
0.087921 0.088611 0.088402
0.035587 0.035571 0.035448
0.233983 0.235427 0.238026
0.291367 0.294053 0.298343
0.108529 0.109060 0.110175
0.321791 0.321822 0.321856
0.260494 0.260876 0.260923
0.273846 0.277621 0.272237
0.093229 0.093928 0.094253
0.337012 0.336109 0.337008
0.040439 0.040918 0.040915
0.050559 0.050542 0.050191
0.152601 0.153180 0.152940
0.127702 0.127961 0.128067
0.138792 0.138583 0.138496
0.334266 0.335064 0.336330
0.050012 0.050090 0.050043
0.137721 0.137505 0.138026
0.285827 0.287192 0.288725
0.264877 0.265164 0.266291
0.126094 0.126757 0.126643
0.070193 0.070789 0.071143
0.316579 0.317857 0.318273
0.328611 0.327849 0.329043
0.057404 0.057346 0.057121
0.103936 0.104134 0.104136
0.249043 0.249099 0.249502
0.075336 0.075033 0.074205
0.075078 0.074162 0.073856
0.339805 0.333612 0.334157
0.074376 0.073868 0.070355
0.106310 0.106312 0.106528
0.340948 0.341263 0.342800
0.069788 0.069159 0.066918
0.333100 0.333526 0.333899
0.215397 0.216640 0.217291
0.065191 0.065783 0.065233
0.458482 0.463094 0.464881
0.243295 0.242969 0.241050
0.106503 0.106170 0.105679
0.291880 0.288188 0.286364
0.187136 0.186519 0.186408
0.076325 0.078969 0.079429
0.131911 0.132172 0.132695
0.259998 0.259703 0.258301
0.346999 0.345233 0.342103
0.070471 0.071529 0.073391
0.057411 0.057501 0.057379
0.334773 0.339291 0.341156
0.076254 0.076069 0.075735
0.296895 0.299305 0.299822
0.064811 0.067078 0.067594
0.043117 0.043850 0.044604
0.055487 0.055448 0.055487
0.217072 0.218171 0.218896
0.250370 0.241309 0.226976
0.152787 0.153645 0.153872
0.085364 0.084964 0.084316
0.070123 0.070170 0.070420
0.048600 0.048487 0.049185
0.083095 0.082998 0.083086
0.050849 0.050933 0.050880
0.074841 0.075289 0.076505
0.158283 0.156245 0.154340
0.077972 0.077841 0.076854
0.284483 0.285216 0.292543
0.052070 0.051719 0.052659
0.303796 0.304215 0.299540
0.120307 0.122905 0.123770
0.055164 0.055108 0.055076
0.080958 0.081514 0.081524
0.039104 0.039039 0.039257
0.250258 0.250336 0.251259
0.076133 0.076057 0.076431
0.249991 0.253626 0.253750
0.064820 0.065090 0.066280
0.302467 0.302274 0.301573
0.263502 0.264255 0.263810
0.049351 0.051503 0.051471
0.284797 0.284466 0.282664
0.307184 0.308860 0.313436
0.329164 0.328509 0.328724
0.124256 0.125305 0.125825
0.114055 0.114025 0.113905
0.112843 0.112648 0.113184
0.055515 0.056434 0.057006
0.117012 0.117321 0.121025
0.238946 0.239671 0.240943
0.053512 0.053504 0.054454
0.090517 0.089627 0.089488
0.087332 0.089130 0.089681
0.099415 0.100048 0.101512
0.323934 0.321658 0.320313
0.284157 0.284139 0.283640
