0.084589 0.083685 0.082444
0.043291 0.043289 0.043604
0.050386 0.051399 0.052233
0.068856 0.069023 0.071468
0.048137 0.048848 0.048970
0.053583 0.053710 0.053577
0.064184 0.066944 0.064736
0.036406 0.036666 0.036717
0.082325 0.082661 0.082637
0.077078 0.076739 0.076215
0.064173 0.064247 0.064207
0.044185 0.044335 0.044209
0.033143 0.033444 0.033590
0.062294 0.061591 0.062700
0.070874 0.071224 0.071300
0.049028 0.049019 0.049117
0.047382 0.047499 0.047554
0.075300 0.075209 0.075258
0.039215 0.039202 0.039257
0.042714 0.042311 0.042203
0.082677 0.082866 0.083638
0.037889 0.037801 0.038203
0.105272 0.105493 0.105834
0.072999 0.073226 0.074053
0.054197 0.054345 0.054062
0.041652 0.041434 0.041441
0.055677 0.055391 0.055471
0.091058 0.091056 0.090453
0.068545 0.067286 0.068336
0.040026 0.039548 0.039626
0.056536 0.056634 0.056465
0.034107 0.034350 0.033995
0.055387 0.055395 0.056156
0.068098 0.068541 0.068537
0.038873 0.038732 0.038513
0.093400 0.093361 0.093401
0.035189 0.035568 0.035333
0.044730 0.045404 0.045754
0.038732 0.038515 0.038017
0.034782 0.034849 0.034395
0.052987 0.052859 0.053350
0.074012 0.072852 0.074403
0.040200 0.040298 0.040138
0.036627 0.035952 0.035897
0.037343 0.037400 0.037566
0.047172 0.047334 0.047348
0.142952 0.143687 0.144181
0.050089 0.050137 0.050217
0.051551 0.051965 0.052086
0.072994 0.070845 0.070454
0.081865 0.081591 0.081522
0.057164 0.057162 0.057229
0.122091 0.121970 0.121774
0.036634 0.036584 0.035957
0.034977 0.034980 0.035044
0.047738 0.047556 0.047372
0.035651 0.035863 0.036019
0.039460 0.039430 0.039565
0.054244 0.054552 0.057569
0.071030 0.071100 0.070748
0.052328 0.054069 0.057348
0.037447 0.037431 0.037333
0.055217 0.055192 0.054612
0.053781 0.053562 0.053223
0.110562 0.110169 0.109070
0.054531 0.054641 0.054681
0.040270 0.040098 0.040279
0.063619 0.063707 0.064522
0.047624 0.047648 0.047582
0.059999 0.059942 0.059893
0.060347 0.060440 0.060649
0.036798 0.037004 0.037008
0.042753 0.042495 0.042500
0.038290 0.037557 0.037468
0.070133 0.070046 0.069541
0.063795 0.064050 0.064094
0.067405 0.067399 0.067584
0.078068 0.077284 0.076733
0.067712 0.067882 0.068079
0.035822 0.035772 0.036101
0.036433 0.036420 0.036310
0.054865 0.054738 0.054577
0.087085 0.088067 0.089139
0.051371 0.051251 0.051219
0.040285 0.040206 0.040504
0.034880 0.034658 0.034613
0.052398 0.052340 0.052292
0.051076 0.051130 0.050913
0.050002 0.049694 0.049638
0.055737 0.055822 0.055835
0.033647 0.033699 0.033777
0.034871 0.034934 0.035063
0.034589 0.034614 0.034407
0.056339 0.055337 0.054455
0.049341 0.047560 0.047672
0.032351 0.032264 0.032061
0.103773 0.103489 0.103290
0.048761 0.048913 0.048837
0.050085 0.050207 0.050167
0.051783 0.051863 0.051836
0.037069 0.037144 0.037085
0.280018 0.279842 0.279089
0.167498 0.167067 0.166620
0.065977 0.065248 0.065256
0.096063 0.095969 0.096167
0.145613 0.146330 0.146137
0.036748 0.036969 0.037078
0.053803 0.051682 0.049026
0.090194 0.090140 0.090052
0.073553 0.073492 0.074534
0.042635 0.042795 0.042864
0.105971 0.106926 0.109021
0.134749 0.135082 0.136155
0.045958 0.046919 0.047429
0.034744 0.034890 0.034912
0.040094 0.039987 0.040072
0.076043 0.075898 0.075942
0.069957 0.069835 0.069833
0.044217 0.044007 0.043915
0.043214 0.043533 0.045799
0.106021 0.105876 0.106131
0.034607 0.034564 0.034500
0.035706 0.035791 0.035756
0.050124 0.051128 0.050924
0.082355 0.082399 0.082837
0.035230 0.035279 0.035220
0.040959 0.040928 0.040957
0.052157 0.052233 0.052262
0.038536 0.038371 0.038847
0.039022 0.039185 0.039220
0.033854 0.033862 0.033880
0.065832 0.065923 0.066052
0.121970 0.119356 0.119177
0.048004 0.048078 0.047862
0.034909 0.035283 0.035377
0.037721 0.037778 0.037851
0.037037 0.037028 0.036989
0.054074 0.053236 0.051174
0.036288 0.036270 0.036385
0.045655 0.045591 0.045835
0.057655 0.055972 0.055936
0.050130 0.049816 0.048680
0.080620 0.080568 0.080537
0.066209 0.065071 0.064550
0.043840 0.043747 0.043741
0.039247 0.039257 0.039258
0.056618 0.057248 0.057855
0.050181 0.050108 0.049916
0.039318 0.038774 0.039316
0.076400 0.075965 0.075905
0.044493 0.044356 0.044201
0.039864 0.039906 0.040099
0.070691 0.071514 0.072190
0.038778 0.038878 0.038427
0.039152 0.039266 0.039312
0.051274 0.051408 0.051541
0.044519 0.044735 0.044750
0.041432 0.041629 0.041772
0.036738 0.036821 0.036720
0.057940 0.057878 0.057959
0.084522 0.083910 0.076713
0.035864 0.035938 0.035860
0.056775 0.057258 0.056733
0.059906 0.060510 0.060322
0.037210 0.037085 0.037248
0.121666 0.122410 0.122688
0.059490 0.059546 0.059482
0.132735 0.133837 0.134604
0.036118 0.035858 0.035928
0.082598 0.080970 0.081363
0.053204 0.053079 0.053057
0.043297 0.043342 0.043181
0.056481 0.055776 0.055181
0.115999 0.115107 0.111829
0.039007 0.039287 0.039209
0.036230 0.036080 0.035933
0.069807 0.069787 0.067620
0.033374 0.033465 0.033495
0.043897 0.043968 0.044251
0.074202 0.074174 0.071456
0.060222 0.060311 0.060364
0.051130 0.051064 0.051151
0.072237 0.071415 0.070709
0.042209 0.041903 0.041374
0.071071 0.072589 0.073283
0.042544 0.042389 0.042319
0.069178 0.069174 0.070002
0.182074 0.181098 0.179641
0.035604 0.035745 0.036436
0.037087 0.037081 0.037364
0.052975 0.053106 0.053064
0.037133 0.037223 0.037194
0.035761 0.035673 0.035871
0.048318 0.048330 0.048419
0.214454 0.212707 0.213041
0.036107 0.035894 0.036054
0.037176 0.037326 0.037345
0.057533 0.057488 0.057217
0.036231 0.036339 0.036066
0.066474 0.066404 0.065761
0.169769 0.168640 0.168855
0.053723 0.053989 0.054002
0.050243 0.050321 0.050590
0.047986 0.048026 0.048302
0.046860 0.047893 0.048003
0.057936 0.057593 0.055847
0.039971 0.040162 0.040335
0.073745 0.073404 0.073454
0.053206 0.053186 0.054134
0.047334 0.047348 0.047319
0.061097 0.061301 0.061711
0.036626 0.036200 0.035892
0.035225 0.035232 0.035114
0.055157 0.056049 0.057292
0.043317 0.043222 0.041900
0.040499 0.040066 0.040188
0.056344 0.057027 0.057544
0.036739 0.036751 0.036819
0.043367 0.044320 0.045585
0.045856 0.045723 0.045290
0.159353 0.159133 0.157360
0.064094 0.061229 0.062224
0.036614 0.036666 0.036788
0.037715 0.037780 0.038054
0.075801 0.077342 0.078683
0.039562 0.039402 0.039465
0.080164 0.080016 0.077175
0.045601 0.045346 0.045388
0.034918 0.034671 0.034840
0.058820 0.058427 0.058243
0.058169 0.058891 0.059095
0.051891 0.051756 0.051824
0.065212 0.064916 0.063985
0.048239 0.050250 0.052153
0.051361 0.051285 0.051274
0.063032 0.063032 0.063128
0.038970 0.041155 0.041723
0.036396 0.036295 0.036313
0.045124 0.045312 0.045004
0.055972 0.055936 0.055872
0.198671 0.206641 0.208915
0.038581 0.038572 0.038674
0.043853 0.043220 0.042582
0.070587 0.070511 0.070529
0.109802 0.107398 0.106893
0.040729 0.040125 0.040066
0.102253 0.104611 0.106177
0.080676 0.078801 0.077844
0.076044 0.077216 0.077845
0.068211 0.067895 0.065527
0.036295 0.036224 0.035580
0.040595 0.041046 0.040942
0.131752 0.132099 0.132725
0.069861 0.069773 0.070356
0.033520 0.033603 0.033859
0.093961 0.093944 0.094843
0.045764 0.045553 0.045321
0.062845 0.063632 0.064225
0.054955 0.054865 0.054840
0.061366 0.061384 0.061121
0.076472 0.076348 0.077757
0.036285 0.036379 0.036290
0.074292 0.073852 0.073414
0.039553 0.039444 0.039640
0.036116 0.035884 0.036075
0.042464 0.042143 0.042273
0.042801 0.042656 0.042803
0.047517 0.047617 0.047881
0.040967 0.041060 0.041196
0.090384 0.091446 0.090376
0.052644 0.053312 0.052167
0.034385 0.034298 0.035097
0.075075 0.075118 0.074512
0.071455 0.071381 0.071151
0.050249 0.050209 0.050254
0.032215 0.032250 0.032117
0.033596 0.033484 0.033574
0.054177 0.054514 0.054684
0.070233 0.070227 0.070493
0.055854 0.055894 0.055893
0.035147 0.034938 0.034725
0.035459 0.035404 0.035230
0.121954 0.122017 0.122091
0.033827 0.033540 0.033760
0.134839 0.130092 0.129195
0.055805 0.055330 0.054502
0.053499 0.053520 0.053669
0.036073 0.035984 0.036178
0.036690 0.036687 0.036574
0.060468 0.060539 0.060534
0.049300 0.050624 0.054137
0.036433 0.036394 0.036616
0.039090 0.039167 0.039376
0.062070 0.062170 0.062201
0.047559 0.047646 0.047424
0.054376 0.054379 0.054385
0.045904 0.045878 0.045863
0.076099 0.075099 0.073745
0.069617 0.069029 0.068981
0.074033 0.073970 0.074018
0.061762 0.061758 0.061621
0.051532 0.051238 0.051359
0.069978 0.070065 0.070000
0.041990 0.042121 0.042055
0.070124 0.070790 0.070567
0.038149 0.038188 0.038436
0.361882 0.358381 0.349489
0.034248 0.034244 0.034254
0.107704 0.105740 0.104562
0.050371 0.050555 0.050684
0.034114 0.034128 0.034214
0.037909 0.037835 0.037376
0.053059 0.053080 0.053091
0.041878 0.041885 0.042114
0.043855 0.043857 0.043910
0.048886 0.049241 0.050700
0.035429 0.035005 0.034990
0.045445 0.045303 0.045105
0.143085 0.142952 0.143687
0.038960 0.039136 0.039125
0.053286 0.053353 0.053320
0.056085 0.056032 0.055869
0.039531 0.039261 0.037309
0.074335 0.074487 0.074988
0.068031 0.068487 0.068100
0.067386 0.067607 0.067582
0.036084 0.036236 0.036370
0.140197 0.140689 0.141396
0.048899 0.049108 0.049459
0.038736 0.038773 0.038806
0.043932 0.043944 0.043525
0.128591 0.128478 0.128197
0.103649 0.104788 0.105135
0.144241 0.141755 0.141085
0.046604 0.046488 0.047155
0.055358 0.054932 0.054841
0.056071 0.056038 0.055779
0.056781 0.056207 0.055801
0.059582 0.059508 0.059528
0.057256 0.057380 0.056784
0.052879 0.051743 0.051198
0.040367 0.040060 0.040117
0.039621 0.039519 0.039532
0.037859 0.037751 0.037744
0.036115 0.036551 0.036765
0.059656 0.060231 0.060230
0.054026 0.053629 0.053600
0.072209 0.070296 0.064346
0.210574 0.210775 0.211742
0.058386 0.058264 0.058236
0.043258 0.043637 0.044244
0.034968 0.034391 0.034671
0.053012 0.052955 0.052996
0.051515 0.048363 0.047557
0.048609 0.048597 0.048767
0.037901 0.037797 0.037727
0.036322 0.036643 0.036841
0.047123 0.047251 0.047226
0.050037 0.050590 0.050662
0.060251 0.059517 0.058789
0.057029 0.058867 0.059024
0.058075 0.057977 0.057958
0.057329 0.057365 0.057481
0.054428 0.054340 0.053896
0.092675 0.092444 0.091272
0.044718 0.044176 0.044306
0.056300 0.056498 0.056501
0.034799 0.035208 0.035676
0.058062 0.057719 0.057928
0.067482 0.068068 0.068353
0.045643 0.045457 0.045205
0.034356 0.034371 0.034463
0.072680 0.073267 0.073356
0.038266 0.038346 0.038378
0.059806 0.059835 0.059804
0.039522 0.039758 0.040174
0.052970 0.053155 0.053429
0.117477 0.117367 0.116529
0.036828 0.036629 0.036731
0.034584 0.034361 0.034141
0.048883 0.049707 0.050027
0.103224 0.101558 0.098337
0.060400 0.060530 0.060712
0.058074 0.056470 0.056526
0.034448 0.034525 0.034466
0.050802 0.051145 0.051162
0.044166 0.044257 0.043930
0.059422 0.059421 0.059460
0.036661 0.036666 0.036693
0.128261 0.128058 0.130241
0.045653 0.045622 0.046763
0.059442 0.059469 0.059629
0.090240 0.090495 0.092085
0.041967 0.042122 0.042073
0.042005 0.041853 0.042096
0.057960 0.058077 0.057979
0.051409 0.051155 0.051273
0.044019 0.043884 0.043697
0.047298 0.047252 0.047418
0.048810 0.051644 0.052826
0.119250 0.119819 0.119284
0.075976 0.075944 0.075722
0.053663 0.053797 0.053769
0.072161 0.072191 0.072093
0.037931 0.037868 0.037824
0.050227 0.050399 0.050539
0.048434 0.049133 0.049296
0.041288 0.041008 0.040966
0.038872 0.038558 0.038472
0.040517 0.040484 0.040169
0.035587 0.035434 0.035425
0.047760 0.047875 0.047978
0.067190 0.066787 0.068723
0.079193 0.079386 0.079444
0.036526 0.036472 0.036560
0.177798 0.176501 0.167131
0.078024 0.078098 0.077696
0.048757 0.048965 0.048935
0.071416 0.071455 0.071388
0.132102 0.132587 0.132809
0.127163 0.127581 0.126613
0.055513 0.055277 0.055288
0.047434 0.047459 0.047424
0.035135 0.035032 0.034790
0.046399 0.045637 0.045513
0.037805 0.037338 0.037669
0.316950 0.317754 0.317806
0.051274 0.051144 0.051197
0.058215 0.058572 0.058619
0.064741 0.064150 0.063984
0.091000 0.090754 0.090417
0.035315 0.035303 0.035440
0.129074 0.128821 0.128570
0.035063 0.035115 0.034818
0.116256 0.116328 0.116972
0.069934 0.072722 0.073319
0.043198 0.043201 0.043055
0.058063 0.058086 0.057798
0.035491 0.035513 0.035438
0.036702 0.036426 0.036559
0.040357 0.039500 0.039641
0.073286 0.073470 0.073460
0.211890 0.211657 0.211512
0.095132 0.094270 0.093583
0.270530 0.265237 0.259303
0.056357 0.056695 0.057256
0.049116 0.048889 0.048874
0.059440 0.059465 0.059412
0.054275 0.054330 0.053434
0.061816 0.062243 0.062379
0.101418 0.101747 0.101596
0.042260 0.041919 0.041577
0.062230 0.062526 0.063135
0.034883 0.034682 0.034740
0.047192 0.047146 0.047397
0.039425 0.039434 0.039275
0.047155 0.047346 0.049491
0.051871 0.051640 0.051904
0.038554 0.038273 0.037978
0.044067 0.045142 0.047016
0.040371 0.040283 0.040075
0.059695 0.059449 0.058558
0.044201 0.044209 0.044310
0.034329 0.034299 0.033859
0.047509 0.047361 0.047331
0.062251 0.062245 0.059204
0.051832 0.051627 0.051838
0.047377 0.047440 0.048078
0.169198 0.167913 0.166340
0.037776 0.037608 0.037463
0.037141 0.037254 0.037540
0.041031 0.041165 0.041141
0.037085 0.037194 0.037216
0.045377 0.045402 0.045118
0.060143 0.060292 0.060420
0.043973 0.044448 0.044255
0.061966 0.062612 0.062615
0.060730 0.060972 0.061145
0.096299 0.096450 0.095746
0.048885 0.048562 0.049528
0.057425 0.057417 0.057520
0.034318 0.034279 0.033890
0.083107 0.079747 0.079489
0.074200 0.074290 0.074139
0.037212 0.037223 0.036944
0.074016 0.074151 0.073850
0.047226 0.047559 0.047646
0.073068 0.072816 0.072741
0.046082 0.046214 0.046172
0.038509 0.038142 0.038382
0.049507 0.048885 0.048562
0.034810 0.034915 0.035004
0.035899 0.036161 0.036290
0.069777 0.067560 0.066937
0.075068 0.075068 0.075204
0.047408 0.048266 0.048164
0.041008 0.040966 0.040934
0.041396 0.041365 0.041387
0.073394 0.073289 0.073107
0.058938 0.058028 0.058038
0.036968 0.037191 0.037196
0.039328 0.039372 0.039183
0.036510 0.036094 0.035682
0.060113 0.060140 0.060283
0.037124 0.037233 0.037226
0.069094 0.071539 0.071675
0.035952 0.035969 0.035871
0.035919 0.035855 0.035654
0.075929 0.075396 0.075089
0.057133 0.057043 0.057049
0.073172 0.073068 0.073185
0.036011 0.035576 0.035116
0.051928 0.050638 0.048292
0.041011 0.041013 0.041283
0.044801 0.044961 0.046552
0.040180 0.040293 0.040397
0.038602 0.037999 0.038133
0.033786 0.033938 0.034072
0.042505 0.041878 0.041885
0.042330 0.042708 0.042792
0.034250 0.034266 0.034214
0.039935 0.040227 0.040237
0.047416 0.047278 0.047612
0.130662 0.130695 0.128980
0.073976 0.073613 0.073041
0.033993 0.034115 0.034217
0.035298 0.035265 0.035407
0.036197 0.035507 0.034562
0.073549 0.073385 0.073450
0.074342 0.073812 0.073555
0.060168 0.060562 0.060567
0.064422 0.064464 0.064355
0.061788 0.061681 0.061827
0.036582 0.036378 0.036147
0.103181 0.102645 0.102301
0.045808 0.045268 0.045323
0.034190 0.034399 0.034385
0.056386 0.056611 0.056832
0.129391 0.130368 0.130393
0.046461 0.047567 0.047822
0.060121 0.059442 0.059469
0.054229 0.054328 0.054389
0.056693 0.056270 0.057024
0.052108 0.051970 0.051575
0.041553 0.042388 0.042488
0.053605 0.054404 0.054463
0.086188 0.085979 0.085685
0.055990 0.055677 0.055852
0.035870 0.036062 0.036053
0.038159 0.038181 0.038472
0.035350 0.035799 0.035826
0.048093 0.047777 0.047055
0.038580 0.038390 0.038528
0.047971 0.048129 0.048212
0.047723 0.047948 0.047982
0.040095 0.039973 0.039932
0.039898 0.040028 0.040387
0.035424 0.035475 0.035341
0.051015 0.051021 0.048815
0.058541 0.058296 0.057952
0.063029 0.063057 0.063129
0.127396 0.128077 0.129435
0.141105 0.141418 0.141529
0.042470 0.042538 0.043751
0.034668 0.034598 0.034679
0.061150 0.059121 0.058292
0.041470 0.041781 0.041796
0.047671 0.047386 0.047064
0.108209 0.107389 0.104803
0.070940 0.072193 0.071525
0.048058 0.048079 0.048087
0.051640 0.051802 0.051774
0.035145 0.035182 0.035270
0.042682 0.042850 0.042851
0.039493 0.039518 0.039562
0.053104 0.053117 0.052990
0.038495 0.038574 0.038349
0.068525 0.068559 0.068745
0.043836 0.043709 0.043637
0.047301 0.046369 0.046009
0.122017 0.122091 0.121970
0.036169 0.035698 0.035429
0.034962 0.034925 0.034737
0.044902 0.044932 0.044542
0.229520 0.228606 0.221545
0.058860 0.059072 0.058888
0.047819 0.047954 0.049167
0.081300 0.081536 0.082069
0.040037 0.039987 0.039482
0.068749 0.069494 0.070033
0.036606 0.036657 0.036694
0.050459 0.050529 0.050541
0.067647 0.071278 0.071882
0.073135 0.073157 0.073211
0.046289 0.042043 0.040771
0.037386 0.037209 0.036994
0.039351 0.039260 0.039256
0.035584 0.035352 0.035276
0.102964 0.102574 0.102517
0.154026 0.154509 0.154789
0.038593 0.038466 0.038606
0.045308 0.045235 0.045109
0.047727 0.047581 0.047574
0.038969 0.038818 0.038903
0.136641 0.136688 0.135833
0.038157 0.038172 0.038578
0.060759 0.060513 0.058047
0.058780 0.058704 0.058597
0.044056 0.044065 0.044063
0.037474 0.037674 0.037610
0.036071 0.036283 0.036308
0.081191 0.081078 0.079959
0.039811 0.039676 0.039539
0.032655 0.032517 0.032589
0.073257 0.074381 0.076563
0.067899 0.067740 0.067737
0.044079 0.045396 0.045857
0.046482 0.046290 0.046193
0.037534 0.037617 0.037299
0.213098 0.212268 0.211960
0.075129 0.074867 0.074425
0.036407 0.036327 0.036005
0.033815 0.034279 0.034196
0.362219 0.362988 0.363135
0.070434 0.070499 0.069783
0.035816 0.035130 0.034740
0.061380 0.061581 0.061824
0.035588 0.036067 0.035849
0.075234 0.074895 0.074978
0.036470 0.036488 0.036273
0.044537 0.044419 0.046061
0.043747 0.043783 0.043640
0.039746 0.038788 0.036309
0.041799 0.041242 0.041207
0.039979 0.040661 0.040738
0.050863 0.047872 0.047825
0.033981 0.034136 0.034147
0.038788 0.036309 0.036247
0.058205 0.058596 0.056124
0.059165 0.059141 0.059403
0.071139 0.071593 0.072344
0.037493 0.037590 0.037435
0.062165 0.062215 0.061970
0.124356 0.124867 0.125016
0.045013 0.044971 0.046574
0.056845 0.055839 0.055667
0.059536 0.059565 0.059475
0.054430 0.054533 0.054876
0.035902 0.036079 0.036225
0.062733 0.062088 0.063247
0.074618 0.074407 0.074414
0.043931 0.043852 0.043696
0.039950 0.039857 0.040406
0.047179 0.047064 0.047062
0.069370 0.069499 0.069531
0.073356 0.073298 0.073298
0.037712 0.037534 0.037617
0.036629 0.036740 0.036763
0.037758 0.037720 0.038007
0.043655 0.044025 0.044117
0.036524 0.036477 0.036703
0.060853 0.060963 0.060952
0.045739 0.045625 0.045816
0.056917 0.056693 0.056783
0.170365 0.170295 0.170122
0.038287 0.038290 0.037557
0.053782 0.053586 0.053312
0.034618 0.034614 0.034549
0.072648 0.072855 0.072410
0.050910 0.051194 0.051199
0.042331 0.042288 0.042467
0.032271 0.032312 0.032271
0.069873 0.069697 0.069783
0.065975 0.067129 0.068013
0.063714 0.063340 0.063404
0.042493 0.042268 0.042293
0.064050 0.064094 0.064647
0.069263 0.070071 0.070054
0.038497 0.038536 0.038359
0.055752 0.055892 0.055856
0.038135 0.038063 0.037732
0.130157 0.131021 0.131229
0.035761 0.035647 0.035668
0.067868 0.067964 0.068014
0.167962 0.170255 0.170766
0.068637 0.068526 0.068395
0.065862 0.065060 0.064522
0.057281 0.058120 0.058571
0.346392 0.346526 0.347078
0.058363 0.058376 0.058130
0.039905 0.039456 0.039058
0.035647 0.035962 0.036048
0.057878 0.057959 0.057593
0.034990 0.034996 0.035331
0.036662 0.034926 0.034452
0.039509 0.039453 0.038789
0.052122 0.051867 0.051924
0.070250 0.064199 0.064094
0.072184 0.072098 0.072378
0.046296 0.046354 0.046567
0.036300 0.036229 0.036199
0.033292 0.033378 0.033404
0.047681 0.047691 0.047954
0.052885 0.053322 0.053369
0.051194 0.051492 0.051414
0.034792 0.034665 0.034607
0.095532 0.095417 0.095288
0.044113 0.044483 0.044554
0.117694 0.117766 0.118100
0.036555 0.036412 0.036493
0.047822 0.047776 0.047684
0.051769 0.051617 0.051885
0.039523 0.038890 0.038604
0.073212 0.072956 0.072306
0.050454 0.050512 0.050632
0.048246 0.048253 0.048109
0.146314 0.145380 0.141080
0.058857 0.055924 0.055047
0.080541 0.078741 0.077743
0.078797 0.079139 0.078279
0.045277 0.045279 0.045489
0.076725 0.076234 0.076436
0.065630 0.064785 0.064209
0.055750 0.055850 0.055912
0.045589 0.045483 0.045454
0.067694 0.067691 0.068452
0.068849 0.068956 0.069050
0.104811 0.104220 0.103207
0.049062 0.050115 0.051548
0.041603 0.041322 0.041092
0.043019 0.043127 0.043265
0.038522 0.038797 0.038746
0.060567 0.060623 0.060758
0.052215 0.052010 0.051704
0.075953 0.076284 0.077818
0.033343 0.033161 0.033150
0.070352 0.070277 0.070340
0.075546 0.075328 0.075265
0.034366 0.033937 0.033621
0.037249 0.037088 0.037148
0.353100 0.353391 0.353266
0.058467 0.058125 0.058232
0.033783 0.034833 0.035013
0.136334 0.136301 0.136345
0.054835 0.055331 0.055455
0.036439 0.036562 0.036467
0.036643 0.036841 0.036605
0.053816 0.054060 0.054608
0.053421 0.052529 0.052411
0.049827 0.050333 0.050399
0.066679 0.066681 0.067768
0.038446 0.038410 0.038485
0.051724 0.051638 0.051763
0.094017 0.094008 0.094094
0.068681 0.068690 0.068775
0.051474 0.051679 0.051613
0.080519 0.080823 0.081362
0.086665 0.086175 0.084908
0.036567 0.036101 0.035901
0.036566 0.036406 0.036642
0.040616 0.041029 0.041048
0.040905 0.040744 0.040657
0.039605 0.039800 0.039894
0.085477 0.085643 0.084688
0.094990 0.094688 0.093501
0.067672 0.067408 0.066322
0.045274 0.045647 0.045681
0.046037 0.046035 0.046251
0.039929 0.039664 0.039784
0.049304 0.049710 0.050057
0.064600 0.064116 0.064039
0.043769 0.043740 0.043853
0.074581 0.077810 0.078131
0.244934 0.240972 0.218698
0.044347 0.044183 0.044289
0.124310 0.124175 0.123573
0.048775 0.048818 0.049085
0.058033 0.058123 0.058122
0.073004 0.072885 0.072542
0.058590 0.058572 0.058507
0.080530 0.080091 0.078882
0.043838 0.043895 0.044273
0.068851 0.066996 0.068874
0.045497 0.045763 0.045772
0.054372 0.054280 0.054466
0.067898 0.067706 0.067718
0.035906 0.035655 0.035574
0.049666 0.049772 0.049805
0.053810 0.053441 0.054015
0.054532 0.054326 0.054175
0.051132 0.051459 0.051628
0.168325 0.168040 0.169332
0.038692 0.038639 0.038277
0.044863 0.044409 0.044425
0.048049 0.047980 0.047972
0.039499 0.039554 0.039380
0.058243 0.059046 0.060272
0.086793 0.086991 0.088159
0.280012 0.278789 0.279718
0.096296 0.096587 0.096092
0.069507 0.069367 0.069352
0.073965 0.074056 0.074025
0.102574 0.102737 0.104094
0.036021 0.036654 0.036822
0.051160 0.051327 0.051614
0.036999 0.037046 0.037101
0.051187 0.051274 0.051144
0.053670 0.053920 0.053534
0.048848 0.048970 0.049207
0.047858 0.047591 0.047708
0.048797 0.048897 0.049079
0.039177 0.039285 0.039395
0.062342 0.062266 0.062029
0.040357 0.040090 0.040135
0.041457 0.041370 0.041347
0.040022 0.040179 0.040032
0.110813 0.111576 0.114715
0.053625 0.053565 0.052031
0.047254 0.047491 0.047926
0.039207 0.041160 0.041537
0.042722 0.042589 0.042710
0.036704 0.036243 0.035872
0.047079 0.046720 0.046507
0.059419 0.059499 0.059598
0.049540 0.049721 0.051958
0.051511 0.052034 0.051256
0.181666 0.181588 0.182074
0.097055 0.095768 0.093261
0.117927 0.114232 0.110900
0.107480 0.106906 0.105596
0.037698 0.037610 0.037479
0.068690 0.068706 0.069085
0.045185 0.045935 0.045035
0.102350 0.101565 0.101595
0.046463 0.045837 0.045185
0.054369 0.055467 0.055770
0.044453 0.044192 0.044143
0.035599 0.035618 0.035644
0.034960 0.035301 0.035575
0.044278 0.044262 0.044489
0.059424 0.059680 0.059892
0.051187 0.051061 0.050807
0.051478 0.051510 0.051487
0.066507 0.069031 0.069375
0.040703 0.040760 0.040936
0.051424 0.051461 0.051276
0.048765 0.048739 0.048763
0.116417 0.116081 0.116004
0.039231 0.039215 0.039202
0.044885 0.045112 0.044997
0.077940 0.079005 0.082210
0.038133 0.037726 0.037643
0.039675 0.041660 0.042513
0.041141 0.041109 0.041423
0.045738 0.045083 0.044950
0.062600 0.063366 0.064467
0.073913 0.074152 0.073965
0.036404 0.036500 0.036510
0.048699 0.048537 0.048622
0.363259 0.363309 0.363279
0.081365 0.081254 0.082667
0.061589 0.058727 0.058353
0.073143 0.073213 0.073284
0.057693 0.057722 0.057115
0.093949 0.094004 0.093983
0.060389 0.060239 0.060048
0.045676 0.045313 0.045309
0.069786 0.071306 0.071928
0.054747 0.054627 0.054189
0.069899 0.069938 0.071470
0.036313 0.036293 0.036357
0.045958 0.045988 0.046057
0.050620 0.050279 0.050374
0.036395 0.036236 0.036520
0.062357 0.062316 0.062503
0.060515 0.060431 0.060120
0.050981 0.051410 0.051876
0.060101 0.060167 0.060190
0.052383 0.052404 0.052569
0.044967 0.044897 0.044750
0.036535 0.036342 0.036446
0.034841 0.034674 0.035088
0.073948 0.074231 0.073450
0.073529 0.073541 0.073443
0.037339 0.037038 0.037067
0.037755 0.037250 0.037064
0.066565 0.066560 0.067022
0.036575 0.038375 0.039191
0.057310 0.057175 0.057578
0.070499 0.069783 0.069830
0.059134 0.059024 0.059312
0.053066 0.053086 0.053074
0.084767 0.084083 0.081451
0.036069 0.036134 0.035966
0.051454 0.051540 0.050632
0.062465 0.063260 0.065022
0.036554 0.036598 0.036698
0.124897 0.132596 0.133958
0.105486 0.105189 0.105742
0.056213 0.056403 0.057411
0.057653 0.058664 0.058368
0.051624 0.052084 0.051863
0.037890 0.038079 0.038149
0.044916 0.044900 0.046417
0.035711 0.035623 0.035357
0.063063 0.063758 0.064776
0.052172 0.052363 0.052476
0.066992 0.068078 0.068499
0.076634 0.076977 0.077012
0.037274 0.037194 0.037154
0.039870 0.040187 0.039971
0.037108 0.037077 0.037169
0.059625 0.059884 0.060364
0.034510 0.034800 0.035093
0.049424 0.049496 0.049543
0.050985 0.051074 0.051460
0.102507 0.102535 0.102905
0.081884 0.081896 0.082155
0.038529 0.038506 0.038867
0.039665 0.039595 0.039773
0.036624 0.036687 0.036973
0.035217 0.035327 0.035512
0.048234 0.048035 0.047818
0.092639 0.091999 0.091335
0.060246 0.060306 0.060196
0.034174 0.034490 0.034682
0.047807 0.047640 0.048412
0.209885 0.209852 0.209767
0.050405 0.050267 0.049927
0.060083 0.060266 0.060202
0.060021 0.059831 0.060992
0.087772 0.087838 0.094511
0.070738 0.070001 0.070070
0.062062 0.062169 0.062109
0.042171 0.042207 0.042354
0.049019 0.049117 0.049133
0.035381 0.035438 0.035140
0.034267 0.034261 0.034366
0.088815 0.088645 0.088617
0.035300 0.036445 0.036717
0.036584 0.036382 0.036732
0.074176 0.074161 0.074267
0.034769 0.034702 0.034823
0.050376 0.050287 0.049930
0.047530 0.047898 0.047370
0.052875 0.053232 0.053268
0.055257 0.055123 0.054577
0.049305 0.049389 0.049205
0.036310 0.036344 0.036594
0.117626 0.117693 0.117650
0.048380 0.048933 0.051548
0.038377 0.038327 0.038006
0.050471 0.050550 0.050732
0.085521 0.085496 0.085395
0.037776 0.037855 0.037914
0.114653 0.111374 0.117285
0.047547 0.047666 0.048165
0.043624 0.043872 0.044089
0.050963 0.050985 0.050973
0.041195 0.040865 0.040950
0.044038 0.044019 0.043884
0.094139 0.093982 0.093994
0.059374 0.059269 0.058672
0.047679 0.048058 0.048079
0.048704 0.048906 0.048788
0.091926 0.090927 0.090782
0.034591 0.033952 0.034006
0.075944 0.075722 0.075920
0.047367 0.047575 0.047488
0.065517 0.065373 0.065198
0.046071 0.046465 0.046854
0.042959 0.042836 0.042763
0.037427 0.037124 0.037014
0.068072 0.067108 0.065624
0.049279 0.049394 0.049332
0.040800 0.040764 0.040503
0.035643 0.035317 0.035249
0.044134 0.044216 0.044384
0.041873 0.042146 0.042162
0.037702 0.037731 0.037671
0.102606 0.102174 0.101418
0.037536 0.037763 0.037723
0.041685 0.041590 0.041648
0.050672 0.051466 0.052213
0.363634 0.363437 0.363309
0.062288 0.061658 0.061573
0.086123 0.084392 0.083750
0.056772 0.056729 0.054959
0.035451 0.035483 0.035645
0.037342 0.037648 0.037647
0.087615 0.088548 0.087792
0.041608 0.041622 0.041588
0.035130 0.034740 0.034706
0.049908 0.050226 0.050747
0.057849 0.057978 0.059888
0.047845 0.047812 0.047636
0.050328 0.050507 0.050573
0.061312 0.061230 0.062345
0.055117 0.055330 0.056466
0.040400 0.040022 0.039791
