0.123227 0.123159 0.123237
0.126251 0.126165 0.125444
0.122673 0.124657 0.125138
0.124954 0.124924 0.125298
0.113275 0.112778 0.112053
0.132403 0.132312 0.132482
0.127275 0.127659 0.129048
0.164803 0.160316 0.160464
0.137443 0.136912 0.137284
0.123430 0.123732 0.123833
0.149812 0.149207 0.148979
0.124062 0.124231 0.125872
0.137414 0.138449 0.139398
0.134049 0.133493 0.132646
0.134465 0.134611 0.134641
0.114156 0.114246 0.114385
0.122791 0.122222 0.122346
0.124043 0.123402 0.122745
0.133199 0.133380 0.133141
0.140282 0.138672 0.138452
0.116420 0.116865 0.117194
0.125024 0.121152 0.122261
0.120095 0.119845 0.119935
0.126038 0.127042 0.127702
0.134670 0.134809 0.134643
0.119841 0.119888 0.120053
0.148791 0.148905 0.149643
0.129186 0.128609 0.127224
0.134784 0.133371 0.132893
0.130224 0.129650 0.129432
0.132521 0.132906 0.132767
0.151022 0.150312 0.149996
0.125448 0.126175 0.126191
0.108852 0.109341 0.109425
0.124901 0.125353 0.125992
0.113346 0.113149 0.112830
0.122943 0.123034 0.123358
0.110722 0.111144 0.111027
0.113116 0.111697 0.110114
0.134047 0.134282 0.132485
0.150040 0.149994 0.150222
0.121070 0.120849 0.121018
0.123754 0.123940 0.125728
0.142628 0.142596 0.142943
0.143834 0.144996 0.145354
0.116611 0.116896 0.116212
0.134398 0.134174 0.133464
0.105630 0.105450 0.105368
0.125645 0.125753 0.125668
0.128142 0.127772 0.127567
0.142035 0.141811 0.142502
0.139034 0.138607 0.138859
0.125246 0.125422 0.124953
0.144228 0.144839 0.144881
0.141368 0.142535 0.140181
0.119788 0.119685 0.119290
0.129718 0.129732 0.129397
0.120675 0.120914 0.120004
0.123441 0.124067 0.124673
0.127288 0.127049 0.126903
0.121674 0.122197 0.123197
0.119785 0.119363 0.118089
0.134453 0.134491 0.133057
0.128684 0.128995 0.128201
0.127187 0.124934 0.125642
0.128141 0.129108 0.128769
0.141037 0.141096 0.141274
0.125422 0.125948 0.125903
0.132280 0.132897 0.132341
0.120699 0.120556 0.120540
0.121346 0.119425 0.120064
0.132496 0.132913 0.132702
0.156221 0.156189 0.157336
0.129288 0.129602 0.131242
0.120830 0.120993 0.120935
0.127337 0.127614 0.127850
0.126258 0.127244 0.127963
0.129764 0.129971 0.130175
0.134941 0.134939 0.134407
0.120302 0.120179 0.119837
0.112412 0.111780 0.111467
0.118917 0.118482 0.118910
0.125567 0.125811 0.124631
0.128165 0.127845 0.127879
0.134819 0.134199 0.134723
0.133973 0.134232 0.134514
0.131475 0.132270 0.132278
0.125306 0.125870 0.126414
0.128702 0.128727 0.128664
0.143043 0.142910 0.144479
0.135847 0.133244 0.132432
0.127391 0.126807 0.126558
0.149829 0.151223 0.150477
0.119142 0.118684 0.118139
0.128136 0.128545 0.128525
0.126990 0.126507 0.126405
0.118426 0.119470 0.119481
0.143052 0.143523 0.144101
0.120926 0.120912 0.121105
0.129943 0.130536 0.130433
0.118310 0.119337 0.119571
0.126442 0.126438 0.126491
0.124047 0.122910 0.123323
0.117554 0.117040 0.116642
0.135513 0.135698 0.136227
0.115183 0.115321 0.115737
0.121517 0.121789 0.122307
0.119479 0.120740 0.120339
0.127251 0.128613 0.128485
0.125694 0.126278 0.126181
0.121197 0.121818 0.122812
0.122554 0.123322 0.124241
0.132967 0.132039 0.133977
0.121682 0.121632 0.121753
0.128045 0.128135 0.126988
0.138312 0.138511 0.138109
0.126969 0.126857 0.126059
0.124284 0.123606 0.123625
0.111297 0.111312 0.111307
0.110083 0.110066 0.109552
0.138037 0.136236 0.135671
0.122384 0.122608 0.121901
0.119937 0.119033 0.118721
0.131133 0.130653 0.130643
0.153896 0.153850 0.154172
0.120132 0.119546 0.119660
0.122913 0.121726 0.121694
0.122045 0.121738 0.121732
0.115110 0.116379 0.116681
0.114700 0.114379 0.114469
0.127995 0.127515 0.126788
0.124161 0.124363 0.124067
0.127892 0.129259 0.129166
0.129642 0.129015 0.128584
0.105444 0.104977 0.104791
0.116967 0.116741 0.116536
0.121830 0.122041 0.121892
0.115024 0.113232 0.113028
0.135745 0.136059 0.135852
0.159225 0.159394 0.159910
0.119893 0.120192 0.120794
0.131855 0.131463 0.131895
0.127917 0.127330 0.127049
0.107157 0.107346 0.107814
0.117242 0.118605 0.117331
0.116164 0.116405 0.116144
0.127812 0.127882 0.128067
0.117331 0.118113 0.117886
0.135339 0.134405 0.133649
0.124470 0.124185 0.125127
0.129182 0.129338 0.129074
0.121708 0.119269 0.119058
0.136414 0.136640 0.136893
0.130987 0.130829 0.129345
0.115355 0.114919 0.115494
0.136127 0.136215 0.136220
0.124445 0.123968 0.121694
0.129249 0.129075 0.131704
0.130934 0.131655 0.132280
0.112106 0.112128 0.112386
0.129682 0.126372 0.126003
0.144075 0.144128 0.146365
0.116974 0.116953 0.117879
0.116462 0.116696 0.116188
0.132520 0.132570 0.133127
0.113609 0.113453 0.113319
0.109399 0.109981 0.109173
0.136004 0.136079 0.137132
0.153958 0.154664 0.154492
0.127600 0.128451 0.128666
0.146400 0.146161 0.144992
0.129658 0.130228 0.130386
0.134584 0.133898 0.133795
0.149739 0.149484 0.149972
0.125453 0.124596 0.124661
0.125117 0.125181 0.125636
0.148304 0.151397 0.151417
0.113253 0.114705 0.114482
0.117227 0.117860 0.117910
0.116222 0.116586 0.116338
0.115700 0.115961 0.116249
0.126954 0.127969 0.129340
0.128709 0.129843 0.128873
0.125879 0.125988 0.124819
0.124658 0.124582 0.124955
0.133930 0.134046 0.134238
0.127611 0.127375 0.128067
0.115657 0.115918 0.116344
0.126836 0.127271 0.127656
0.137868 0.138509 0.138086
0.135625 0.135658 0.135539
0.114522 0.115870 0.116427
0.137675 0.138203 0.138375
0.133185 0.131859 0.131253
0.116733 0.116661 0.117671
0.153424 0.151056 0.150364
0.141112 0.143676 0.146918
0.149933 0.149731 0.149980
0.145556 0.145172 0.145637
0.119564 0.118661 0.119188
0.118573 0.118453 0.120747
0.142925 0.143065 0.142719
0.126485 0.126856 0.127005
0.136027 0.137115 0.137093
0.147553 0.147962 0.149250
0.133918 0.133212 0.132939
0.130942 0.131200 0.131132
0.132415 0.131577 0.131666
0.111274 0.111148 0.112014
0.120067 0.121248 0.122011
0.151785 0.151228 0.150992
0.121869 0.121442 0.121757
0.126887 0.126054 0.125867
0.142036 0.142025 0.141123
0.126350 0.127038 0.126754
0.123087 0.123121 0.123087
0.127296 0.127623 0.127414
0.123776 0.123712 0.124720
0.126507 0.126299 0.126457
0.127907 0.125374 0.123271
0.128905 0.129075 0.128025
0.143258 0.142978 0.143734
0.129077 0.128214 0.128163
0.111638 0.112282 0.113074
0.125258 0.125001 0.125232
0.112694 0.112726 0.113078
0.131728 0.132668 0.133157
0.121038 0.120931 0.120248
0.126749 0.127222 0.127345
0.118591 0.121583 0.122253
0.119829 0.119463 0.119097
0.129301 0.129348 0.128893
0.114482 0.113683 0.113535
0.110010 0.111240 0.111243
0.119122 0.118573 0.117815
0.137917 0.137631 0.136974
0.125194 0.126335 0.126467
0.129816 0.128940 0.127856
0.149542 0.149758 0.150015
0.122789 0.121661 0.121884
0.127861 0.128245 0.128120
0.126112 0.126632 0.126221
0.125795 0.125497 0.124261
0.144203 0.144376 0.144241
0.125386 0.126727 0.126734
0.139360 0.139190 0.139293
0.129323 0.131550 0.129258
0.119755 0.119414 0.119155
0.125733 0.125374 0.125055
0.124714 0.127077 0.130012
0.126238 0.124514 0.124504
0.122024 0.122785 0.121302
0.137778 0.137677 0.138014
0.122245 0.122367 0.122819
0.168762 0.169153 0.169191
0.120004 0.119454 0.120115
0.126785 0.126314 0.125411
0.126495 0.127408 0.127635
0.114530 0.114659 0.115821
0.125135 0.124435 0.122200
0.124031 0.123887 0.122850
0.122941 0.122952 0.122289
0.119145 0.119242 0.119164
0.118387 0.118337 0.118774
0.138707 0.138979 0.138935
0.121543 0.124731 0.125046
0.144258 0.143803 0.143258
0.121885 0.121800 0.122216
0.165213 0.165757 0.166399
0.133300 0.134011 0.134542
0.122144 0.123693 0.123405
0.144656 0.145424 0.145171
0.122152 0.122353 0.121634
0.138089 0.137829 0.137999
0.125076 0.124643 0.124281
0.122269 0.122253 0.120490
0.123109 0.122953 0.123064
0.122914 0.122931 0.123222
0.132492 0.133872 0.133789
0.115814 0.115959 0.115414
0.124414 0.124678 0.124795
0.120336 0.120405 0.121038
0.126647 0.126442 0.126491
0.123342 0.123149 0.123813
0.132940 0.131645 0.131398
0.120217 0.120339 0.122327
0.120282 0.121752 0.121773
0.131251 0.130621 0.131572
0.128359 0.129118 0.129711
0.120890 0.120984 0.120670
0.124064 0.124073 0.124206
0.143516 0.144078 0.145532
0.130858 0.130708 0.130663
0.121283 0.120461 0.120218
0.136641 0.135781 0.136374
0.132433 0.132627 0.132497
0.129685 0.129769 0.129472
0.129200 0.128928 0.128424
0.192181 0.191962 0.192489
0.122462 0.122460 0.122284
0.123068 0.122959 0.122831
0.126081 0.128222 0.128509
0.119291 0.119098 0.119511
0.111424 0.111438 0.111755
0.125806 0.126349 0.126638
0.152715 0.150129 0.149523
0.133033 0.134759 0.134452
0.117232 0.117230 0.118002
0.138024 0.138055 0.138285
0.128363 0.125935 0.126465
0.133162 0.133574 0.133136
0.117057 0.116942 0.120073
0.135457 0.134590 0.134549
0.128272 0.127946 0.128813
0.117888 0.118846 0.119426
0.129372 0.129828 0.129453
0.133760 0.134050 0.134259
0.126005 0.125682 0.125872
0.141521 0.142756 0.143592
0.126882 0.126983 0.127151
0.138529 0.138900 0.138780
0.136545 0.137512 0.137439
0.121349 0.121311 0.120590
0.115405 0.115814 0.115959
0.126188 0.125713 0.126036
0.118657 0.117796 0.116964
0.125950 0.125429 0.124822
0.139039 0.139471 0.139245
0.124851 0.125193 0.124760
0.129945 0.129079 0.128702
0.113813 0.113017 0.113326
0.125115 0.125654 0.127740
0.158881 0.158463 0.158255
0.131788 0.131594 0.131725
0.148397 0.150258 0.150374
0.136536 0.135544 0.135263
0.133566 0.133486 0.131436
0.148396 0.145570 0.144950
0.120510 0.119378 0.116976
0.127785 0.127395 0.127660
0.133176 0.132754 0.132792
0.126617 0.125582 0.125665
0.126273 0.127005 0.127538
0.144840 0.143885 0.144329
0.125981 0.125652 0.125679
0.129729 0.129967 0.130850
0.125265 0.124143 0.124354
0.125475 0.125579 0.125717
0.120857 0.121008 0.121189
0.126244 0.126125 0.126447
0.121803 0.122078 0.122118
0.125397 0.125366 0.125524
0.117307 0.116763 0.117713
0.131948 0.130030 0.130929
0.165131 0.165247 0.164668
0.122493 0.122683 0.120886
0.117835 0.118140 0.118229
0.127182 0.127502 0.126937
0.127991 0.128055 0.128012
0.126978 0.126433 0.126264
0.110802 0.110504 0.109672
0.116821 0.116992 0.116997
0.121480 0.123940 0.125457
0.117017 0.116217 0.115222
0.134257 0.133609 0.133751
0.120908 0.121392 0.121600
0.137969 0.134609 0.134487
0.137513 0.136895 0.136327
0.111006 0.110903 0.111180
0.119856 0.120030 0.120640
0.124596 0.125758 0.125437
0.141814 0.141974 0.141657
0.112317 0.112889 0.112650
0.127820 0.126701 0.126822
0.133839 0.134560 0.134413
0.127811 0.127917 0.127794
0.130657 0.130712 0.130558
0.126874 0.127480 0.127894
0.128974 0.128779 0.128186
0.109723 0.110391 0.111613
0.140791 0.142747 0.142494
0.164309 0.161932 0.159987
0.115407 0.115425 0.115087
0.112214 0.112174 0.111456
0.140524 0.140518 0.140229
0.136100 0.135475 0.135895
0.136034 0.135659 0.135620
0.121046 0.120307 0.120656
0.110278 0.110091 0.109545
0.130929 0.129155 0.129879
0.132986 0.132958 0.131394
0.133245 0.133142 0.133015
0.126202 0.125836 0.124793
0.127126 0.128013 0.127289
0.124537 0.125010 0.124044
0.141702 0.141943 0.142361
0.124262 0.123745 0.123027
0.115194 0.114307 0.112865
0.127789 0.129105 0.129087
0.112593 0.111801 0.111862
0.114279 0.114260 0.114735
0.127685 0.127812 0.128588
0.116024 0.116229 0.115610
0.121573 0.122099 0.122375
0.129174 0.128724 0.128874
0.136362 0.136758 0.136845
0.117947 0.117931 0.117987
0.142480 0.141922 0.141006
0.119493 0.119702 0.120524
0.124098 0.123842 0.123825
0.121247 0.120506 0.121083
0.128385 0.128468 0.127894
0.142892 0.143713 0.143830
0.126948 0.127139 0.127817
0.126082 0.126487 0.127413
0.135868 0.135883 0.135947
0.122977 0.124151 0.124701
0.116755 0.117919 0.119306
0.163895 0.164138 0.164296
0.119329 0.118418 0.118210
0.124049 0.123883 0.124902
0.116992 0.116181 0.116351
0.106422 0.106075 0.106255
0.116715 0.116731 0.116969
0.126615 0.126346 0.127151
0.132847 0.133894 0.133688
0.162135 0.161892 0.161141
0.127028 0.127336 0.126686
0.120007 0.119409 0.118943
0.128311 0.127703 0.127883
0.111740 0.113023 0.114061
0.112121 0.111601 0.112143
0.128354 0.126895 0.124231
0.126724 0.126246 0.125885
0.119135 0.118911 0.119446
0.138203 0.138375 0.138486
0.125053 0.125235 0.125637
0.120192 0.119960 0.119672
0.133090 0.133220 0.132526
0.119828 0.119925 0.119024
0.119938 0.120734 0.121246
0.116348 0.117698 0.118961
0.124954 0.124989 0.124645
0.129541 0.127699 0.126641
0.113750 0.113673 0.113368
0.131920 0.132172 0.132788
0.114116 0.114054 0.114335
0.115089 0.114840 0.115501
0.123131 0.123830 0.124603
0.120854 0.121030 0.121165
0.125270 0.124591 0.124607
0.140877 0.143526 0.143609
0.163793 0.164469 0.165493
0.137046 0.138309 0.139219
0.131572 0.132222 0.132683
0.123940 0.124514 0.122799
0.120443 0.121501 0.121490
0.137898 0.137780 0.138395
0.111261 0.111382 0.111698
0.112210 0.112489 0.112345
0.124451 0.125635 0.127083
0.112917 0.113551 0.115457
0.132543 0.132729 0.132111
0.130185 0.130439 0.131266
0.117276 0.117878 0.117457
0.128865 0.128239 0.127991
0.117738 0.117283 0.117187
0.115599 0.115261 0.115789
0.141983 0.142351 0.142644
0.129076 0.128706 0.126506
0.114397 0.114465 0.114065
0.124543 0.124634 0.124992
0.115578 0.115789 0.116126
0.127342 0.127623 0.126505
0.136960 0.136598 0.136850
0.116060 0.116456 0.116141
0.121548 0.119562 0.119560
0.130518 0.132071 0.132789
0.155129 0.155366 0.154382
0.126923 0.127649 0.127997
0.126005 0.127178 0.127603
0.133444 0.135162 0.135405
0.123914 0.121986 0.120665
0.127637 0.127626 0.129955
0.154492 0.154721 0.154553
0.113823 0.113045 0.113143
0.121229 0.121296 0.121423
0.117493 0.116989 0.116788
0.123222 0.123150 0.122091
0.120485 0.119981 0.120217
0.116920 0.117493 0.115451
0.118037 0.118296 0.118077
0.127632 0.126734 0.125295
0.137454 0.137409 0.137265
0.127549 0.127218 0.126271
0.132555 0.132576 0.132513
0.120752 0.121451 0.121939
0.111867 0.112763 0.112959
0.129806 0.130699 0.129134
0.185874 0.185287 0.183100
0.117354 0.117812 0.117927
0.130093 0.130014 0.130436
0.132817 0.130457 0.130611
0.129550 0.128488 0.129046
0.124149 0.124906 0.124445
0.132815 0.132783 0.132837
0.132632 0.133298 0.131435
0.132072 0.131544 0.130585
0.141350 0.140616 0.140818
0.124875 0.124356 0.124558
0.137841 0.137097 0.133900
0.128588 0.128345 0.130117
0.136251 0.135029 0.135012
0.132017 0.132560 0.133081
0.130119 0.128239 0.127850
0.127598 0.127283 0.126732
0.126720 0.128789 0.129331
0.119121 0.118660 0.116804
0.159204 0.159938 0.160455
0.121644 0.120713 0.119672
0.123645 0.123900 0.124024
0.119758 0.120512 0.120778
0.123650 0.123731 0.123419
0.136714 0.136808 0.134540
0.115449 0.115932 0.116291
0.160949 0.161296 0.164218
0.123236 0.123680 0.124266
0.121801 0.121862 0.122891
0.125411 0.126195 0.126046
0.143069 0.142980 0.142482
0.129782 0.130391 0.128777
0.117611 0.119080 0.119874
0.125773 0.126375 0.126874
0.128466 0.129291 0.129744
0.150338 0.150076 0.150098
0.135294 0.135263 0.134763
0.134332 0.131764 0.131603
0.126011 0.126195 0.127954
0.145912 0.145362 0.145104
0.132488 0.132499 0.132736
0.125914 0.127373 0.127736
0.159397 0.158958 0.158536
0.115514 0.115701 0.117494
0.131759 0.131314 0.130796
0.119370 0.119346 0.118130
0.114870 0.115466 0.114975
0.126636 0.126009 0.125892
0.147926 0.147757 0.147534
0.147768 0.148762 0.149265
0.120842 0.121400 0.120553
0.120851 0.121234 0.121160
0.112399 0.113597 0.117706
0.127095 0.127465 0.128252
0.133945 0.134585 0.134405
0.121329 0.121425 0.121146
0.121013 0.120899 0.120898
0.122735 0.122826 0.122487
0.137964 0.137928 0.136944
0.135622 0.134976 0.135284
0.154580 0.155731 0.155624
0.153235 0.152619 0.153015
0.111751 0.111262 0.110997
0.118445 0.118875 0.119070
0.135341 0.135963 0.135686
0.136377 0.135352 0.134521
0.130519 0.130161 0.130189
0.115590 0.116073 0.116210
0.129491 0.129679 0.130883
0.133222 0.134179 0.133760
0.116375 0.117331 0.117448
0.132546 0.134050 0.133748
0.131280 0.129513 0.129007
0.125907 0.126706 0.126353
0.125778 0.126167 0.126029
0.139225 0.139676 0.139485
0.192959 0.192728 0.192471
0.121316 0.121597 0.121168
0.113230 0.113355 0.112033
0.119954 0.120821 0.121381
0.133620 0.134532 0.134178
0.121487 0.121242 0.121109
0.138051 0.138024 0.136804
0.122593 0.122935 0.123251
0.119619 0.119068 0.118449
0.141067 0.140777 0.140479
0.120926 0.122321 0.122894
0.142566 0.142417 0.142480
0.138058 0.138447 0.138319
0.133457 0.133533 0.133542
0.111695 0.111764 0.111473
0.124788 0.125198 0.125265
0.109439 0.109352 0.111048
0.142441 0.142968 0.142375
0.117235 0.116981 0.117106
0.136511 0.135826 0.135502
0.116736 0.119706 0.119227
0.119218 0.120856 0.120897
0.124703 0.124388 0.124774
0.118882 0.118669 0.118702
0.130719 0.130224 0.129650
0.123340 0.119978 0.120015
0.115291 0.114952 0.115010
0.130492 0.130173 0.131443
0.127777 0.127376 0.127201
0.128261 0.128675 0.128234
0.113411 0.113843 0.113630
0.117622 0.118555 0.118403
0.115884 0.116392 0.115770
0.140058 0.139381 0.138978
0.105336 0.104913 0.104996
0.160276 0.160530 0.160234
0.133250 0.133011 0.133142
0.136266 0.135987 0.135381
0.130310 0.130558 0.131866
0.131672 0.130842 0.131298
0.118882 0.119913 0.120186
0.138605 0.137708 0.137744
0.119729 0.120148 0.120763
0.124492 0.124822 0.125444
0.123456 0.124918 0.125222
0.118049 0.117417 0.117521
0.119899 0.120245 0.120928
0.122421 0.122416 0.121721
0.128043 0.128105 0.127842
0.129010 0.129051 0.128849
0.121009 0.121023 0.120458
0.125055 0.125832 0.126871
0.130373 0.130141 0.130350
0.119814 0.119473 0.118482
0.111989 0.112608 0.112648
0.128983 0.131071 0.130746
0.131540 0.131534 0.132338
0.119837 0.119912 0.119514
0.132087 0.130969 0.128863
0.125935 0.126402 0.126726
0.139418 0.138676 0.138685
0.122577 0.122760 0.122913
0.153137 0.153625 0.154095
0.128598 0.127837 0.127922
0.127608 0.128028 0.127980
0.124488 0.124334 0.125003
0.120404 0.119829 0.119142
0.119144 0.118967 0.118967
0.132497 0.132328 0.133091
0.119310 0.118661 0.118621
0.110442 0.109574 0.109857
0.126278 0.126458 0.126078
0.107622 0.107710 0.108573
0.119355 0.120424 0.118003
0.190332 0.189723 0.189182
0.133318 0.132662 0.133162
0.123118 0.122370 0.122909
0.128093 0.127871 0.129351
0.125844 0.125775 0.126440
0.132645 0.133282 0.131969
0.119065 0.118851 0.118398
0.128506 0.128205 0.126330
0.131905 0.131257 0.130333
0.145553 0.144981 0.144664
0.121920 0.121754 0.121722
0.118843 0.118423 0.118772
0.124036 0.124367 0.124451
0.128509 0.127906 0.127574
0.157893 0.157733 0.157896
0.134241 0.134503 0.135454
0.130640 0.129994 0.130022
0.114113 0.114131 0.114325
0.127297 0.126764 0.128930
0.118631 0.117945 0.118256
0.122190 0.122112 0.121870
0.135241 0.135584 0.134953
0.116211 0.116412 0.117099
0.147680 0.147704 0.147551
0.144839 0.144881 0.144769
0.126220 0.126523 0.127396
0.132387 0.132568 0.132206
0.128516 0.128322 0.127785
0.111747 0.111830 0.111460
0.136083 0.137412 0.138756
0.130504 0.130307 0.129831
0.127341 0.127594 0.127457
0.130106 0.129299 0.130376
0.133033 0.133191 0.135473
0.144917 0.144061 0.144293
0.116802 0.116825 0.117102
0.134590 0.134871 0.134443
0.131207 0.130241 0.129675
0.129736 0.129849 0.129886
0.122357 0.121149 0.121286
0.161073 0.159454 0.159337
0.115696 0.116115 0.115451
0.132851 0.134449 0.134815
0.135371 0.135101 0.134828
0.130646 0.130223 0.129887
0.119138 0.119454 0.121500
0.116633 0.117245 0.116943
0.123045 0.123213 0.122587
0.165292 0.165575 0.165457
0.125551 0.126071 0.127762
0.133870 0.133472 0.133330
0.126949 0.125859 0.125916
0.119954 0.120015 0.121026
0.123236 0.123928 0.123854
0.144610 0.144928 0.145620
0.111006 0.111038 0.110985
0.123354 0.123225 0.123666
0.133910 0.135863 0.134640
0.120619 0.120763 0.121854
0.126761 0.127502 0.127950
0.124386 0.124514 0.125230
0.152892 0.153013 0.153116
0.110709 0.110828 0.110001
0.125361 0.125674 0.126057
0.146958 0.147039 0.147114
0.110702 0.110682 0.111049
0.151634 0.151663 0.151101
0.119975 0.120230 0.121426
0.132105 0.131963 0.131695
0.147444 0.146826 0.146807
0.117093 0.116456 0.116003
0.134670 0.138175 0.136573
0.133031 0.132721 0.130406
0.122523 0.122510 0.122325
0.121800 0.122230 0.122770
0.146800 0.147696 0.148406
0.124203 0.124565 0.124462
0.122219 0.122070 0.121750
0.144124 0.143909 0.144306
0.134185 0.136901 0.137344
0.127507 0.127901 0.128168
0.126269 0.126893 0.126485
0.123781 0.125179 0.125185
0.123293 0.123447 0.122892
0.148001 0.149711 0.149612
0.117181 0.117472 0.117574
0.152287 0.151421 0.151397
0.121232 0.120981 0.121503
0.110001 0.109024 0.108021
0.126510 0.126056 0.124701
0.112640 0.112529 0.112702
0.135475 0.135229 0.135541
0.124706 0.125296 0.125407
0.127133 0.127156 0.126809
0.115178 0.115606 0.115317
0.133192 0.132694 0.130358
0.131522 0.130093 0.130083
0.116263 0.116129 0.115830
0.125174 0.124215 0.124711
0.160485 0.160488 0.158910
0.107538 0.107704 0.107693
0.150364 0.149334 0.149837
0.133778 0.134498 0.134813
0.104993 0.103446 0.103199
0.122392 0.122406 0.121546
0.132677 0.132526 0.132240
0.121318 0.122225 0.123688
0.126505 0.126754 0.125239
0.132472 0.132202 0.131308
0.116538 0.116685 0.116352
0.114618 0.115289 0.115727
0.138242 0.141440 0.143071
0.132759 0.134461 0.135221
0.120678 0.121333 0.121877
0.130292 0.129904 0.129351
0.141805 0.141742 0.142735
0.126272 0.126508 0.127535
0.120540 0.120561 0.120028
0.154922 0.154830 0.154580
0.120006 0.119311 0.118423
0.132750 0.130358 0.130459
0.132372 0.132409 0.131516
0.118328 0.118890 0.118887
0.110626 0.111312 0.111351
0.115052 0.114331 0.114302
0.118727 0.118261 0.118679
0.129887 0.128698 0.128968
0.136995 0.136953 0.137470
0.116863 0.116580 0.116229
0.134574 0.135187 0.134876
0.122393 0.122160 0.121674
0.127952 0.128083 0.127888
0.217438 0.216881 0.215924
0.116022 0.116570 0.116315
0.119612 0.119899 0.119397
0.126708 0.126830 0.127235
0.128339 0.126859 0.127335
0.126988 0.126431 0.125946
0.111535 0.111951 0.111723
0.145956 0.146641 0.147895
0.136007 0.134810 0.135317
0.131258 0.131835 0.131174
0.131594 0.131725 0.132451
0.123309 0.122414 0.122101
0.120971 0.121130 0.121186
0.117919 0.117434 0.117358
0.144646 0.145302 0.145060
0.125256 0.124970 0.125309
0.120312 0.120075 0.119618
0.160136 0.161324 0.159968
0.132322 0.132427 0.132372
0.137784 0.137252 0.136326
0.119093 0.118916 0.119216
0.141075 0.140908 0.140803
0.127481 0.127157 0.126668
0.126179 0.126450 0.126985
0.117561 0.117885 0.118387
0.113787 0.114014 0.112355
0.122040 0.121901 0.121824
0.129821 0.129656 0.129283
0.114070 0.113876 0.113826
0.133792 0.133588 0.134064
0.122281 0.123351 0.125432
0.124906 0.125226 0.125622
0.146992 0.146834 0.146781
0.121951 0.121497 0.121470
0.135297 0.136226 0.136453
0.110431 0.110618 0.110584
0.105056 0.105001 0.105504
0.131605 0.130860 0.130358
0.114609 0.113871 0.115056
0.132813 0.132981 0.133496
0.113854 0.114585 0.114486
0.145314 0.145696 0.145573
0.123879 0.123534 0.124404
0.137276 0.137152 0.136739
0.138556 0.138133 0.138114
0.130012 0.131227 0.135348
0.120556 0.120340 0.119792
0.129432 0.129773 0.128748
0.119017 0.117960 0.117578
0.129575 0.128154 0.126931
0.140666 0.138649 0.138063
0.137792 0.139949 0.143675
0.122316 0.121664 0.119119
0.131754 0.134128 0.134334
0.118819 0.119181 0.118808
0.118057 0.118106 0.116680
0.132969 0.132976 0.131810
0.111498 0.112866 0.112325
0.128482 0.127832 0.128470
0.143222 0.143641 0.144419
0.124077 0.123833 0.124974
0.113345 0.112943 0.112311
0.138941 0.138590 0.138981
0.142231 0.141994 0.140201
0.127144 0.126937 0.127146
0.118475 0.117746 0.117660
0.127338 0.127333 0.126133
0.124011 0.123036 0.122232
0.119541 0.120519 0.119903
0.130466 0.130670 0.131158
0.129240 0.129770 0.133893
0.124312 0.124300 0.124065
0.145447 0.145761 0.145039
0.115425 0.115087 0.115425
0.127884 0.127953 0.129021
0.120472 0.120587 0.120508
0.153560 0.154264 0.154277
0.134089 0.135971 0.136066
0.116626 0.116063 0.115954
0.133050 0.134603 0.135498
0.127204 0.127349 0.127479
0.154290 0.154798 0.154422
0.123033 0.122799 0.122355
0.131021 0.129529 0.128863
0.137567 0.137722 0.137873
0.123490 0.123682 0.123515
0.150799 0.150314 0.150397
0.129425 0.128868 0.126746
0.110091 0.109545 0.109393
0.129087 0.129317 0.130440
0.127238 0.127468 0.127232
0.115773 0.116369 0.117662
0.123677 0.123333 0.123313
0.117206 0.116987 0.116769
0.126801 0.126506 0.127195
0.145395 0.145399 0.144559
0.122842 0.122729 0.123051
0.120085 0.118919 0.119439
0.136413 0.136613 0.136536
0.124057 0.123530 0.124857
0.133969 0.134824 0.136139
0.145694 0.145241 0.144605
0.129063 0.128687 0.129056
0.144790 0.145008 0.145395
0.123410 0.124192 0.123959
0.113622 0.113732 0.113539
0.165628 0.165416 0.164803
0.116141 0.116166 0.116390
0.120881 0.120326 0.119174
0.133247 0.132680 0.130428
0.110864 0.111584 0.111426
0.132480 0.132299 0.131651
0.156105 0.156262 0.155715
0.116538 0.116495 0.116991
0.136499 0.134694 0.132759
0.120963 0.121839 0.121519
0.138082 0.137441 0.137359
0.117665 0.117753 0.117971
0.185587 0.185580 0.185202
0.125362 0.126030 0.124537
0.122370 0.121925 0.120791
0.111607 0.111254 0.111487
0.118679 0.117764 0.116783
0.133619 0.133737 0.133375
0.123612 0.124015 0.123743
0.125013 0.124993 0.126074
0.117800 0.119098 0.118755
0.126626 0.127207 0.127969
0.108579 0.109118 0.108967
0.127350 0.127825 0.127263
0.115455 0.114913 0.114842
0.140462 0.139133 0.139549
0.128878 0.129173 0.127758
0.116323 0.117722 0.119326
0.116408 0.116378 0.116523
0.112489 0.112345 0.113123
0.120969 0.120792 0.121410
0.151941 0.151097 0.150996
0.131493 0.132527 0.132634
0.158780 0.159399 0.159795
0.118166 0.117386 0.117708
0.141090 0.139913 0.137921
0.121661 0.121970 0.122979
0.136509 0.136758 0.137126
0.136167 0.136494 0.135878
0.155133 0.154373 0.151348
0.125308 0.125002 0.125690
0.135933 0.135685 0.135138
0.134722 0.133601 0.133809
0.127896 0.128065 0.126601
0.115801 0.115559 0.115588
0.176139 0.176037 0.175854
0.127773 0.127578 0.127378
0.128154 0.127856 0.128707
0.118131 0.118733 0.118574
0.120013 0.120791 0.122164
0.139714 0.140340 0.139874
0.141998 0.141964 0.141660
0.132153 0.133067 0.133867
0.128750 0.129544 0.129580
0.120356 0.119645 0.119000
0.116899 0.117170 0.117175
0.119472 0.119122 0.120281
0.120742 0.121381 0.121512
0.118344 0.118710 0.118822
0.131904 0.133651 0.131166
0.129149 0.129782 0.130391
0.121967 0.121365 0.120565
0.133325 0.134908 0.134800
0.126262 0.125572 0.125984
0.154644 0.154594 0.155157
0.160210 0.161185 0.161841
0.158659 0.161058 0.161291
0.129293 0.129433 0.129221
0.134645 0.135437 0.135189
0.110533 0.110625 0.110357
0.110971 0.113715 0.113670
0.128714 0.128680 0.129097
0.113035 0.112671 0.111525
0.121657 0.121802 0.121583
0.125289 0.125796 0.126945
0.133939 0.134273 0.134094
0.112650 0.113870 0.114530
0.120731 0.119917 0.119994
0.126594 0.126338 0.125696
0.115660 0.115944 0.115072
0.122831 0.123449 0.123266
0.141038 0.138847 0.138370
0.118482 0.118664 0.118248
0.134247 0.134024 0.134048
0.120060 0.120812 0.121196
0.132478 0.132565 0.133664
0.123490 0.123458 0.123438
0.124172 0.125032 0.125207
0.116874 0.116260 0.116637
0.148358 0.151677 0.151491
0.108788 0.108572 0.107489
0.144894 0.144341 0.146181
0.123819 0.123931 0.123532
0.133158 0.133202 0.132271
0.150076 0.150762 0.150082
0.132776 0.132450 0.131677
0.123826 0.123503 0.123547
0.142639 0.142969 0.143259
0.110929 0.111388 0.111307
0.111545 0.112469 0.111665
0.162603 0.162447 0.162012
0.115763 0.116159 0.115940
0.182011 0.181965 0.181171
0.134507 0.134266 0.134880
0.122294 0.122040 0.121241
0.143645 0.142690 0.142427
0.135328 0.133881 0.132387
0.113394 0.113875 0.113531
0.128025 0.128010 0.127194
0.126029 0.126022 0.126272
0.142184 0.142137 0.141739
0.118434 0.117899 0.120809
0.130601 0.130760 0.130691
