0.389469 0.390546 0.389808
0.370406 0.373264 0.374648
0.514370 0.532318 0.534627
0.478868 0.478497 0.478229
0.394833 0.396903 0.398330
0.393585 0.392071 0.391577
0.534658 0.537229 0.537818
0.372057 0.370125 0.370336
0.374363 0.371739 0.367059
0.396503 0.404375 0.405898
0.732724 0.729446 0.729115
0.566788 0.568195 0.575989
0.475075 0.472060 0.475839
0.367409 0.369326 0.370883
0.398938 0.401063 0.399570
0.362397 0.364266 0.369460
0.469606 0.465911 0.461969
0.343373 0.346245 0.346367
0.353812 0.358208 0.357453
0.500643 0.493828 0.488381
0.629980 0.627119 0.627416
0.428331 0.430877 0.433239
0.376410 0.374378 0.372171
0.486680 0.485830 0.480650
0.729115 0.729793 0.730537
0.425961 0.427740 0.428429
0.451661 0.456910 0.455013
0.372442 0.371371 0.370867
0.415012 0.415488 0.416534
0.426277 0.426187 0.425777
0.366839 0.363098 0.361989
0.354618 0.351802 0.353796
0.574014 0.578708 0.585575
0.412571 0.412887 0.413639
0.594836 0.587194 0.581952
0.392776 0.393030 0.393776
0.357989 0.357469 0.354628
0.378712 0.380581 0.382759
0.403138 0.402994 0.401922
0.441913 0.443365 0.447421
0.365616 0.368019 0.370711
0.495485 0.496922 0.504135
0.525409 0.527112 0.528545
0.374205 0.370890 0.368114
0.401880 0.401607 0.401675
0.377359 0.378438 0.377761
0.350925 0.350870 0.348768
0.384896 0.382860 0.383265
0.564928 0.568213 0.566570
0.496565 0.499791 0.496616
0.479663 0.477018 0.476133
0.389795 0.392019 0.392790
0.397992 0.397809 0.397745
0.438467 0.435883 0.435151
0.382124 0.381667 0.380035
0.362689 0.362786 0.362272
0.372759 0.373686 0.373984
0.394253 0.394737 0.395679
0.476342 0.475322 0.470279
0.350324 0.351994 0.349801
0.362983 0.360074 0.361502
0.332478 0.324082 0.318738
0.362952 0.366329 0.370401
0.400977 0.399085 0.398388
0.529414 0.524061 0.525076
0.370031 0.375189 0.379845
0.370495 0.368925 0.368494
0.383164 0.384544 0.384763
0.479339 0.473889 0.471474
0.373430 0.373350 0.371985
0.372050 0.379587 0.381613
0.493901 0.495468 0.495780
0.376396 0.377751 0.380549
0.411690 0.410128 0.406626
0.389529 0.389425 0.388845
0.483546 0.479071 0.479553
0.390728 0.389813 0.391543
0.503691 0.510130 0.507814
0.363841 0.363814 0.368939
0.406698 0.405834 0.404349
0.420605 0.420159 0.424636
0.344328 0.345991 0.350378
0.513242 0.511212 0.511289
0.359341 0.362511 0.363330
0.579944 0.580566 0.583541
0.685332 0.683965 0.690656
0.358051 0.360307 0.359739
0.449459 0.446066 0.444305
0.505540 0.507632 0.507276
0.535529 0.537689 0.536643
0.382053 0.380175 0.378981
0.392232 0.386873 0.386483
0.358882 0.358358 0.357886
0.415632 0.415650 0.411629
0.629604 0.629737 0.620655
0.400863 0.400410 0.400573
0.371323 0.370300 0.376301
0.372880 0.369917 0.370553
0.462154 0.457459 0.457087
0.336191 0.331088 0.331385
0.419572 0.420566 0.418197
0.392534 0.390934 0.395369
0.360115 0.358502 0.353104
0.496322 0.494943 0.491240
0.392492 0.389914 0.387606
0.366640 0.369733 0.369912
0.627491 0.631230 0.628858
0.372650 0.374310 0.375076
0.427937 0.429421 0.428109
0.381128 0.381307 0.377324
0.388688 0.402399 0.400959
0.366929 0.364000 0.362824
0.373452 0.374316 0.375570
0.420454 0.421356 0.427387
0.366603 0.365821 0.366183
0.410137 0.410703 0.411206
0.344943 0.346960 0.346722
0.400805 0.399232 0.400819
0.428213 0.428133 0.427667
0.482345 0.486932 0.486124
0.566901 0.567142 0.567576
0.561482 0.559344 0.557439
0.448468 0.447296 0.447360
0.370743 0.370795 0.371643
0.404610 0.402789 0.401614
0.486690 0.499175 0.497991
0.390043 0.393070 0.389572
0.535733 0.538429 0.542086
0.585811 0.581921 0.573380
0.394744 0.392302 0.390272
0.421109 0.421684 0.420143
0.384772 0.387123 0.386387
0.541171 0.543252 0.545724
0.436646 0.426908 0.424992
0.410948 0.412871 0.412331
0.365286 0.362373 0.354551
0.692077 0.697090 0.696057
0.498810 0.503001 0.503385
0.668353 0.668375 0.668703
0.485375 0.483101 0.483411
0.390708 0.391442 0.390178
0.583441 0.583609 0.578477
0.378072 0.377251 0.378696
0.380775 0.378645 0.378269
0.341953 0.344037 0.348366
0.634829 0.631886 0.635380
0.389077 0.389618 0.388945
0.438967 0.438658 0.438648
0.556377 0.555027 0.555625
0.403351 0.404783 0.405391
0.650306 0.660478 0.662775
0.546185 0.553194 0.551539
0.443215 0.442878 0.444318
0.365395 0.367136 0.378959
0.486182 0.474803 0.477628
0.422570 0.425301 0.423215
0.485607 0.481505 0.478455
0.399594 0.403269 0.404009
0.476537 0.470987 0.468632
0.508374 0.509681 0.511341
0.457448 0.457150 0.453856
0.403542 0.401287 0.400281
0.353988 0.352343 0.356953
0.381332 0.383015 0.382775
0.569717 0.571322 0.576598
0.492798 0.490568 0.488214
0.682172 0.694996 0.702902
0.470636 0.470787 0.471556
0.388416 0.392922 0.391773
0.401662 0.398932 0.400544
0.334925 0.331108 0.332798
0.390947 0.389473 0.390493
0.376822 0.376582 0.374546
0.447296 0.447360 0.443571
0.372352 0.373826 0.374584
0.474384 0.472868 0.472201
0.382827 0.382625 0.386648
0.503430 0.498126 0.496320
0.504980 0.509804 0.507742
0.432800 0.434377 0.434957
0.403871 0.402801 0.405087
0.392649 0.385186 0.379433
0.523218 0.520246 0.520376
0.496390 0.495960 0.492466
0.432357 0.434193 0.436099
0.564208 0.562037 0.569014
0.390988 0.388735 0.385450
0.417483 0.417177 0.418622
0.504379 0.508483 0.509778
0.372718 0.376518 0.378923
0.394650 0.394192 0.388159
0.521223 0.519682 0.520813
0.705391 0.707987 0.709393
0.538711 0.534833 0.534606
0.367989 0.367900 0.367342
0.554208 0.552022 0.555422
0.570461 0.568949 0.570325
0.381917 0.382280 0.384590
0.412873 0.414760 0.415632
0.378621 0.379527 0.377329
0.356864 0.356636 0.357795
0.398507 0.397564 0.396202
0.359556 0.358668 0.360057
0.412035 0.411921 0.408224
0.358218 0.359153 0.359028
0.509361 0.510544 0.509856
0.564009 0.561992 0.565273
0.401246 0.403032 0.402242
0.615206 0.616069 0.618676
0.391564 0.390609 0.390060
0.562125 0.563276 0.564209
0.640816 0.641144 0.642370
0.608071 0.605664 0.598097
0.417763 0.416382 0.417475
0.369513 0.369003 0.367925
0.573790 0.575002 0.571050
0.666448 0.662848 0.662630
0.646711 0.645047 0.644014
0.399882 0.394724 0.396706
0.495445 0.495967 0.493071
0.337625 0.340269 0.337135
0.366780 0.364946 0.365395
0.565118 0.563140 0.557752
0.357581 0.355883 0.351934
0.470591 0.470116 0.468350
0.376454 0.377796 0.384404
0.425665 0.420620 0.423353
0.412958 0.413749 0.413548
0.372195 0.373859 0.374051
0.573594 0.576343 0.594770
0.395945 0.392001 0.389366
0.391051 0.393510 0.394101
0.467111 0.466400 0.465467
0.504863 0.502329 0.501081
0.385534 0.386361 0.386653
0.332923 0.332116 0.331371
0.352552 0.351680 0.351068
0.362084 0.360773 0.360904
0.423215 0.424932 0.423986
0.457656 0.459534 0.458248
0.435056 0.425951 0.422803
0.380868 0.381528 0.386795
0.395799 0.396140 0.395308
0.469514 0.473083 0.473251
0.352679 0.352106 0.354320
0.414633 0.420454 0.421356
0.407330 0.406903 0.404949
0.566874 0.569097 0.569599
0.408150 0.405193 0.403453
0.368397 0.366619 0.367201
0.394946 0.399364 0.399354
0.523783 0.525444 0.525580
0.500173 0.497073 0.493239
0.393176 0.392858 0.392491
0.492002 0.488731 0.488886
0.378539 0.378463 0.378275
0.551804 0.550608 0.546798
0.478736 0.483149 0.482458
0.372300 0.370767 0.370383
0.575771 0.573186 0.572821
0.690301 0.688815 0.683698
0.493166 0.495893 0.496993
0.570488 0.565765 0.559642
0.377985 0.380967 0.384522
0.497972 0.497714 0.498560
0.469238 0.469782 0.467528
0.547431 0.546409 0.542725
0.520113 0.520431 0.522130
0.390782 0.390896 0.392465
0.408723 0.409043 0.408231
0.404304 0.404224 0.400658
0.422797 0.424140 0.423211
0.549008 0.543729 0.550752
0.360034 0.360469 0.357477
0.577249 0.588225 0.591831
0.517003 0.511995 0.511305
0.607754 0.606915 0.606424
0.335173 0.338340 0.339955
0.617349 0.591023 0.584680
0.527943 0.529146 0.530908
0.361998 0.363868 0.365608
0.469606 0.469577 0.469068
0.476376 0.476520 0.474580
0.526846 0.524257 0.525247
0.523320 0.520433 0.520412
0.344977 0.340937 0.336173
0.479372 0.483580 0.491700
0.394676 0.395164 0.393579
0.366785 0.363945 0.358773
0.538709 0.538544 0.531392
0.370973 0.372789 0.375559
0.577858 0.574912 0.565401
0.370739 0.373153 0.372925
0.625858 0.626299 0.627103
0.390349 0.390679 0.387408
0.430097 0.429466 0.428613
0.496249 0.493232 0.489349
0.499042 0.500388 0.499944
0.408944 0.408294 0.407480
0.574646 0.571397 0.572268
0.533328 0.536332 0.535339
0.576187 0.576276 0.572058
0.542942 0.542452 0.540565
0.418468 0.419167 0.418456
0.536322 0.533635 0.533837
0.350733 0.344553 0.342752
0.342040 0.342120 0.349458
0.439414 0.441762 0.452412
0.398000 0.403724 0.404642
0.392628 0.392476 0.392341
0.395319 0.390638 0.391227
0.552654 0.553928 0.550507
0.568213 0.566570 0.567700
0.371230 0.368231 0.368112
0.620421 0.622967 0.624660
0.345929 0.350638 0.352656
0.514372 0.514611 0.520959
0.424320 0.426206 0.427157
0.546023 0.548449 0.552939
0.364981 0.366495 0.364825
0.386881 0.384088 0.384666
0.577627 0.575924 0.577214
0.387079 0.385154 0.384890
0.546981 0.549478 0.547634
0.410640 0.413433 0.414410
0.389682 0.389631 0.388756
0.365097 0.361543 0.360578
0.440561 0.444230 0.442854
0.410856 0.408362 0.410435
0.402328 0.404294 0.403928
0.561362 0.559858 0.561793
0.343586 0.344519 0.346574
0.537684 0.545290 0.545286
0.369333 0.370358 0.375741
0.385384 0.385265 0.386465
0.570094 0.567488 0.563384
0.431925 0.430199 0.430250
0.405365 0.404276 0.399899
0.359307 0.360129 0.357497
0.345106 0.344883 0.343376
0.418967 0.422944 0.432760
0.363428 0.364428 0.365170
0.480051 0.466113 0.465800
0.661704 0.664576 0.662291
0.477531 0.479937 0.476956
0.375084 0.373873 0.374872
0.374194 0.373426 0.375105
0.366834 0.364046 0.362885
0.519194 0.521223 0.519682
0.566020 0.569080 0.567886
0.390465 0.392394 0.391565
0.523423 0.524577 0.522012
0.527958 0.528968 0.536454
0.704031 0.704770 0.704726
0.385517 0.383866 0.386231
0.401278 0.402669 0.404547
0.352670 0.354317 0.349879
0.401880 0.401395 0.401116
0.478525 0.482000 0.496573
0.369792 0.372050 0.373239
0.387563 0.383066 0.382020
0.514149 0.516828 0.532064
0.389476 0.388834 0.390640
0.370059 0.376242 0.380890
0.512785 0.504558 0.498267
0.455148 0.454358 0.455714
0.381103 0.380698 0.380062
0.560489 0.560736 0.560832
0.495941 0.498313 0.498628
0.378757 0.381386 0.378962
0.376242 0.380890 0.379386
0.393161 0.400241 0.403665
0.516015 0.521507 0.520159
0.451571 0.454870 0.454455
0.498363 0.502712 0.504271
0.526930 0.526955 0.527786
0.356747 0.359613 0.354618
0.396122 0.397554 0.398200
0.450560 0.451685 0.449586
0.512922 0.514758 0.513026
0.729446 0.729115 0.729793
0.360343 0.363447 0.363776
0.512507 0.509395 0.510854
0.359980 0.357946 0.358626
0.365895 0.364467 0.361660
0.378960 0.371934 0.374980
0.440982 0.443498 0.442394
0.426039 0.425027 0.428350
0.628708 0.626796 0.626435
0.363295 0.365196 0.365900
0.502189 0.501691 0.503772
0.387318 0.384356 0.388511
0.399932 0.401145 0.402153
0.371453 0.374469 0.374112
0.385437 0.385356 0.387074
0.413132 0.412907 0.412163
0.401575 0.397864 0.395816
0.367944 0.368614 0.368355
0.374667 0.376310 0.377096
0.332173 0.333421 0.337709
0.408582 0.410196 0.411516
0.394627 0.399469 0.399379
0.383963 0.387034 0.389205
0.392587 0.396299 0.398661
0.408555 0.406566 0.406233
0.374071 0.374216 0.375724
0.413262 0.413383 0.412037
0.351955 0.352293 0.352933
0.357216 0.354622 0.353408
0.364280 0.365307 0.366134
0.402841 0.402873 0.404162
0.563576 0.564191 0.568844
0.379818 0.380262 0.379759
0.375475 0.376086 0.378857
0.389303 0.390882 0.389332
0.386915 0.385878 0.385220
0.413811 0.414794 0.413919
0.525376 0.527826 0.528301
0.394835 0.395515 0.395116
0.626305 0.627815 0.627437
0.513112 0.516738 0.518647
0.384403 0.380987 0.379256
0.546131 0.542991 0.534012
0.638701 0.656778 0.657893
0.410564 0.412344 0.411085
0.585250 0.584555 0.587833
0.356288 0.353740 0.353667
0.645302 0.638656 0.640756
0.361890 0.365804 0.369513
0.693300 0.691277 0.689284
0.407247 0.406861 0.405417
0.468763 0.464733 0.464873
0.487629 0.489918 0.487274
0.430688 0.429725 0.425735
0.368401 0.369595 0.370770
0.568499 0.568185 0.567190
0.383820 0.380802 0.385673
0.368919 0.369749 0.370552
0.534500 0.533177 0.530712
0.378814 0.380908 0.378713
0.392500 0.386211 0.381064
0.499806 0.499725 0.503324
0.367541 0.365594 0.363739
0.546443 0.548171 0.548444
0.411021 0.410618 0.408601
0.386552 0.383054 0.376905
0.386390 0.388907 0.388035
0.381346 0.382295 0.385687
0.362444 0.361425 0.361969
0.428464 0.428617 0.432753
0.570338 0.567412 0.565860
0.573713 0.570488 0.565765
0.334716 0.335218 0.333708
0.392439 0.395274 0.395398
0.534186 0.534197 0.533734
0.390318 0.391020 0.391505
0.603693 0.598757 0.595684
0.330469 0.334603 0.333173
0.534118 0.533338 0.531483
0.349349 0.349432 0.351091
0.403533 0.404743 0.405682
0.569041 0.566202 0.565860
0.555422 0.556555 0.560449
0.427502 0.428693 0.429546
0.639647 0.638651 0.636630
0.515734 0.490136 0.488620
0.351109 0.351071 0.353309
0.490554 0.491640 0.484508
0.378035 0.374079 0.374787
0.511362 0.509554 0.506867
0.380228 0.377225 0.372464
0.359829 0.361382 0.362354
0.661481 0.663810 0.662666
0.503435 0.503020 0.504197
0.417304 0.416676 0.414473
0.466109 0.470337 0.469183
0.458346 0.458331 0.457684
0.430519 0.431647 0.432450
0.375373 0.380980 0.381600
0.364879 0.366262 0.365923
0.518746 0.519070 0.522156
0.366107 0.366800 0.368001
0.378519 0.376879 0.373928
0.416250 0.418100 0.417497
0.374272 0.377928 0.378506
0.447071 0.447930 0.446638
0.506475 0.505564 0.507346
0.387228 0.380160 0.380224
0.414428 0.414373 0.415225
0.376991 0.376872 0.377758
0.405305 0.408192 0.412686
0.352967 0.348769 0.342266
0.387018 0.390824 0.394778
0.381929 0.383828 0.384388
0.387744 0.384179 0.388215
0.389577 0.390885 0.388246
0.350365 0.350609 0.343091
0.457156 0.456816 0.457956
0.395713 0.395412 0.406859
0.409381 0.408179 0.415639
0.554824 0.551252 0.559028
0.413043 0.413424 0.412428
0.487910 0.483096 0.476626
0.359396 0.359273 0.359108
0.420118 0.420000 0.421508
0.611096 0.613153 0.615035
0.691899 0.692461 0.687843
0.371739 0.367059 0.367598
0.379042 0.381203 0.379602
0.389955 0.390425 0.388074
0.417967 0.416489 0.417016
0.381223 0.380425 0.378225
0.344256 0.342190 0.338079
0.361111 0.359775 0.359467
0.440852 0.442400 0.443212
0.391148 0.388949 0.387922
0.362595 0.361535 0.362139
0.346874 0.348492 0.347077
0.403300 0.401770 0.402722
0.338460 0.336564 0.335924
0.344048 0.345587 0.345668
0.362869 0.352345 0.350859
0.366717 0.365651 0.365076
0.379634 0.381835 0.379238
0.347016 0.344589 0.342231
0.570961 0.569145 0.567210
0.375541 0.372587 0.372339
0.381222 0.384328 0.381729
0.371776 0.372869 0.377670
0.503829 0.506541 0.508262
0.445604 0.442194 0.435921
0.381185 0.379029 0.375057
0.379087 0.378721 0.381567
0.385852 0.386482 0.386432
0.572060 0.569178 0.569540
0.448699 0.448171 0.444258
0.524500 0.528315 0.529272
0.389365 0.389814 0.389545
0.560581 0.551054 0.548471
0.502437 0.497453 0.496749
0.362759 0.362652 0.356946
0.399644 0.409202 0.416310
0.447360 0.443571 0.445844
0.390556 0.388468 0.390357
0.420734 0.424313 0.427550
0.382318 0.380363 0.383956
0.381844 0.385028 0.384212
0.400234 0.401087 0.401496
0.398667 0.399602 0.400245
0.576598 0.575206 0.573296
0.551855 0.554196 0.554052
0.392705 0.389983 0.388857
0.405969 0.399441 0.395953
0.470196 0.468877 0.463980
0.366742 0.367292 0.370199
0.376310 0.377096 0.373412
0.402629 0.403985 0.396122
0.395271 0.393108 0.390642
0.508143 0.510709 0.506929
0.373622 0.370126 0.365229
0.345880 0.346075 0.346301
0.590715 0.585811 0.581921
0.390905 0.389135 0.391546
0.634238 0.635186 0.635942
0.379029 0.378703 0.376565
0.343214 0.347012 0.346255
0.418345 0.415436 0.412420
0.556249 0.556172 0.560094
0.514556 0.503540 0.502055
0.422859 0.424448 0.422930
0.470116 0.468350 0.466164
0.485532 0.490308 0.508784
0.353716 0.353321 0.356132
0.375562 0.381840 0.381636
0.371210 0.371582 0.368731
0.582133 0.577582 0.578806
0.446798 0.450675 0.451542
0.383980 0.385821 0.388551
0.349988 0.350158 0.346997
0.355142 0.351204 0.349971
0.392939 0.396212 0.402657
0.393438 0.393176 0.391605
0.386530 0.390113 0.391332
0.681494 0.679125 0.687557
0.366534 0.363061 0.361955
0.367687 0.367994 0.368242
0.350726 0.348876 0.345452
0.354655 0.355156 0.355058
0.465290 0.477098 0.478918
0.346846 0.348469 0.350680
0.472561 0.469021 0.465921
0.392616 0.392648 0.391930
0.404450 0.412048 0.412703
0.540602 0.539989 0.544389
0.386538 0.383119 0.383382
0.496873 0.495377 0.493462
0.491801 0.492380 0.485823
0.554978 0.558571 0.563642
0.402740 0.402714 0.401405
0.481906 0.484558 0.484729
0.346834 0.356806 0.359948
0.330740 0.328903 0.328143
0.562798 0.563695 0.564471
0.396893 0.394363 0.395715
0.491605 0.490542 0.498323
0.514015 0.512995 0.502767
0.386461 0.385655 0.385213
0.571507 0.568474 0.566880
0.619461 0.617711 0.618761
0.381028 0.381010 0.379029
0.399306 0.401423 0.399090
0.464259 0.464373 0.465292
0.373534 0.377741 0.373012
0.464733 0.464873 0.461529
0.543931 0.547525 0.548402
0.384559 0.388054 0.389511
0.373310 0.371513 0.371468
0.417592 0.418673 0.419613
0.406069 0.403820 0.400796
0.354989 0.355092 0.356608
0.405833 0.405002 0.404993
0.528785 0.529666 0.531364
0.354185 0.351978 0.351140
0.612279 0.608784 0.607711
0.392619 0.397663 0.399522
0.395609 0.395467 0.394965
0.412334 0.411500 0.409050
0.342753 0.343282 0.344232
0.386275 0.388295 0.385453
0.557755 0.555810 0.555511
0.458745 0.457689 0.457718
0.399648 0.399509 0.401278
0.420921 0.420795 0.420189
0.648266 0.645282 0.643855
0.381388 0.381881 0.384002
0.393901 0.393584 0.392292
0.411501 0.411268 0.412443
0.466813 0.468755 0.471707
0.375433 0.373455 0.369341
0.449189 0.448359 0.448682
0.407268 0.404491 0.405490
0.650873 0.658138 0.660929
0.407448 0.399935 0.400042
0.361989 0.364168 0.363589
0.375428 0.376162 0.373726
0.520512 0.516034 0.513378
0.573251 0.571561 0.579944
0.366383 0.367738 0.365369
0.363793 0.366072 0.368930
0.428701 0.423955 0.422246
0.369548 0.372696 0.378041
0.654200 0.655319 0.651588
0.581535 0.582381 0.571575
0.404189 0.404387 0.404881
0.340485 0.344422 0.346874
0.570586 0.572107 0.574496
0.402153 0.405477 0.409846
0.337987 0.340142 0.337452
0.350952 0.350426 0.351299
0.379751 0.380387 0.381612
0.382857 0.380523 0.384234
0.338040 0.336805 0.339499
0.691870 0.683401 0.684592
0.380425 0.378225 0.378117
0.415622 0.418726 0.420101
0.373362 0.372889 0.373321
0.424177 0.422778 0.422544
0.496368 0.495971 0.493553
0.401785 0.401266 0.399097
0.372282 0.369586 0.367242
0.547968 0.552238 0.548693
0.394737 0.395679 0.396674
0.363476 0.357919 0.354508
0.421815 0.418462 0.418861
0.478072 0.471717 0.471677
0.425192 0.423221 0.420884
0.385857 0.384927 0.389722
0.356357 0.358323 0.353851
0.387445 0.391766 0.392678
0.372435 0.373831 0.373590
0.514906 0.512792 0.512952
0.386121 0.386275 0.388295
0.396570 0.400034 0.401636
0.366464 0.372824 0.375017
0.384991 0.385888 0.387064
0.400014 0.400603 0.398544
0.422021 0.424858 0.428620
0.387859 0.385432 0.385733
0.404123 0.392795 0.388729
0.546426 0.547015 0.544816
0.391825 0.390733 0.390039
0.570862 0.569204 0.570751
0.420075 0.414586 0.415129
0.401385 0.396532 0.399725
0.345451 0.345068 0.348634
0.374228 0.373394 0.375100
0.361439 0.358323 0.358083
0.368322 0.370790 0.371740
0.400665 0.400078 0.403045
0.359727 0.362482 0.365131
0.426322 0.425581 0.427311
0.596496 0.596425 0.593715
0.351645 0.350506 0.349045
0.502350 0.500308 0.501700
0.416489 0.417016 0.412095
0.386481 0.384125 0.385009
0.501713 0.516485 0.511437
0.410445 0.409557 0.410076
0.425970 0.422145 0.422021
0.533274 0.533389 0.531623
0.524768 0.523500 0.520320
0.617928 0.620421 0.622967
0.389670 0.392089 0.392836
0.379230 0.375861 0.375438
0.364067 0.366398 0.370633
0.617731 0.617450 0.594836
0.492268 0.492110 0.491720
0.333421 0.337709 0.342006
0.333706 0.337952 0.339770
0.400041 0.399735 0.393364
0.378857 0.379800 0.377948
0.599026 0.594527 0.596347
0.389510 0.384114 0.382944
0.589462 0.595429 0.619781
0.463578 0.465298 0.467008
0.396224 0.397214 0.394749
0.417083 0.417300 0.417489
0.561589 0.559540 0.557959
0.492243 0.492127 0.491231
0.404345 0.404299 0.403933
0.467349 0.461023 0.456938
0.405560 0.411614 0.410685
0.343901 0.343586 0.344519
0.424883 0.428431 0.424081
0.379606 0.378255 0.372614
0.471377 0.471047 0.471652
0.356671 0.357263 0.354404
0.442935 0.444409 0.446496
0.398407 0.395820 0.395591
0.327350 0.342400 0.346276
0.381257 0.385375 0.390492
0.400148 0.399307 0.400737
0.352319 0.349862 0.350245
0.382580 0.381456 0.380833
0.578234 0.577808 0.579261
0.382457 0.379964 0.381245
0.388336 0.386950 0.383544
0.565464 0.567864 0.571306
0.366619 0.367201 0.368836
0.360727 0.360134 0.357907
0.387584 0.389061 0.386483
0.511578 0.514569 0.512491
0.376701 0.391681 0.393412
0.416713 0.415054 0.415906
0.376474 0.374011 0.371353
0.380586 0.380939 0.381674
0.366643 0.367227 0.370035
0.390147 0.388546 0.383936
0.482691 0.480770 0.472775
0.448694 0.447007 0.448270
0.542682 0.542631 0.541570
0.526171 0.524482 0.524091
0.357212 0.358191 0.360243
0.392174 0.393544 0.393567
0.509965 0.508293 0.505202
0.384013 0.383865 0.382380
0.601710 0.604008 0.600969
0.371142 0.366825 0.362513
0.520027 0.522406 0.519162
0.421554 0.422865 0.421603
0.391905 0.392904 0.388443
0.469793 0.471399 0.471327
0.415641 0.412102 0.410741
0.404664 0.402461 0.397414
0.372861 0.373585 0.376024
0.373636 0.373591 0.379268
0.505935 0.507162 0.508296
0.480544 0.481921 0.483805
0.334728 0.334990 0.333775
0.482741 0.480024 0.482418
0.459149 0.457235 0.453112
0.566473 0.567228 0.566442
0.362945 0.365348 0.359910
0.378983 0.378679 0.378901
0.544897 0.544694 0.544722
0.348011 0.344649 0.348255
0.449547 0.449020 0.451386
0.496079 0.496645 0.492509
0.344375 0.343777 0.343484
0.471242 0.473857 0.476253
0.361053 0.359334 0.351526
0.571567 0.568827 0.575128
0.472870 0.473311 0.480883
0.535741 0.536165 0.536835
0.411069 0.411016 0.412510
0.447569 0.449307 0.450808
0.529761 0.518097 0.515217
0.562459 0.565664 0.564952
0.368123 0.367942 0.368331
0.366306 0.366397 0.363423
0.508765 0.509671 0.507165
0.344393 0.343755 0.344634
0.532550 0.533885 0.531800
0.367835 0.367822 0.368135
0.349926 0.355257 0.355051
0.369749 0.370552 0.368184
0.514923 0.528887 0.529716
0.340758 0.339348 0.336836
0.512974 0.513943 0.522140
0.412988 0.410130 0.411219
0.658494 0.657095 0.662865
0.428283 0.428386 0.431485
0.360846 0.357412 0.362662
0.369683 0.370619 0.369602
0.388360 0.385986 0.387282
0.350728 0.355022 0.355328
0.398996 0.396138 0.397445
0.390382 0.389593 0.388457
0.356709 0.355393 0.356620
0.368522 0.368407 0.367409
0.455410 0.455295 0.454511
0.441433 0.443764 0.447490
0.386356 0.389789 0.391703
0.439413 0.438172 0.440470
0.401032 0.401213 0.402204
0.378865 0.372810 0.370138
0.349346 0.350190 0.350208
0.390448 0.389827 0.390436
0.404574 0.401971 0.403079
0.619396 0.620296 0.617782
0.534162 0.533689 0.533737
0.513081 0.518568 0.519708
0.385325 0.381564 0.380369
0.579587 0.579967 0.581613
0.512616 0.516205 0.516947
0.435130 0.438938 0.440941
0.389731 0.386073 0.386159
0.349409 0.351519 0.354510
0.396290 0.394254 0.392113
0.348848 0.346808 0.346560
0.368976 0.372824 0.377913
0.568639 0.568452 0.565529
0.371248 0.370746 0.377473
0.347945 0.345881 0.347485
0.369708 0.368109 0.368990
0.390912 0.392830 0.396063
0.387051 0.385678 0.383733
0.405237 0.404432 0.402520
0.402855 0.403983 0.405096
0.377154 0.374225 0.374753
0.632390 0.634521 0.639995
0.554400 0.553666 0.551407
0.555194 0.558053 0.557381
0.508914 0.510558 0.503297
0.389173 0.389443 0.389372
0.563297 0.564989 0.564795
0.523304 0.521276 0.520232
0.392070 0.396730 0.398303
0.531086 0.529718 0.535634
0.359724 0.361382 0.360240
0.674530 0.673987 0.672668
0.495567 0.493181 0.497199
0.344946 0.344341 0.342204
0.568041 0.568195 0.569620
0.648191 0.649817 0.650675
0.375738 0.379468 0.381838
0.513018 0.511367 0.513081
0.399545 0.393779 0.389108
0.336789 0.341173 0.340957
0.674489 0.673952 0.673642
0.336545 0.338456 0.342365
0.398313 0.403014 0.405745
0.563483 0.562505 0.565213
0.472190 0.471244 0.468648
0.609237 0.605331 0.608738
0.379098 0.380181 0.387636
0.393156 0.391855 0.388834
0.362114 0.360593 0.357965
0.365348 0.359910 0.358799
0.379901 0.378884 0.375876
0.389167 0.391269 0.389543
0.390952 0.390540 0.391687
0.597334 0.597750 0.608882
0.408103 0.406915 0.404610
0.550291 0.554843 0.557639
0.357889 0.359381 0.365319
0.341514 0.342404 0.346547
0.513772 0.511011 0.513837
0.579947 0.578917 0.580357
0.385783 0.386260 0.384123
0.609381 0.615372 0.620660
0.395616 0.398525 0.402493
0.385494 0.383255 0.381917
0.387471 0.393334 0.390470
0.373752 0.373639 0.375882
0.500176 0.498763 0.498224
0.375938 0.375005 0.374536
0.435277 0.430930 0.424884
0.397494 0.398066 0.398019
0.382802 0.385824 0.383716
0.349779 0.349479 0.347726
0.388314 0.388657 0.389379
0.362522 0.364114 0.363195
0.367596 0.365940 0.366734
0.382944 0.383511 0.385440
0.568942 0.572304 0.570307
0.484280 0.481290 0.482677
0.385081 0.386952 0.384480
0.681382 0.677516 0.678189
0.333076 0.333013 0.332111
0.372517 0.375922 0.384702
0.394821 0.395755 0.399987
0.389118 0.390040 0.389248
0.366815 0.362596 0.364174
0.375438 0.377128 0.374216
0.409722 0.404844 0.401436
0.412453 0.413150 0.417471
0.405207 0.401306 0.396316
0.473523 0.476392 0.478952
0.464742 0.463558 0.461776
0.391675 0.390919 0.390346
0.571131 0.617276 0.623511
0.385071 0.388929 0.389289
0.353944 0.358014 0.356355
0.359746 0.360997 0.363368
0.353931 0.352624 0.354345
0.459383 0.460821 0.459775
0.451309 0.454248 0.452901
0.372559 0.371273 0.370659
0.411502 0.407901 0.411218
0.524544 0.534295 0.536097
0.688815 0.683698 0.683528
0.342608 0.343020 0.340961
0.545341 0.546340 0.545543
0.417790 0.420707 0.419572
0.371809 0.373706 0.372101
0.338567 0.338425 0.340635
0.362018 0.364356 0.368126
0.362731 0.366002 0.365895
0.374287 0.374677 0.373680
0.473458 0.481574 0.484049
0.382420 0.377978 0.378028
0.691527 0.687781 0.688178
0.656501 0.651124 0.649534
0.398176 0.398987 0.392410
0.672668 0.676704 0.674200
0.359668 0.362729 0.364115
0.476779 0.479475 0.477626
0.405845 0.405637 0.403763
0.505329 0.507522 0.509383
0.377295 0.375845 0.377370
0.383950 0.387255 0.385317
0.539212 0.542122 0.541157
0.379624 0.380660 0.382336
0.531290 0.532242 0.532379
0.344008 0.342700 0.346124
0.424572 0.422797 0.424140
0.498422 0.499010 0.491395
0.491531 0.487112 0.484630
0.503806 0.503813 0.504306
0.366331 0.366954 0.370496
0.708206 0.708994 0.705677
0.406850 0.407011 0.408119
0.486713 0.491258 0.487174
0.374320 0.372999 0.376350
0.366296 0.368498 0.369264
0.396071 0.396792 0.398191
0.387315 0.389095 0.387608
0.363601 0.365238 0.367073
0.335897 0.327948 0.324962
0.503297 0.508374 0.509681
0.518648 0.518665 0.517427
0.354782 0.352854 0.357164
0.536811 0.536599 0.531463
0.492238 0.494019 0.491944
0.418591 0.413904 0.412158
0.376007 0.379188 0.378837
0.496663 0.493811 0.491009
0.387253 0.390391 0.391037
0.388907 0.388035 0.387123
0.368770 0.368839 0.372148
0.389921 0.390231 0.387910
0.361289 0.365362 0.363967
0.496980 0.496536 0.495547
0.401620 0.399267 0.398387
0.389419 0.389947 0.389477
0.368126 0.370258 0.370613
0.417114 0.416456 0.419826
0.383681 0.384302 0.385255
0.370359 0.370308 0.369813
0.392786 0.387849 0.385746
0.383759 0.383644 0.381910
0.371641 0.373254 0.375947
0.410668 0.412194 0.409502
0.356257 0.354948 0.358907
0.342304 0.345844 0.351174
0.360697 0.360694 0.361085
0.393851 0.395979 0.397836
0.351051 0.350925 0.350870
0.447391 0.444055 0.441683
