0.246370 0.243340 0.243056
0.318127 0.318923 0.319598
0.198237 0.197666 0.197336
0.221985 0.222182 0.220262
0.288681 0.289207 0.289830
0.111202 0.110620 0.109932
0.255947 0.257849 0.259425
0.187424 0.190385 0.189686
0.225039 0.222297 0.222611
0.260477 0.260678 0.262378
0.329236 0.330125 0.332106
0.301389 0.304704 0.305117
0.302005 0.302526 0.305250
0.281084 0.281353 0.280377
0.229842 0.228462 0.228346
0.269842 0.271212 0.268874
0.162441 0.163980 0.162349
0.459056 0.459286 0.459690
0.230481 0.230134 0.243045
0.190232 0.189941 0.189375
0.178293 0.179230 0.187936
0.387934 0.391711 0.392403
0.217538 0.217726 0.211814
0.213259 0.213192 0.210719
0.178242 0.178634 0.179365
0.129804 0.129507 0.129452
0.166524 0.166074 0.163555
0.193949 0.195259 0.197106
0.217694 0.213430 0.210947
0.263123 0.262783 0.265099
0.357946 0.350085 0.344002
0.130308 0.130386 0.130354
0.354226 0.355950 0.358614
0.152543 0.147484 0.146642
0.128173 0.127530 0.128185
0.250412 0.251337 0.251778
0.152032 0.155753 0.158511
0.226476 0.226515 0.226390
0.172232 0.173514 0.170902
0.207856 0.207264 0.212650
0.146228 0.147089 0.152935
0.186026 0.186291 0.188356
0.202024 0.199220 0.198818
0.130662 0.129998 0.130065
0.353145 0.352763 0.351807
0.322720 0.323521 0.325911
0.130810 0.128881 0.128726
0.301874 0.302911 0.297350
0.372718 0.376972 0.377341
0.299653 0.303105 0.306896
0.247074 0.246846 0.246646
0.303846 0.299544 0.297555
0.162516 0.164211 0.163517
0.249280 0.248840 0.231803
0.220542 0.220389 0.220926
0.273345 0.272831 0.271785
0.186778 0.186864 0.186510
0.223564 0.223728 0.224082
0.348272 0.345063 0.346804
0.273774 0.272820 0.271842
0.332696 0.331058 0.331993
0.118906 0.119639 0.121025
0.117908 0.118017 0.116479
0.251990 0.252538 0.255922
0.309489 0.307252 0.308261
0.218837 0.219399 0.228048
0.227357 0.227280 0.228272
0.446207 0.458363 0.459097
0.236885 0.238208 0.237721
0.344124 0.337386 0.329315
0.147489 0.147965 0.148337
0.148890 0.160540 0.161816
0.331501 0.332228 0.335455
0.192240 0.191309 0.190560
0.189844 0.190294 0.190914
0.242170 0.241096 0.239062
0.192194 0.191659 0.191564
0.252034 0.252023 0.249795
0.231691 0.233610 0.234286
0.208446 0.206453 0.205855
0.327103 0.326856 0.326861
0.170163 0.161715 0.160103
0.133875 0.134563 0.134071
0.283546 0.284376 0.284356
0.301054 0.300964 0.301758
0.214248 0.209563 0.208345
0.336080 0.336632 0.337662
0.238031 0.241435 0.241501
0.323337 0.324348 0.328295
0.311775 0.313548 0.311975
0.128873 0.129026 0.128154
0.156069 0.158592 0.158550
0.198021 0.199217 0.199449
0.203393 0.203039 0.202451
0.124482 0.124971 0.125062
0.095961 0.096440 0.096426
0.230649 0.228369 0.228070
0.284589 0.286328 0.286882
0.205664 0.205208 0.205605
0.160622 0.161513 0.161211
0.234132 0.230846 0.225860
0.229288 0.229568 0.229931
0.171390 0.169604 0.169598
0.238730 0.238449 0.244410
0.266946 0.266669 0.275044
0.170697 0.170332 0.169690
0.128426 0.128416 0.130569
0.231975 0.232469 0.231863
0.212607 0.217218 0.217428
0.332720 0.317741 0.314711
0.187943 0.189916 0.189993
0.144296 0.144108 0.144122
0.158129 0.158215 0.156559
0.263874 0.256258 0.256772
0.208494 0.209124 0.209928
0.293408 0.293161 0.294668
0.153550 0.154079 0.155056
0.228626 0.229576 0.231964
0.254807 0.254064 0.253649
0.384238 0.383988 0.383564
0.288184 0.288745 0.286858
0.151804 0.152129 0.156938
0.209152 0.201688 0.201261
0.202600 0.202838 0.204072
0.298496 0.299654 0.300052
0.215637 0.218590 0.220104
0.197487 0.211169 0.210501
0.165849 0.165640 0.164761
0.283989 0.284537 0.284786
0.165778 0.167627 0.168014
0.222078 0.223941 0.223047
0.207568 0.209214 0.210121
0.168219 0.168235 0.168281
0.169011 0.169544 0.170663
0.346483 0.346240 0.346136
0.206108 0.193665 0.193292
0.155009 0.155207 0.155538
0.251096 0.250732 0.250645
0.277389 0.277521 0.277772
0.245718 0.242335 0.241455
0.184941 0.199313 0.202450
0.151959 0.151750 0.152032
0.331168 0.344978 0.338053
0.170282 0.173069 0.175257
0.266401 0.265893 0.265634
0.238719 0.238655 0.238575
0.121894 0.122152 0.126654
0.222987 0.222320 0.222587
0.213572 0.207739 0.205957
0.250856 0.261503 0.266329
0.199987 0.200108 0.200096
0.253157 0.252704 0.253504
0.149329 0.149222 0.148902
0.187678 0.184895 0.185531
0.197282 0.197540 0.199527
0.324424 0.321932 0.329456
0.311499 0.318033 0.319618
0.247448 0.251801 0.252039
0.334799 0.333341 0.332956
0.336135 0.335925 0.337637
0.242561 0.243020 0.244545
0.146642 0.146528 0.148635
0.201542 0.202444 0.202570
0.138979 0.133316 0.106463
0.242501 0.242710 0.242008
0.302931 0.303756 0.303839
0.241097 0.240764 0.241161
0.252524 0.258054 0.257087
0.305399 0.305468 0.307966
0.258129 0.257530 0.256706
0.205417 0.205195 0.205085
0.334036 0.334344 0.335351
0.265372 0.265615 0.265600
0.208729 0.209331 0.211973
0.258251 0.258961 0.258541
0.233121 0.233046 0.232831
0.351671 0.351976 0.352783
0.339280 0.338853 0.337977
0.292104 0.289145 0.289416
0.200422 0.200694 0.201018
0.298665 0.298542 0.294730
0.319875 0.307828 0.307536
0.192709 0.193845 0.193676
0.162752 0.162553 0.164025
0.153931 0.160596 0.161014
0.146700 0.146667 0.148366
0.147215 0.146894 0.146793
0.257831 0.261318 0.261309
0.323964 0.323358 0.318183
0.318699 0.314452 0.317244
0.193939 0.191359 0.190432
0.210090 0.209678 0.207895
0.238393 0.231350 0.231779
0.156365 0.151819 0.152014
0.276816 0.276789 0.281068
0.247889 0.248246 0.248597
0.210185 0.213947 0.214413
0.223196 0.223326 0.222913
0.190196 0.194289 0.195865
0.164759 0.164747 0.164265
0.149589 0.149859 0.149623
0.161236 0.161366 0.161292
0.181350 0.181135 0.180707
0.154941 0.154277 0.154394
0.225724 0.225978 0.225878
0.245519 0.245529 0.244513
0.208428 0.208450 0.208984
0.281904 0.282140 0.281632
0.157822 0.157021 0.154693
0.265694 0.267730 0.267733
0.272736 0.271426 0.268550
0.245306 0.245264 0.245211
0.149154 0.148925 0.153218
0.208355 0.206206 0.205323
0.234994 0.235032 0.234838
0.234459 0.235462 0.235390
0.203169 0.202714 0.205896
0.162890 0.160776 0.160852
0.319216 0.319357 0.319092
0.227169 0.227381 0.227580
0.353608 0.352588 0.351518
0.127844 0.128330 0.127886
0.284519 0.283220 0.283246
0.310793 0.308995 0.305453
0.132506 0.129127 0.130927
0.192570 0.193954 0.207857
0.278121 0.278517 0.280525
0.292845 0.292956 0.293341
0.231612 0.238098 0.238478
0.150571 0.150880 0.152071
0.318033 0.319618 0.318341
0.195123 0.195444 0.195420
0.175386 0.175285 0.172964
0.155101 0.155169 0.154133
0.293241 0.293045 0.292799
0.194976 0.195570 0.196494
0.283416 0.291990 0.288321
0.143852 0.144243 0.145239
0.092840 0.092604 0.092810
0.277447 0.277017 0.277852
0.212443 0.212224 0.211043
0.233932 0.239560 0.239294
0.212699 0.214120 0.208864
0.192205 0.191956 0.191030
0.335237 0.333914 0.332157
0.341473 0.337273 0.336786
0.255794 0.251322 0.250162
0.155284 0.155319 0.155187
0.301371 0.301245 0.300082
0.329444 0.329642 0.325667
0.137436 0.137383 0.134594
0.259628 0.258291 0.251292
0.323854 0.322416 0.319741
0.210977 0.214226 0.233424
0.260767 0.260451 0.256472
0.158191 0.158774 0.159132
0.169346 0.169283 0.169803
0.217991 0.218615 0.218246
0.170528 0.171105 0.172341
0.184578 0.182447 0.182935
0.131211 0.130634 0.130469
0.229931 0.229827 0.229780
0.263960 0.263895 0.264236
0.229644 0.233667 0.232866
0.192978 0.194033 0.194162
0.275254 0.277210 0.277350
0.194857 0.196294 0.195676
0.173683 0.170253 0.169907
0.266670 0.256025 0.258779
0.263988 0.265319 0.265845
0.381781 0.382072 0.381749
0.199464 0.197804 0.198326
0.212236 0.212569 0.209715
0.175578 0.176075 0.176157
0.160300 0.159912 0.149712
0.297160 0.296723 0.297081
0.148234 0.148786 0.148779
0.175257 0.176013 0.176125
0.246877 0.250528 0.248477
0.204524 0.235462 0.258108
0.320651 0.321616 0.320290
0.147176 0.147651 0.148038
0.251013 0.283068 0.286676
0.168242 0.169872 0.167642
0.220987 0.221895 0.228683
0.154249 0.153366 0.153224
0.213065 0.213110 0.212208
0.208807 0.206019 0.206710
0.198908 0.191175 0.190390
0.277377 0.275078 0.275084
0.301653 0.301367 0.301719
0.314939 0.314097 0.310374
0.295739 0.298148 0.300830
0.154646 0.154894 0.155398
0.323229 0.320344 0.323019
0.242364 0.242513 0.241805
0.232284 0.232663 0.233723
0.206585 0.206222 0.197335
0.308726 0.308232 0.308049
0.136391 0.134604 0.133115
0.236245 0.237886 0.237665
0.223758 0.218575 0.225807
0.266763 0.266457 0.263983
0.161886 0.162165 0.162587
0.175272 0.175209 0.174390
0.169694 0.172665 0.172125
0.216305 0.216478 0.216348
0.295911 0.296102 0.296135
0.230202 0.226866 0.226954
0.201064 0.200572 0.200355
0.229819 0.225663 0.225489
0.281778 0.281751 0.281129
0.201820 0.202438 0.202221
0.304318 0.301019 0.299850
0.203107 0.203262 0.203488
0.294789 0.294125 0.290277
0.261236 0.265474 0.267729
0.264598 0.264919 0.266321
0.271376 0.269408 0.269851
0.259742 0.262692 0.262040
0.154262 0.154271 0.153617
0.305039 0.304735 0.304109
0.195643 0.198193 0.200261
0.167039 0.166630 0.167965
0.319806 0.313645 0.313341
0.289830 0.288908 0.287423
0.216630 0.215230 0.212899
0.254407 0.251561 0.242820
0.288275 0.282566 0.281792
0.242049 0.240410 0.239131
0.234425 0.233398 0.231524
0.209464 0.209548 0.209646
0.229753 0.230925 0.233574
0.346075 0.343826 0.342000
0.213296 0.212899 0.212890
0.439386 0.431221 0.429875
0.244484 0.244132 0.241255
0.163673 0.163345 0.162968
0.348572 0.348057 0.343872
0.223701 0.223504 0.223305
0.264310 0.264629 0.279430
0.204265 0.203793 0.204405
0.131293 0.132082 0.134833
0.181921 0.193780 0.194003
0.199106 0.201880 0.203821
0.271559 0.272305 0.273180
0.341677 0.341364 0.340889
0.320898 0.321134 0.325854
0.203072 0.206746 0.206676
0.240885 0.245979 0.247255
0.152073 0.147573 0.147417
0.216359 0.215660 0.215376
0.316171 0.317550 0.319219
0.221524 0.222673 0.221074
0.205040 0.204563 0.203682
0.167522 0.167158 0.169154
0.282853 0.278057 0.277337
0.258827 0.260497 0.261669
0.120982 0.122422 0.122862
0.151865 0.151054 0.149791
0.136009 0.135560 0.135420
0.270600 0.270947 0.272122
0.322923 0.321811 0.324110
0.254544 0.255239 0.254203
0.201371 0.201740 0.202166
0.230415 0.228294 0.226570
0.305760 0.301054 0.300964
0.470708 0.472194 0.472999
0.211939 0.211817 0.210650
0.241169 0.241358 0.241377
0.205562 0.203516 0.206233
0.294766 0.295895 0.297508
0.293033 0.292218 0.292010
0.234154 0.234418 0.231199
0.266932 0.266786 0.266542
0.293598 0.293602 0.294606
0.197898 0.198005 0.198276
0.337854 0.340462 0.339624
0.374627 0.363842 0.359669
0.356151 0.356311 0.357428
0.379146 0.378943 0.381795
0.211106 0.209930 0.216476
0.199327 0.198926 0.196864
0.373942 0.377061 0.377045
0.322416 0.319741 0.322740
0.227191 0.228046 0.219238
0.227783 0.228209 0.238029
0.211686 0.211714 0.211729
0.203889 0.204322 0.206350
0.268952 0.268534 0.267994
0.235032 0.234838 0.234656
0.223437 0.226615 0.225547
0.255846 0.258206 0.255325
0.154132 0.154313 0.158224
0.287223 0.284930 0.284840
0.321995 0.322300 0.323273
0.243360 0.228741 0.225658
0.096671 0.096771 0.098052
0.321652 0.319098 0.316994
0.233637 0.233140 0.234134
0.179490 0.179218 0.178182
0.198539 0.198921 0.199288
0.206153 0.206161 0.206126
0.333550 0.344428 0.345340
0.182398 0.182299 0.181894
0.356933 0.363226 0.364937
0.248770 0.249364 0.244013
0.145703 0.145389 0.146576
0.231835 0.231853 0.232399
0.306543 0.311355 0.317046
0.302953 0.296712 0.296996
0.241024 0.240258 0.239003
0.271387 0.271578 0.271647
0.320528 0.323206 0.321925
0.162254 0.162569 0.162670
0.258747 0.259121 0.255257
0.372822 0.371768 0.371641
0.284106 0.283369 0.277337
0.195601 0.190607 0.194665
0.229891 0.226549 0.226315
0.251771 0.251647 0.250122
0.241059 0.243367 0.243239
0.308814 0.308540 0.309928
0.226100 0.224225 0.223799
0.334646 0.335356 0.337227
0.159257 0.158473 0.157950
0.351380 0.352719 0.351366
0.135787 0.135762 0.136012
0.228138 0.228097 0.238422
0.208266 0.206787 0.206652
0.219007 0.213346 0.209440
0.311501 0.309957 0.309938
0.234295 0.233057 0.233097
0.204277 0.203273 0.203406
0.280430 0.280076 0.279058
0.286097 0.285469 0.284247
0.229809 0.229727 0.229725
0.267353 0.263823 0.263046
0.305332 0.305980 0.308362
0.242634 0.244658 0.249077
0.211026 0.213259 0.213192
0.349883 0.353071 0.352112
0.499303 0.478930 0.480562
0.300334 0.298995 0.297266
0.324628 0.325576 0.324942
0.298832 0.298665 0.298542
0.222270 0.222584 0.227322
0.192254 0.193465 0.193986
0.247072 0.245570 0.245208
0.162563 0.162549 0.163888
0.300317 0.301874 0.302911
0.318694 0.319216 0.319357
0.167153 0.166360 0.166048
0.244635 0.252491 0.252874
0.308484 0.309075 0.308567
0.189784 0.186750 0.187038
0.239958 0.236854 0.236023
0.335071 0.329068 0.328939
0.229186 0.230290 0.235991
0.200694 0.201018 0.201469
0.292726 0.292324 0.292618
0.327135 0.323301 0.329453
0.245705 0.248157 0.251691
0.241618 0.241522 0.239782
0.147052 0.146807 0.146947
0.194322 0.194181 0.194300
0.455311 0.454316 0.444257
0.298184 0.297160 0.296723
0.232981 0.231524 0.229968
0.330549 0.328282 0.328956
0.402303 0.399605 0.388149
0.198233 0.198080 0.198997
0.215833 0.217508 0.217164
0.211619 0.211057 0.206522
0.149199 0.147181 0.152399
0.300336 0.298957 0.297773
0.235184 0.233806 0.236683
0.172674 0.172494 0.173908
0.190513 0.189189 0.184253
0.350734 0.350130 0.343511
0.275023 0.274893 0.276088
0.333954 0.337146 0.338540
0.199346 0.198221 0.198113
0.228540 0.229436 0.228320
0.229900 0.229255 0.229740
0.208988 0.207591 0.205382
0.235510 0.234122 0.234185
0.214557 0.215129 0.215406
0.158292 0.159539 0.160418
0.133261 0.133125 0.132260
0.212698 0.212482 0.212462
0.230116 0.230716 0.228858
0.384971 0.384863 0.395065
0.271436 0.272667 0.275799
0.328848 0.332356 0.332138
0.198119 0.198328 0.198384
0.095954 0.095900 0.096561
0.346029 0.349813 0.344293
0.243897 0.243572 0.242280
0.358666 0.358943 0.360674
0.145597 0.149483 0.149079
0.221381 0.221121 0.221869
0.193120 0.193035 0.193218
0.236703 0.235377 0.232245
0.167592 0.166549 0.166934
0.235763 0.236568 0.239040
0.158226 0.153765 0.152995
0.247840 0.246807 0.244094
0.204742 0.210538 0.210324
0.280268 0.256886 0.257988
0.360073 0.361782 0.369723
0.285186 0.284829 0.288836
0.257697 0.257179 0.256812
0.174976 0.175404 0.176275
0.180119 0.180169 0.179189
0.209311 0.217522 0.217271
0.319561 0.308060 0.306706
0.305370 0.305834 0.307998
0.351895 0.350692 0.350093
0.241998 0.241784 0.240022
0.229548 0.228044 0.225872
0.203277 0.203288 0.203107
0.196212 0.199226 0.199437
0.247090 0.247365 0.247301
0.231853 0.232399 0.230481
0.213148 0.212456 0.212225
0.175997 0.176541 0.181188
0.219945 0.219684 0.219559
0.269947 0.269765 0.267571
0.212079 0.210149 0.212495
0.267419 0.267322 0.266407
0.190014 0.188336 0.188165
0.190245 0.190099 0.190056
0.188876 0.189742 0.190657
0.216174 0.217538 0.225454
0.289868 0.287969 0.288685
0.254607 0.255198 0.257362
0.157159 0.157462 0.157106
0.200775 0.201203 0.201671
0.184887 0.185322 0.187414
0.294146 0.289693 0.290320
0.354238 0.352534 0.356825
0.209208 0.209525 0.217381
0.183855 0.183930 0.184489
0.322320 0.320067 0.320656
0.316973 0.317817 0.316374
0.210124 0.211125 0.206513
0.197867 0.194584 0.194693
0.209915 0.212741 0.214012
0.248163 0.247049 0.238548
0.253001 0.254267 0.254579
0.149717 0.150254 0.151737
0.195723 0.195902 0.192520
0.265637 0.265848 0.267481
0.330754 0.334407 0.328899
0.328026 0.328038 0.327798
0.206275 0.205620 0.205058
0.275347 0.273242 0.272449
0.205328 0.214871 0.215974
0.159051 0.159034 0.158843
0.134935 0.136469 0.137471
0.383566 0.379035 0.379618
0.204665 0.214770 0.215481
0.240769 0.243815 0.242852
0.207385 0.207535 0.207684
0.124294 0.123473 0.123363
0.223555 0.230465 0.229719
0.381749 0.383016 0.382295
0.343787 0.342890 0.339615
0.188699 0.189383 0.189223
0.137549 0.149175 0.150152
0.156894 0.156544 0.151175
0.297583 0.293027 0.292946
0.323584 0.324605 0.325715
0.203871 0.203246 0.202584
0.211744 0.212012 0.211245
0.307445 0.308014 0.311811
0.235683 0.233590 0.233270
0.270278 0.271201 0.271518
0.204689 0.204838 0.205226
0.313579 0.315520 0.315748
0.254628 0.255021 0.255649
0.199515 0.202082 0.201809
0.251804 0.250895 0.250703
0.299955 0.302314 0.304235
0.199202 0.199172 0.201925
0.179416 0.179536 0.177429
0.287168 0.288395 0.283434
0.217996 0.217387 0.217790
0.292312 0.291294 0.282394
0.226910 0.227072 0.226753
0.437992 0.437932 0.439555
0.211435 0.232373 0.233872
0.301803 0.301220 0.301026
0.378072 0.375115 0.377399
0.382647 0.382898 0.382466
0.182825 0.193845 0.193864
0.281682 0.286324 0.287842
0.199931 0.201900 0.210487
0.146113 0.144999 0.143618
0.202521 0.202780 0.202383
0.199512 0.199475 0.197428
0.324724 0.335828 0.336707
0.162698 0.162718 0.162858
0.263905 0.265244 0.266013
0.207769 0.206929 0.206536
0.125009 0.125064 0.125599
0.158545 0.158658 0.158499
0.168619 0.169225 0.168717
0.206578 0.205759 0.207035
0.440117 0.441200 0.441609
0.319535 0.320206 0.322720
0.165217 0.163488 0.163486
0.305814 0.307681 0.308314
0.328027 0.327180 0.324642
0.351875 0.352560 0.353778
0.321983 0.324225 0.323986
0.167668 0.167263 0.167080
0.241761 0.240533 0.241086
0.152935 0.153336 0.152847
0.223982 0.223250 0.222323
0.222710 0.224478 0.227077
0.172459 0.172897 0.173066
0.161731 0.162733 0.163949
0.197269 0.195906 0.196041
0.203429 0.203569 0.203861
0.300466 0.299487 0.296687
0.218388 0.216561 0.217205
0.307301 0.308056 0.306929
0.372880 0.371929 0.371741
0.282634 0.282281 0.283163
0.300575 0.298864 0.297757
0.345535 0.348200 0.349878
0.211919 0.210921 0.210367
0.148471 0.149652 0.150177
0.200120 0.201937 0.201827
0.202030 0.203728 0.202653
0.223845 0.222316 0.222126
0.225092 0.225284 0.225140
0.161803 0.177452 0.177362
0.216996 0.218889 0.220620
0.165777 0.165663 0.165497
0.206269 0.211691 0.212306
0.134576 0.134635 0.134626
0.213432 0.214315 0.214437
0.379737 0.381716 0.381912
0.162718 0.162858 0.162727
0.235406 0.231433 0.231280
0.193365 0.194440 0.196178
0.328963 0.328547 0.326315
0.233985 0.233989 0.231531
0.151471 0.151627 0.155221
0.184344 0.184309 0.184177
0.170948 0.170941 0.170970
0.282623 0.282799 0.287890
0.211138 0.211275 0.203847
0.188657 0.185544 0.184797
0.185862 0.185495 0.185133
0.190560 0.190374 0.190285
0.131410 0.131167 0.129362
0.132758 0.132895 0.132394
0.311033 0.305832 0.304925
0.290127 0.287699 0.286700
0.266130 0.263028 0.262735
0.306311 0.306557 0.302625
0.198241 0.198819 0.198947
0.199954 0.199795 0.200143
0.190942 0.193838 0.193595
0.159837 0.160220 0.160558
0.224115 0.225101 0.225386
0.257041 0.256666 0.258277
0.152529 0.152345 0.152608
0.199719 0.199452 0.199284
0.221923 0.217807 0.217228
0.281109 0.281625 0.281314
0.142491 0.142811 0.143943
0.203124 0.203563 0.203712
0.215898 0.215267 0.202053
0.224550 0.222052 0.221195
0.244094 0.244264 0.255232
0.210075 0.211157 0.217894
0.195776 0.197977 0.200268
0.243379 0.242006 0.239603
0.263590 0.263075 0.263005
0.248868 0.249262 0.250245
0.177306 0.168755 0.169663
0.193608 0.193175 0.197587
0.289044 0.286499 0.287163
0.204012 0.204285 0.206931
0.245453 0.244377 0.244252
0.178621 0.162290 0.161676
0.182834 0.181441 0.181411
0.208804 0.208452 0.207985
0.211308 0.208184 0.208073
0.150921 0.150828 0.150550
0.285274 0.284935 0.284847
0.294998 0.295305 0.298563
0.241096 0.239062 0.238741
0.157934 0.158352 0.158739
0.244738 0.243153 0.243410
0.210745 0.210514 0.217738
0.216931 0.216914 0.219955
0.384018 0.384043 0.383934
0.148866 0.148416 0.147078
0.210585 0.211534 0.214482
0.226084 0.231563 0.232176
0.285595 0.285087 0.292546
0.189992 0.189959 0.183828
0.230648 0.230408 0.230786
0.166524 0.165280 0.165007
0.156767 0.158200 0.159154
0.128154 0.127877 0.127551
0.248419 0.248579 0.247976
0.382898 0.382466 0.382240
0.295682 0.295276 0.296556
0.134255 0.133662 0.129342
0.350474 0.348510 0.349241
0.159042 0.155500 0.155478
0.202597 0.201983 0.203499
0.263769 0.262876 0.265939
0.203159 0.207583 0.208251
0.300616 0.297449 0.322921
0.165460 0.165295 0.165519
0.255295 0.255534 0.254582
0.182569 0.182336 0.182368
0.201475 0.202892 0.202903
0.415997 0.416762 0.410587
0.134631 0.134625 0.134771
0.204472 0.204375 0.206652
0.165738 0.165513 0.165469
0.194379 0.188410 0.188669
0.266254 0.266169 0.265522
0.192381 0.190090 0.188709
0.281931 0.282421 0.280712
0.259749 0.261899 0.274633
0.305678 0.305370 0.305834
0.256861 0.256100 0.261010
0.231954 0.231728 0.231973
0.352114 0.351361 0.352539
0.197542 0.197868 0.199433
0.203821 0.204396 0.208483
0.333787 0.335241 0.338958
0.172107 0.172780 0.171901
0.199437 0.196551 0.203288
0.130099 0.130017 0.130058
0.127104 0.127331 0.127030
0.130015 0.136052 0.136130
0.188094 0.188211 0.187933
0.123978 0.124628 0.121062
0.172244 0.166955 0.166140
0.255700 0.259480 0.260797
0.256823 0.259863 0.261380
0.190009 0.190616 0.193580
0.256900 0.255489 0.260468
0.154663 0.154372 0.150053
0.185546 0.185620 0.187204
0.217558 0.217823 0.217940
0.242764 0.242632 0.242900
0.130792 0.131259 0.130941
0.307874 0.311141 0.311190
0.129715 0.129433 0.130130
0.199462 0.199590 0.199807
0.281170 0.284277 0.285355
0.192018 0.191898 0.193940
0.178455 0.176517 0.175630
0.292879 0.293041 0.293377
0.329043 0.335300 0.337316
0.245614 0.245965 0.245694
0.306469 0.304786 0.302633
0.329660 0.329558 0.330758
0.290266 0.289383 0.289230
0.143857 0.143955 0.143727
0.261388 0.263112 0.264343
0.213785 0.214900 0.214259
0.134578 0.130486 0.130281
0.374119 0.374854 0.375378
0.204947 0.205047 0.204749
0.146808 0.144496 0.139308
0.282344 0.284764 0.284614
0.248367 0.245490 0.246748
0.207617 0.208096 0.212107
0.127557 0.128330 0.128284
0.246220 0.246496 0.246776
0.125086 0.123792 0.123830
0.205502 0.205528 0.199007
0.143178 0.140609 0.140931
0.241514 0.240576 0.240897
0.304568 0.309515 0.309062
0.197419 0.198930 0.199433
0.423863 0.421718 0.420245
0.350773 0.350308 0.349494
0.144393 0.144291 0.144415
0.206529 0.205690 0.199521
0.210043 0.201706 0.200297
0.237046 0.237487 0.240028
0.252833 0.253431 0.253567
0.261467 0.262196 0.257526
0.238239 0.237461 0.231603
0.235770 0.236721 0.237543
0.205601 0.204004 0.204479
0.282630 0.274647 0.282276
0.179357 0.179103 0.176442
0.199014 0.199223 0.199170
0.167030 0.167358 0.168031
0.205637 0.204644 0.199382
0.361233 0.352871 0.354882
0.221317 0.220025 0.219726
0.208587 0.208310 0.206990
0.247458 0.247175 0.245134
0.303950 0.310971 0.310383
0.276110 0.276451 0.276634
0.211775 0.210047 0.211584
0.266428 0.265325 0.257460
0.298403 0.297052 0.298984
0.247802 0.247820 0.247989
0.240026 0.240048 0.241097
0.253119 0.249503 0.245342
0.307952 0.308394 0.308447
0.172246 0.170984 0.155227
0.260604 0.259986 0.259691
0.134015 0.134116 0.133943
0.255372 0.257127 0.256919
0.152324 0.153612 0.154808
0.266768 0.266751 0.266386
0.181242 0.181198 0.181105
0.219823 0.218090 0.218787
0.205249 0.205384 0.206198
0.433575 0.438195 0.440033
0.300623 0.299882 0.299536
0.294742 0.294566 0.293700
0.157093 0.156727 0.151198
0.287002 0.286971 0.286403
0.262318 0.264318 0.265082
0.214812 0.214539 0.215718
0.216422 0.217493 0.214760
0.194942 0.193342 0.189729
0.272867 0.271324 0.270745
0.274611 0.275230 0.277400
0.235436 0.231954 0.231728
0.317974 0.318369 0.319067
0.202573 0.202307 0.202359
0.190740 0.192091 0.192499
0.283783 0.284167 0.284216
0.312862 0.308615 0.308450
0.333466 0.340338 0.341799
0.295712 0.296896 0.299631
0.311665 0.314852 0.322764
0.187933 0.184577 0.193173
0.469734 0.469628 0.476949
0.133226 0.133040 0.132446
0.268731 0.267349 0.270589
0.209025 0.208772 0.208390
0.206354 0.205624 0.200178
0.173918 0.173797 0.173769
0.270694 0.268698 0.266995
0.322626 0.330552 0.328718
0.215637 0.216265 0.217754
0.222091 0.220229 0.220307
0.281409 0.282344 0.284764
0.130757 0.130403 0.128623
0.189319 0.189613 0.194802
0.272338 0.267951 0.267972
0.245412 0.244723 0.244009
0.308729 0.308492 0.308812
0.181553 0.183799 0.193999
0.229483 0.232502 0.225958
0.285248 0.285035 0.285101
0.277530 0.270408 0.269482
0.128227 0.128741 0.128934
0.193050 0.192986 0.195079
0.181002 0.180600 0.177764
0.340731 0.341258 0.342058
0.224403 0.223896 0.222295
0.203844 0.203685 0.202291
0.265233 0.270687 0.267930
0.203476 0.204264 0.205066
0.287134 0.286866 0.286147
0.146935 0.146569 0.146169
0.285711 0.280073 0.279309
0.313793 0.314410 0.311655
0.192466 0.192302 0.191690
0.134400 0.135093 0.136356
0.155663 0.155734 0.155495
0.183814 0.184289 0.189645
0.171352 0.173608 0.172253
0.393706 0.386475 0.385826
0.273629 0.273770 0.273986
0.194630 0.194149 0.195950
0.375991 0.377049 0.376987
0.168755 0.169663 0.171991
0.220280 0.222448 0.224639
0.256048 0.255873 0.255256
0.165871 0.164687 0.163553
0.175273 0.176982 0.178603
0.170431 0.173732 0.174601
0.213644 0.215757 0.216131
0.322282 0.315997 0.317130
0.273124 0.274031 0.275086
0.148999 0.150763 0.151548
0.289355 0.294697 0.294811
0.322208 0.324852 0.328217
0.202642 0.202390 0.200845
0.208639 0.208919 0.210514
0.140447 0.145745 0.146348
0.228413 0.227583 0.226560
0.176839 0.176602 0.173811
0.221272 0.221017 0.219722
0.341502 0.341336 0.342231
0.308223 0.306958 0.305389
0.108279 0.108952 0.114342
0.222700 0.222327 0.221570
0.311812 0.312161 0.312128
0.187158 0.186873 0.186460
0.281564 0.280664 0.279076
0.252887 0.253576 0.253048
0.206527 0.205461 0.205249
0.341985 0.339870 0.338802
0.461146 0.461368 0.465035
0.117646 0.117740 0.118342
0.252188 0.253207 0.253545
0.206177 0.208378 0.208785
0.266049 0.267410 0.267945
0.263659 0.262614 0.262026
0.163347 0.160099 0.160115
0.257227 0.257222 0.255672
0.228280 0.226998 0.214301
0.240703 0.240992 0.247078
0.201688 0.201261 0.200157
0.282962 0.292009 0.292933
0.242280 0.241863 0.239195
0.175374 0.169078 0.168265
0.202403 0.202669 0.202924
0.216345 0.216611 0.215599
0.392823 0.392807 0.389324
0.192223 0.187308 0.187458
0.238636 0.239066 0.237774
0.164275 0.164352 0.163757
0.235100 0.235657 0.235314
0.211554 0.211025 0.210667
0.193527 0.193825 0.194089
0.234971 0.235418 0.232523
0.290013 0.289800 0.290017
0.123688 0.123437 0.123375
0.235864 0.235148 0.232204
0.299581 0.299142 0.297628
0.200684 0.200271 0.198595
0.234230 0.232888 0.233096
0.169911 0.168005 0.162538
0.276998 0.276854 0.276935
0.376135 0.373578 0.373942
0.220015 0.220978 0.237735
0.238484 0.238931 0.238088
0.242334 0.238692 0.235472
0.217013 0.213808 0.213967
0.162235 0.162407 0.159793
0.196171 0.196187 0.196364
0.232563 0.232409 0.223400
0.225029 0.227025 0.228294
0.166391 0.166865 0.171371
0.210609 0.207602 0.207075
0.161372 0.158930 0.161349
0.307011 0.307896 0.311306
0.292522 0.297819 0.294969
0.315458 0.316537 0.320869
0.296425 0.296318 0.297328
0.270879 0.270136 0.268176
0.235042 0.235427 0.236875
0.237910 0.236245 0.237886
0.346709 0.344096 0.343422
0.204133 0.209371 0.207637
0.320084 0.321830 0.322147
0.244456 0.244645 0.250304
0.228668 0.228630 0.222200
0.150254 0.151737 0.152991
0.120608 0.120576 0.120501
0.162877 0.160774 0.160846
0.314792 0.315044 0.313688
0.252452 0.254951 0.258158
0.175661 0.175586 0.175511
0.235391 0.231913 0.231430
0.131289 0.130170 0.130288
0.185200 0.186148 0.185533
0.238056 0.236628 0.237262
0.293029 0.288354 0.287859
0.261630 0.261828 0.262200
0.207274 0.207917 0.208783
0.118129 0.121820 0.123539
0.209600 0.209705 0.211452
0.175973 0.181794 0.182081
0.249076 0.248574 0.248272
0.272982 0.274470 0.273626
0.151477 0.152664 0.159049
0.189724 0.186184 0.184508
0.207529 0.208012 0.208627
0.226675 0.226402 0.226100
0.298371 0.297307 0.293761
0.148253 0.148257 0.148482
0.284358 0.284239 0.283686
0.213716 0.221661 0.222180
0.353042 0.351208 0.348909
