0.128945 0.129200 0.127450
0.168293 0.169356 0.171154
0.192677 0.192184 0.196899
0.130191 0.131080 0.130279
0.204522 0.202025 0.201832
0.144513 0.143847 0.143536
0.110609 0.111276 0.110492
0.111874 0.113366 0.115708
0.114755 0.114939 0.115363
0.114575 0.115252 0.115563
0.118937 0.118825 0.118843
0.123759 0.123996 0.124681
0.136440 0.135693 0.135235
0.113789 0.114446 0.114530
0.122447 0.120302 0.119309
0.138959 0.138346 0.136616
0.131113 0.132102 0.132868
0.136854 0.135959 0.134319
0.128225 0.127664 0.127330
0.135825 0.135637 0.132534
0.125247 0.127412 0.127460
0.131119 0.131267 0.131241
0.121698 0.123265 0.121977
0.111655 0.111889 0.112527
0.136154 0.137233 0.136930
0.139518 0.139267 0.139764
0.111992 0.112293 0.112182
0.146001 0.146134 0.146143
0.131259 0.130950 0.128056
0.132657 0.131767 0.131402
0.128854 0.130579 0.130882
0.129760 0.131982 0.132126
0.149453 0.148771 0.147169
0.140090 0.140815 0.140393
0.114980 0.114840 0.114105
0.131359 0.131550 0.131573
0.114417 0.114463 0.114357
0.141057 0.141319 0.141219
0.136349 0.135898 0.135527
0.103819 0.104712 0.104844
0.111926 0.111438 0.111525
0.135106 0.135894 0.136529
0.127119 0.126340 0.126270
0.139905 0.139898 0.140970
0.165632 0.164806 0.164823
0.152461 0.152797 0.152395
0.124911 0.124865 0.122360
0.109987 0.109331 0.109091
0.136415 0.136603 0.136654
0.122749 0.122708 0.121934
0.127439 0.127333 0.127491
0.171197 0.171258 0.170084
0.120503 0.121041 0.122406
0.146329 0.146637 0.145722
0.124412 0.123958 0.123525
0.129229 0.128131 0.129035
0.133471 0.133771 0.134301
0.128163 0.127234 0.127631
0.137132 0.138684 0.139663
0.201654 0.201792 0.201621
0.131484 0.131451 0.131179
0.123454 0.123935 0.124592
0.115263 0.114310 0.113959
0.126248 0.127110 0.127455
0.128678 0.129113 0.128496
0.134749 0.135433 0.135403
0.124203 0.124233 0.124801
0.128728 0.128400 0.128793
0.135355 0.135747 0.134824
0.111202 0.111005 0.111047
0.132014 0.132813 0.132965
0.143320 0.143077 0.142821
0.135954 0.135834 0.135663
0.128085 0.127749 0.127584
0.142886 0.141403 0.141053
0.136831 0.136992 0.136181
0.113282 0.112856 0.112605
0.130166 0.130030 0.129635
0.118472 0.118702 0.118898
0.123751 0.123007 0.123039
0.129861 0.130473 0.130596
0.132622 0.131358 0.131506
0.108711 0.108331 0.108197
0.151049 0.151395 0.151206
0.148694 0.148373 0.148283
0.122493 0.122341 0.120265
0.118169 0.117945 0.117624
0.145899 0.145247 0.144319
0.114789 0.116128 0.115831
0.133189 0.133050 0.134314
0.115794 0.117281 0.117289
0.151327 0.151796 0.151731
0.128892 0.128610 0.128853
0.117611 0.117309 0.116442
0.122855 0.124642 0.125183
0.132263 0.132424 0.132155
0.129874 0.131255 0.130644
0.152611 0.152115 0.152027
0.140331 0.141347 0.140886
0.133381 0.135754 0.136528
0.127023 0.127643 0.127832
0.149573 0.149975 0.150015
0.130918 0.130300 0.128819
0.135193 0.134680 0.134519
0.125770 0.123277 0.122775
0.128045 0.127367 0.127583
0.128975 0.129848 0.130961
0.113451 0.113553 0.113932
0.120840 0.120316 0.119182
0.145303 0.144002 0.143668
0.129019 0.130096 0.129773
0.108735 0.108056 0.107674
0.123242 0.123693 0.122044
0.111870 0.112862 0.111733
0.124782 0.122145 0.124468
0.120750 0.120488 0.119462
0.137303 0.137944 0.136589
0.125665 0.126223 0.125632
0.136144 0.137099 0.138012
0.121619 0.121644 0.121430
0.142593 0.143961 0.143547
0.127543 0.128182 0.127909
0.125046 0.125294 0.126046
0.132623 0.135135 0.136460
0.138585 0.139248 0.139160
0.119526 0.120131 0.120198
0.124418 0.124762 0.125505
0.123471 0.123730 0.123776
0.138493 0.137983 0.137696
0.114733 0.114823 0.115051
0.199002 0.198353 0.198629
0.118408 0.118720 0.118844
0.149365 0.149097 0.148884
0.127024 0.126703 0.126124
0.133071 0.133055 0.135810
0.130409 0.130298 0.130880
0.145826 0.146310 0.146110
0.147464 0.148802 0.149097
0.152266 0.151569 0.151070
0.153502 0.153248 0.152766
0.128854 0.128318 0.127723
0.122088 0.122567 0.122554
0.122506 0.123108 0.123382
0.143678 0.144151 0.144073
0.146132 0.146098 0.146243
0.136379 0.135828 0.133677
0.104576 0.104935 0.106588
0.124881 0.125468 0.126801
0.130891 0.129934 0.129593
0.126043 0.126159 0.125538
0.151953 0.151831 0.152684
0.111491 0.110699 0.109979
0.124149 0.123889 0.124375
0.111610 0.111059 0.111701
0.123513 0.123219 0.123743
0.139653 0.139801 0.139399
0.151943 0.151870 0.152141
0.127986 0.127946 0.128072
0.133284 0.132752 0.132727
0.118418 0.119913 0.120879
0.117923 0.118851 0.119347
0.135944 0.137088 0.137522
0.137678 0.137751 0.138316
0.136876 0.137574 0.137556
0.143766 0.143150 0.142729
0.138933 0.138987 0.137410
0.132150 0.131390 0.131723
0.125506 0.125995 0.124920
0.124738 0.125202 0.126279
0.145318 0.144937 0.145456
0.131055 0.130515 0.130096
0.132497 0.132959 0.133520
0.163038 0.163238 0.162855
0.127351 0.127306 0.125436
0.153166 0.152946 0.148644
0.107384 0.108302 0.108975
0.122559 0.122090 0.121008
0.111507 0.111591 0.111295
0.137207 0.137060 0.137191
0.138665 0.138161 0.138302
0.155752 0.155970 0.156454
0.162684 0.161966 0.161001
0.124042 0.124290 0.123915
0.107602 0.107374 0.107293
0.119757 0.120982 0.120234
0.129323 0.129208 0.129928
0.138610 0.138903 0.138976
0.136435 0.136090 0.134335
0.142529 0.142640 0.142700
0.119505 0.119091 0.118988
0.119006 0.119449 0.119056
0.146006 0.146878 0.149002
0.119409 0.119374 0.119705
0.121205 0.121749 0.122690
0.149669 0.149384 0.147761
0.123589 0.123294 0.123580
0.131447 0.131242 0.130911
0.122198 0.122423 0.121913
0.108363 0.107461 0.105815
0.127380 0.127709 0.128187
0.113473 0.113136 0.113474
0.147650 0.145553 0.145200
0.150053 0.149945 0.148923
0.147085 0.146632 0.146346
0.137960 0.139371 0.140268
0.135224 0.134918 0.135533
0.131822 0.131935 0.132604
0.127022 0.127878 0.127091
0.147435 0.148943 0.148992
0.109602 0.109422 0.109703
0.132733 0.132833 0.133526
0.141774 0.142160 0.141579
0.121234 0.120889 0.121114
0.129988 0.129520 0.129553
0.125483 0.125728 0.123382
0.148234 0.148323 0.148206
0.138097 0.137593 0.136669
0.125433 0.125080 0.124669
0.122940 0.123333 0.123711
0.132018 0.128893 0.128724
0.118813 0.119680 0.119824
0.133884 0.133005 0.134825
0.134090 0.134135 0.134382
0.146499 0.146945 0.143188
0.128756 0.128847 0.128754
0.127946 0.127774 0.127912
0.135109 0.133471 0.132983
0.138669 0.139300 0.139399
0.135167 0.135383 0.134963
0.111754 0.110875 0.111057
0.130279 0.129799 0.128696
0.138889 0.139283 0.138815
0.111964 0.112332 0.112552
0.106332 0.106418 0.111393
0.133409 0.133853 0.133829
0.150810 0.150972 0.152174
0.139233 0.138762 0.138748
0.121999 0.123735 0.123912
0.135396 0.134805 0.132039
0.114953 0.115317 0.116410
0.132400 0.130135 0.130218
0.130037 0.130612 0.131243
0.134245 0.133412 0.133059
0.129876 0.129735 0.130085
0.126578 0.127171 0.127878
0.133234 0.131543 0.131196
0.121708 0.121413 0.121468
0.127278 0.127074 0.125742
0.125857 0.126342 0.125948
0.137600 0.138191 0.138165
0.116704 0.116299 0.116411
0.138359 0.138394 0.139271
0.111141 0.111023 0.111019
0.117119 0.117476 0.117762
0.132685 0.133777 0.134312
0.135770 0.135957 0.135937
0.124733 0.124889 0.123016
0.118031 0.117567 0.117641
0.126005 0.125953 0.126362
0.138391 0.139420 0.139644
0.132655 0.132675 0.133857
0.135001 0.134893 0.134693
0.132022 0.131062 0.130770
0.145346 0.144570 0.144746
0.122807 0.122862 0.122574
0.110765 0.110953 0.110558
0.116239 0.116350 0.115772
0.135854 0.133751 0.133547
0.123553 0.123657 0.123543
0.129903 0.129775 0.129588
0.137886 0.138571 0.138364
0.144410 0.144212 0.144513
0.137373 0.137055 0.138133
0.140174 0.140088 0.140043
0.137473 0.138035 0.137880
0.133381 0.137217 0.140197
0.123790 0.123940 0.124192
0.122891 0.122718 0.122793
0.131753 0.131883 0.131982
0.119612 0.120829 0.120343
0.144009 0.144757 0.144284
0.122984 0.122949 0.122367
0.109006 0.109523 0.111401
0.119477 0.119569 0.119726
0.162859 0.164135 0.161743
0.127102 0.125960 0.127179
0.134596 0.135758 0.136428
0.137132 0.139696 0.141586
0.135606 0.135441 0.135386
0.128526 0.128227 0.125950
0.135044 0.135183 0.135886
0.131168 0.130142 0.129673
0.114896 0.115166 0.115131
0.133591 0.134290 0.134059
0.116438 0.117595 0.117461
0.132943 0.129871 0.129810
0.129024 0.129732 0.132768
0.145081 0.145928 0.145834
0.117139 0.118056 0.119392
0.125762 0.125946 0.130160
0.127517 0.129058 0.128959
0.141183 0.141829 0.141582
0.127899 0.127529 0.127704
0.140327 0.139441 0.139790
0.136675 0.136756 0.136161
0.134739 0.133827 0.134031
0.125336 0.125625 0.125773
0.144148 0.143461 0.143873
0.113993 0.113905 0.114196
0.122747 0.121678 0.121154
0.129572 0.129291 0.128922
0.109541 0.110472 0.110253
0.121619 0.121433 0.121536
0.112120 0.111882 0.112373
0.126853 0.126329 0.127392
0.122207 0.122674 0.123666
0.128900 0.128359 0.128514
0.135618 0.135291 0.135075
0.117940 0.117734 0.116920
0.119728 0.119711 0.121352
0.134271 0.135077 0.135562
0.119396 0.119659 0.119412
0.132482 0.132896 0.132792
0.138372 0.136732 0.136758
0.111267 0.111276 0.109764
0.137131 0.136231 0.135737
0.122680 0.122081 0.122202
0.131895 0.131772 0.131943
0.185664 0.185838 0.185978
0.140415 0.140626 0.140699
0.126503 0.126559 0.126254
0.146769 0.146522 0.145559
0.134608 0.134259 0.134997
0.138602 0.138616 0.137697
0.140031 0.137950 0.138267
0.123366 0.124071 0.125639
0.129666 0.129775 0.129907
0.128259 0.128728 0.128971
0.137777 0.138613 0.138007
0.132231 0.132313 0.132466
0.126797 0.126796 0.127190
0.147667 0.147752 0.147622
0.142002 0.141806 0.142018
0.115895 0.115887 0.115651
0.122055 0.123376 0.122740
0.156704 0.157041 0.156725
0.151996 0.152282 0.152821
0.152992 0.152039 0.151649
0.122708 0.121934 0.121940
0.120281 0.120186 0.118720
0.112204 0.112008 0.112090
0.127458 0.127321 0.127130
0.136944 0.137058 0.136637
0.126899 0.125691 0.125663
0.110458 0.108517 0.108613
0.138955 0.139249 0.139674
0.122651 0.125022 0.127562
0.118831 0.118462 0.118127
0.132055 0.132234 0.132922
0.118850 0.118668 0.118053
0.143545 0.144274 0.144547
0.132835 0.133007 0.133022
0.111229 0.110807 0.110691
0.133530 0.134119 0.133340
0.125586 0.125970 0.125705
0.128971 0.129258 0.129608
0.155506 0.155710 0.155398
0.120526 0.120194 0.118478
0.118684 0.119091 0.118580
0.131607 0.131097 0.127050
0.128185 0.127561 0.126987
0.124099 0.124680 0.125511
0.132604 0.131641 0.131639
0.129278 0.128668 0.129092
0.126200 0.126336 0.126093
0.127492 0.127049 0.126439
0.130668 0.130119 0.130111
0.131885 0.131597 0.132247
0.130367 0.129580 0.130019
0.132944 0.133009 0.131737
0.132524 0.132917 0.133909
0.132892 0.132679 0.132683
0.143126 0.142838 0.142794
0.123833 0.123908 0.124358
0.144269 0.143684 0.146468
0.126287 0.123617 0.124060
0.151249 0.151421 0.151184
0.139947 0.140079 0.140111
0.137412 0.137838 0.136941
0.128688 0.128559 0.126466
0.143931 0.144180 0.144558
0.133522 0.133746 0.133547
0.132251 0.132501 0.131708
0.126571 0.127069 0.127483
0.127146 0.125953 0.125495
0.118012 0.117451 0.117089
0.144373 0.144541 0.145646
0.132567 0.132867 0.132899
0.133270 0.134142 0.134696
0.140507 0.140532 0.140090
0.127562 0.128185 0.128226
0.143762 0.142825 0.142768
0.125419 0.125437 0.124298
0.123416 0.123446 0.123738
0.133683 0.134117 0.133496
0.113605 0.113803 0.113313
0.110224 0.109760 0.108412
0.113792 0.113470 0.114091
0.124709 0.122872 0.126139
0.125471 0.125134 0.125066
0.129527 0.129188 0.130061
0.108932 0.110387 0.111411
0.148463 0.148342 0.148367
0.134348 0.134930 0.134908
0.139330 0.138810 0.140095
0.126274 0.125390 0.125422
0.135798 0.136767 0.136796
0.138438 0.139588 0.139016
0.136773 0.137018 0.136290
0.117525 0.117323 0.117808
0.120249 0.119346 0.119381
0.134322 0.133923 0.134265
0.120092 0.119787 0.119339
0.122638 0.122340 0.122607
0.109088 0.109030 0.110550
0.121023 0.120849 0.121072
0.200930 0.202787 0.203161
0.109989 0.109119 0.109363
0.124441 0.122267 0.121661
0.120617 0.120804 0.119039
0.120460 0.119852 0.119291
0.127185 0.127007 0.126370
0.141501 0.141832 0.138702
0.145722 0.146440 0.146509
0.145859 0.145513 0.145244
0.133894 0.133515 0.131925
0.130823 0.127478 0.129597
0.130806 0.131292 0.132360
0.111872 0.111382 0.111884
0.126893 0.126340 0.125547
0.121580 0.122934 0.122548
0.139271 0.137758 0.139058
0.139553 0.136632 0.136863
0.127731 0.128056 0.128147
0.131508 0.130371 0.127013
0.136169 0.137033 0.136214
0.135527 0.133901 0.133971
0.133046 0.132967 0.135806
0.119806 0.120046 0.119684
0.152058 0.150392 0.149523
0.126766 0.125881 0.126830
0.130939 0.131479 0.132207
0.117684 0.116930 0.117148
0.155319 0.151571 0.151875
0.123543 0.124853 0.127742
0.131057 0.131132 0.132422
0.132824 0.134373 0.134718
0.128682 0.129243 0.128584
0.127369 0.125682 0.126473
0.115047 0.115294 0.114453
0.106106 0.106020 0.105850
0.128724 0.127755 0.127732
0.127485 0.127358 0.127874
0.144950 0.144890 0.145226
0.129341 0.129413 0.129688
0.111358 0.110879 0.113113
0.121217 0.121521 0.120848
0.119227 0.119019 0.120160
0.122475 0.122624 0.122946
0.147488 0.147002 0.148459
0.134035 0.133789 0.132188
0.118833 0.118576 0.118023
0.127637 0.127582 0.127622
0.125582 0.125717 0.125944
0.152575 0.151463 0.150698
0.141534 0.141117 0.142163
0.137133 0.137314 0.137253
0.128653 0.128143 0.128715
0.132710 0.132860 0.133208
0.119066 0.120170 0.120477
0.128454 0.128795 0.128599
0.144857 0.145628 0.146767
0.120482 0.120241 0.121176
0.120261 0.119840 0.119558
0.130257 0.129641 0.129522
0.111438 0.111647 0.112403
0.145709 0.145241 0.144807
0.146449 0.146370 0.146747
0.132104 0.131958 0.130455
0.125379 0.125160 0.125635
0.130556 0.130454 0.130209
0.119846 0.119493 0.119294
0.127425 0.127980 0.127662
0.139460 0.139237 0.140340
0.144161 0.142485 0.141249
0.143664 0.143719 0.143766
0.110314 0.110509 0.109531
0.132986 0.133968 0.133510
0.138754 0.139254 0.139816
0.130046 0.129983 0.129860
0.110613 0.111628 0.112410
0.117340 0.117105 0.117120
0.140648 0.139915 0.138873
0.118255 0.118851 0.118765
0.127383 0.127899 0.127784
0.156306 0.154701 0.150057
0.163449 0.163185 0.163117
0.127247 0.127392 0.126803
0.128512 0.127831 0.130682
0.132399 0.132113 0.132151
0.185599 0.185361 0.181850
0.145905 0.144587 0.144742
0.135745 0.135486 0.134815
0.154426 0.156539 0.156875
0.131953 0.132846 0.133531
0.122052 0.123915 0.123905
0.149949 0.149927 0.149202
0.149147 0.147740 0.146994
0.144967 0.144279 0.144649
0.138759 0.139487 0.140380
0.139384 0.138379 0.139847
0.123396 0.123446 0.123491
0.137605 0.137915 0.137472
0.122212 0.121542 0.122225
0.124382 0.124015 0.124035
0.130614 0.129103 0.129033
0.135556 0.134797 0.135631
0.139376 0.138826 0.137735
0.139327 0.139997 0.136825
0.122214 0.122081 0.123185
0.163468 0.162571 0.161533
0.124201 0.123776 0.123169
0.152258 0.153087 0.152787
0.111421 0.111937 0.112866
0.134385 0.134068 0.134443
0.129160 0.128501 0.127783
0.126542 0.126955 0.127133
0.126043 0.126747 0.130733
0.146437 0.146518 0.146872
0.127774 0.127912 0.127611
0.148672 0.149757 0.149982
0.128999 0.128594 0.128471
0.123204 0.123272 0.123672
0.130333 0.130261 0.129753
0.138937 0.137821 0.138123
0.126705 0.127436 0.127901
0.134697 0.134673 0.135822
0.114843 0.117613 0.117596
0.120411 0.119740 0.119995
0.127635 0.127577 0.129335
0.141069 0.140909 0.140899
0.130515 0.130850 0.131673
0.135404 0.136424 0.137181
0.130241 0.130381 0.130415
0.125280 0.125337 0.125715
0.140539 0.140704 0.140182
0.135317 0.134780 0.132232
0.152042 0.152260 0.152471
0.127361 0.125373 0.124915
0.152089 0.151342 0.150311
0.140582 0.140337 0.142887
0.122598 0.122897 0.123078
0.180899 0.180662 0.180865
0.130441 0.130553 0.130578
0.136522 0.137123 0.135968
0.130758 0.130538 0.131011
0.132808 0.132663 0.132854
0.113337 0.113091 0.112340
0.135535 0.135735 0.135699
0.130747 0.130408 0.130149
0.199573 0.199084 0.199470
0.113627 0.113225 0.111819
0.138482 0.139679 0.139668
0.131813 0.131438 0.131294
0.110978 0.111240 0.112112
0.133851 0.133748 0.131395
0.119058 0.119011 0.119828
0.126490 0.125757 0.125485
0.128623 0.128833 0.128749
0.128443 0.128539 0.127952
0.144607 0.144325 0.143424
0.198806 0.198846 0.199040
0.135603 0.135092 0.133201
0.118576 0.118023 0.118663
0.136094 0.136311 0.134468
0.124132 0.123694 0.123459
0.140202 0.141308 0.141338
0.128252 0.127738 0.125622
0.133624 0.133485 0.133450
0.132752 0.133307 0.134066
0.144175 0.144149 0.143995
0.127882 0.127114 0.126726
0.129108 0.128882 0.128262
0.128481 0.128733 0.128736
0.132994 0.133247 0.132747
0.124460 0.124911 0.124865
0.131984 0.131596 0.131205
0.118644 0.119847 0.120655
0.133390 0.132957 0.132801
0.126630 0.127107 0.127682
0.110594 0.110014 0.109744
0.133592 0.133546 0.132486
0.142811 0.143756 0.143609
0.135882 0.134717 0.134513
0.122756 0.122706 0.122754
0.138503 0.136516 0.136942
0.140279 0.140594 0.140684
0.137180 0.136571 0.136194
0.129267 0.129229 0.128131
0.130631 0.130662 0.130913
0.121156 0.121907 0.122385
0.134219 0.134292 0.133984
0.122554 0.122535 0.122623
0.136025 0.132849 0.132883
0.114757 0.115198 0.115833
0.126435 0.125840 0.125960
0.130405 0.129861 0.129619
0.119041 0.120326 0.120485
0.123103 0.121047 0.120021
0.144473 0.145729 0.146457
0.130520 0.130107 0.130117
0.137018 0.138339 0.137494
0.170073 0.170000 0.170505
0.128836 0.129102 0.129555
0.105316 0.105389 0.105795
0.140775 0.140019 0.139838
0.125932 0.126061 0.126072
0.156850 0.155602 0.155104
0.122674 0.122374 0.122745
0.129227 0.129100 0.131451
0.125810 0.126278 0.123049
0.125078 0.125326 0.125437
0.125752 0.125903 0.125986
0.126687 0.126354 0.127766
0.142424 0.141323 0.140296
0.144199 0.144630 0.144609
0.120506 0.120387 0.119879
0.127958 0.128149 0.129174
0.127159 0.126744 0.127453
0.143377 0.143767 0.143986
0.109326 0.108121 0.107444
0.116695 0.117741 0.118108
0.137543 0.138104 0.137344
0.131364 0.131798 0.131295
0.112963 0.114433 0.114339
0.132296 0.132094 0.132439
0.124780 0.125056 0.125305
0.170802 0.173749 0.174261
0.120602 0.124209 0.123354
0.139816 0.137869 0.136930
0.150182 0.150631 0.151063
0.131478 0.129358 0.128872
0.141853 0.142267 0.142108
0.134693 0.134943 0.129234
0.113934 0.114166 0.114400
0.139045 0.139480 0.137963
0.116016 0.117170 0.117373
0.128164 0.126784 0.127100
0.126871 0.125518 0.124736
0.168628 0.166741 0.165521
0.154976 0.155842 0.155972
0.113616 0.113497 0.112837
0.126041 0.126319 0.128898
0.128254 0.129105 0.129725
0.130554 0.130441 0.130885
0.125924 0.124990 0.125126
0.129379 0.130370 0.130784
0.196974 0.197205 0.197340
0.124375 0.124406 0.123702
0.125026 0.125118 0.127209
0.144403 0.144018 0.144176
0.127429 0.127439 0.128258
0.132164 0.134506 0.134159
0.127186 0.127197 0.127601
0.122619 0.122586 0.122572
0.142867 0.142206 0.142411
0.125444 0.124964 0.125044
0.126388 0.126838 0.128342
0.121971 0.121348 0.122192
0.180791 0.180912 0.180194
0.114380 0.113832 0.114412
0.123677 0.124311 0.124818
0.124905 0.125497 0.126326
0.124371 0.124166 0.123842
0.121723 0.121100 0.121478
0.150789 0.151054 0.150650
0.133604 0.133945 0.135897
0.152839 0.152707 0.151486
0.144080 0.144643 0.145079
0.145729 0.146457 0.146532
0.109797 0.110203 0.110205
0.127698 0.127281 0.126919
0.123267 0.123946 0.123258
0.113418 0.111760 0.111593
0.140867 0.141020 0.140112
0.134827 0.133046 0.132755
0.127006 0.127301 0.128632
0.135936 0.135991 0.135818
0.135959 0.135676 0.133496
0.122568 0.122909 0.121069
0.131797 0.131637 0.131488
0.197263 0.196664 0.196495
0.182261 0.181920 0.181886
0.133367 0.133706 0.134505
0.118433 0.118726 0.118756
0.129621 0.129488 0.129728
0.151514 0.151730 0.150370
0.138806 0.139638 0.139351
0.146872 0.143195 0.144069
0.124596 0.124847 0.125094
0.123748 0.124769 0.126308
0.119724 0.119844 0.119599
0.133399 0.133231 0.132752
0.126759 0.128124 0.127958
0.112622 0.113256 0.114725
0.121424 0.121947 0.121582
0.126898 0.127081 0.126896
0.125529 0.126663 0.127636
0.135360 0.134686 0.135402
0.145120 0.143866 0.144711
0.113425 0.114785 0.115504
0.143138 0.143643 0.143384
0.124522 0.124999 0.125069
0.122919 0.122943 0.119006
0.122663 0.123046 0.122208
0.127916 0.127952 0.128344
0.132619 0.130239 0.129648
0.144414 0.145302 0.142002
0.133895 0.134235 0.134143
0.129416 0.129785 0.129683
0.126510 0.127337 0.128191
0.133243 0.133908 0.132283
0.120124 0.119630 0.120087
0.162714 0.163037 0.163843
0.126026 0.126378 0.125429
0.134802 0.134938 0.135121
0.148627 0.148542 0.148652
0.157269 0.157700 0.157436
0.116455 0.115786 0.114761
0.129790 0.130012 0.129786
0.139569 0.140179 0.139996
0.148330 0.148415 0.149036
0.141202 0.141249 0.141114
0.167739 0.164618 0.151607
0.123504 0.123046 0.122753
0.137585 0.137619 0.136289
0.153158 0.152169 0.151494
0.118732 0.118822 0.118059
0.140959 0.140367 0.139462
0.129483 0.129082 0.129706
0.127491 0.128465 0.128300
0.121778 0.122030 0.121765
0.123090 0.124591 0.124812
0.113553 0.113932 0.115421
0.127224 0.128261 0.128504
0.158903 0.159292 0.163902
0.125880 0.125938 0.126417
0.130475 0.130237 0.131114
0.124486 0.123085 0.123212
0.131512 0.130946 0.131119
0.127385 0.127845 0.129259
0.122516 0.122367 0.123413
0.133683 0.133532 0.133464
0.138241 0.138311 0.138547
0.142861 0.143095 0.142496
0.119477 0.119655 0.119664
0.111564 0.109682 0.109239
0.144494 0.142940 0.142575
0.114907 0.115222 0.115485
0.119358 0.119691 0.119331
0.114999 0.114557 0.113666
0.134692 0.134797 0.134737
0.142785 0.142414 0.141263
0.111530 0.112617 0.112284
0.146098 0.146243 0.146869
0.123325 0.123749 0.123719
0.137814 0.137458 0.138113
0.121560 0.121666 0.121446
0.109687 0.110335 0.109744
0.143492 0.143001 0.142994
0.125545 0.126564 0.125655
0.139849 0.140312 0.140642
0.138460 0.140900 0.140640
0.117934 0.118584 0.119656
0.136516 0.136942 0.136510
0.128461 0.128235 0.131953
0.157988 0.157626 0.156269
0.125808 0.125612 0.125868
0.124828 0.123562 0.123377
0.161553 0.160494 0.167009
0.154798 0.154886 0.154330
0.134090 0.134486 0.134489
0.127061 0.128025 0.128213
0.127140 0.127202 0.127006
0.126695 0.126521 0.125752
0.122790 0.122847 0.123540
0.142667 0.142333 0.141404
0.137894 0.137805 0.137110
0.135454 0.136211 0.136179
0.119534 0.119347 0.117386
0.130510 0.133027 0.132875
0.146057 0.146099 0.144574
0.119431 0.119465 0.119781
0.128338 0.128249 0.131703
0.128341 0.129062 0.129111
0.136598 0.136344 0.136890
0.122394 0.122594 0.122319
0.112757 0.111589 0.110983
0.124839 0.121587 0.120956
0.126530 0.127106 0.126929
0.115152 0.115439 0.115567
0.128081 0.127490 0.127585
0.161050 0.159821 0.158464
0.145757 0.146747 0.146194
0.128747 0.128685 0.128942
0.115004 0.114921 0.114775
0.137202 0.137867 0.137317
0.128734 0.128804 0.130603
0.129022 0.129116 0.128652
0.118621 0.118300 0.118469
0.134407 0.134121 0.134254
0.144697 0.144971 0.145081
0.123042 0.122260 0.121837
0.129907 0.129179 0.128935
0.133730 0.133706 0.133332
0.131174 0.131671 0.130463
0.131038 0.130690 0.130918
0.121690 0.121782 0.122652
0.117557 0.117748 0.119372
0.118907 0.119400 0.118097
0.119488 0.118953 0.119201
0.135820 0.135692 0.135646
0.199052 0.199065 0.198692
0.130209 0.129808 0.129859
0.143136 0.143069 0.142601
0.129231 0.128689 0.128199
0.136329 0.136683 0.135741
0.139858 0.141092 0.140970
0.130125 0.130613 0.130549
0.128938 0.128749 0.129149
0.145497 0.145819 0.145184
0.106273 0.107155 0.107876
0.133562 0.133381 0.133716
0.147215 0.147130 0.147035
0.118419 0.118349 0.118445
0.125739 0.125879 0.126159
0.135754 0.135601 0.135098
0.121490 0.122317 0.122728
0.144603 0.145029 0.145388
0.123477 0.122298 0.121761
0.174200 0.173479 0.170552
0.127858 0.127341 0.127439
0.120576 0.120204 0.120798
0.131527 0.131744 0.131447
0.139390 0.137254 0.137045
0.139922 0.140192 0.140419
0.127553 0.126713 0.124285
0.131243 0.131571 0.132310
0.110907 0.111091 0.111066
0.114708 0.115073 0.115043
0.114681 0.115347 0.116354
0.143914 0.144922 0.145180
0.196162 0.197068 0.198566
0.127564 0.127375 0.127910
0.122781 0.123855 0.124062
0.130339 0.130251 0.130823
0.143108 0.143039 0.141990
0.147314 0.147183 0.147187
0.127784 0.127924 0.128099
0.143003 0.143066 0.142754
0.139076 0.139133 0.138825
0.137717 0.137808 0.138665
0.126787 0.127591 0.128533
0.109672 0.110755 0.111402
0.110423 0.110230 0.109447
0.123307 0.123965 0.124273
0.126510 0.127670 0.127941
0.120798 0.119608 0.119797
0.139173 0.138351 0.138842
0.136604 0.136854 0.138697
0.126902 0.126908 0.126376
0.202389 0.202461 0.200836
0.126570 0.126279 0.126759
0.109995 0.110111 0.110315
0.131242 0.130911 0.130731
0.128684 0.128778 0.128948
0.124468 0.124976 0.125173
0.123163 0.122832 0.123243
0.137246 0.137557 0.137351
0.163027 0.164592 0.165332
0.139992 0.139532 0.139447
0.144120 0.144204 0.144489
0.144491 0.145777 0.144675
0.126822 0.126482 0.126698
0.130767 0.130662 0.130188
0.127839 0.128542 0.128139
0.126703 0.127827 0.127727
0.200867 0.200325 0.199520
0.123858 0.121830 0.121313
0.128504 0.128081 0.127095
0.130009 0.128458 0.128768
0.137454 0.137705 0.139100
0.139653 0.139511 0.139824
0.131868 0.131759 0.131753
0.119607 0.119952 0.119628
0.131131 0.131150 0.130660
0.123584 0.123734 0.123524
0.131144 0.130937 0.126506
0.129130 0.128914 0.128619
0.118005 0.118178 0.117390
0.109475 0.110486 0.110812
0.147080 0.145651 0.144875
0.156667 0.156338 0.155853
0.113403 0.113257 0.112868
0.141706 0.141655 0.140334
0.120343 0.120102 0.119175
0.178851 0.178990 0.183460
0.117610 0.118032 0.119434
0.138119 0.140539 0.140435
0.164050 0.164154 0.164636
0.133032 0.133170 0.133530
0.157274 0.160710 0.160155
0.114327 0.114914 0.115677
0.121674 0.123819 0.123960
0.132931 0.132574 0.132535
0.117022 0.117861 0.117777
0.114051 0.114214 0.114811
0.143259 0.142707 0.142611
0.131955 0.132247 0.132444
0.131220 0.127407 0.126679
0.121603 0.121288 0.121096
0.183801 0.182963 0.182749
0.141404 0.141657 0.141318
0.121179 0.121614 0.121427
0.127804 0.127439 0.128000
0.107261 0.107342 0.110220
0.142266 0.142375 0.141975
0.147713 0.147123 0.146759
0.133450 0.134476 0.135717
0.131719 0.131887 0.130633
0.122979 0.122739 0.123048
0.133016 0.133286 0.133145
0.109918 0.110809 0.111417
0.127591 0.127759 0.127197
0.132431 0.132273 0.131327
0.128639 0.128894 0.128485
0.129697 0.131040 0.130791
0.133145 0.133043 0.133666
0.143571 0.143073 0.142542
0.149709 0.150756 0.151194
0.121287 0.120294 0.121737
0.124339 0.124227 0.124744
0.118908 0.118733 0.118397
0.108434 0.107659 0.108153
0.129256 0.128949 0.128823
0.115272 0.114795 0.113324
0.134038 0.133027 0.132654
0.151842 0.152089 0.151342
0.122700 0.124854 0.125555
0.144304 0.144051 0.144452
0.120207 0.120222 0.119753
0.175827 0.176416 0.177522
0.122714 0.122394 0.123609
0.127709 0.127581 0.127516
0.145650 0.146357 0.146283
0.133397 0.133273 0.132739
0.125596 0.124554 0.124224
0.145749 0.145730 0.145541
0.149495 0.144589 0.144625
0.120883 0.120576 0.119642
0.117677 0.119707 0.119992
0.121865 0.122000 0.122644
0.131714 0.130952 0.130562
0.129257 0.129783 0.130322
0.136154 0.137102 0.136260
0.114239 0.114013 0.113052
0.141804 0.141250 0.140093
0.132393 0.132428 0.132003
0.126797 0.126889 0.127128
0.131983 0.133026 0.132359
0.130080 0.129739 0.129529
0.136919 0.137769 0.138150
0.135532 0.134916 0.132540
0.136128 0.135185 0.134944
0.140028 0.140528 0.139605
0.150384 0.150301 0.149783
0.139334 0.139227 0.140015
0.121200 0.122572 0.121903
0.138871 0.138099 0.135813
0.126547 0.127131 0.126359
0.119553 0.119490 0.119366
0.134583 0.135359 0.136049
0.137282 0.137418 0.138611
0.110660 0.110173 0.110417
0.146878 0.149002 0.147819
0.139724 0.139853 0.140334
0.136358 0.134904 0.132636
0.142589 0.141932 0.141580
0.123739 0.123276 0.123294
0.140157 0.140598 0.140502
