0.253045 0.252165 0.252016
0.235469 0.239566 0.240422
0.190905 0.191054 0.188949
0.501416 0.499381 0.488965
0.189695 0.188456 0.192907
0.259394 0.261645 0.263143
0.226282 0.226087 0.226169
0.693610 0.679770 0.672881
0.271153 0.271825 0.270193
0.535030 0.530141 0.520516
0.202896 0.201043 0.205291
0.343229 0.342865 0.342134
0.180319 0.181085 0.181110
0.452400 0.449449 0.446673
0.611818 0.609296 0.607250
0.231658 0.231857 0.231229
0.506446 0.501573 0.488376
0.216458 0.225255 0.223984
0.199220 0.194999 0.194583
0.239280 0.239257 0.237713
0.307201 0.308956 0.307752
0.186350 0.189933 0.189910
0.223545 0.225721 0.227297
0.463444 0.463256 0.458536
0.192487 0.192494 0.192167
0.199892 0.199465 0.195287
0.212599 0.212567 0.213888
0.821575 0.817748 0.818675
0.675594 0.673169 0.676077
0.240213 0.240929 0.242339
0.429372 0.436553 0.442055
0.207358 0.202956 0.202478
0.294575 0.294908 0.289199
0.239555 0.240709 0.240333
0.193074 0.192482 0.195966
0.193772 0.194082 0.194831
0.214364 0.211147 0.210628
0.470410 0.471546 0.476132
0.179564 0.179520 0.180350
0.240589 0.240333 0.241032
0.216770 0.210638 0.212920
0.191100 0.191132 0.191027
0.197239 0.196358 0.196077
0.190064 0.189605 0.189966
0.190726 0.190993 0.189529
0.248141 0.247614 0.249080
0.242028 0.243360 0.243404
0.282310 0.282210 0.281365
0.219498 0.219862 0.220195
0.604557 0.602594 0.597277
0.206874 0.206204 0.205826
0.292978 0.289500 0.288867
0.231787 0.230533 0.230501
0.343402 0.353059 0.365842
0.790435 0.791519 0.793583
0.274201 0.274811 0.278159
0.173601 0.176609 0.176139
0.401291 0.397837 0.397899
0.236332 0.240425 0.241537
0.264917 0.264393 0.265003
0.202952 0.202137 0.202635
0.202685 0.204403 0.205051
0.177924 0.176644 0.177013
0.199295 0.198353 0.198424
0.200381 0.197606 0.197119
0.268058 0.274270 0.270663
0.195098 0.194565 0.194786
0.185930 0.187093 0.187317
0.200353 0.202337 0.203041
0.202480 0.199014 0.195414
0.449546 0.446105 0.430207
0.253656 0.254533 0.254381
0.232961 0.232444 0.231774
0.205834 0.205556 0.205655
0.211986 0.212176 0.209264
0.886459 0.876320 0.878937
0.218217 0.217834 0.217926
0.466545 0.467102 0.466465
0.196976 0.199534 0.199612
0.213479 0.214247 0.212958
0.245460 0.252277 0.254156
0.164469 0.162698 0.162647
0.369412 0.362542 0.347279
0.189329 0.189244 0.189496
0.196061 0.199423 0.198983
0.186759 0.186396 0.187580
0.284952 0.285087 0.287410
0.195872 0.196566 0.198416
0.279737 0.284798 0.288761
0.195170 0.194617 0.195278
0.252543 0.252658 0.253272
0.202713 0.202280 0.201251
0.204010 0.203412 0.200927
0.309418 0.306330 0.305428
0.428513 0.428514 0.404805
0.176634 0.178414 0.177978
0.396397 0.399987 0.400105
0.243097 0.245868 0.246815
0.211013 0.203906 0.203698
0.642775 0.641787 0.646896
0.209287 0.206918 0.206453
0.235851 0.237904 0.238581
0.934272 0.916833 0.939095
0.198834 0.197899 0.196847
0.192971 0.193391 0.193509
0.232724 0.231657 0.226013
0.235192 0.234468 0.229088
0.185360 0.183414 0.182312
0.455131 0.455620 0.457649
0.208246 0.208004 0.208830
0.263341 0.264635 0.264574
0.252621 0.252514 0.252903
0.226499 0.227017 0.232775
0.345399 0.345175 0.345905
0.188738 0.182353 0.182294
0.204496 0.208223 0.207407
0.254215 0.253413 0.253864
0.181312 0.190318 0.190391
0.209079 0.209152 0.209336
0.224936 0.225361 0.225018
0.200594 0.200941 0.199920
0.178298 0.178137 0.177208
0.200513 0.203329 0.203970
0.474381 0.466850 0.467124
0.185762 0.186153 0.195752
0.272154 0.272560 0.274559
0.244309 0.243920 0.242970
0.401308 0.399515 0.398015
0.204312 0.204520 0.205398
0.197813 0.198745 0.198386
0.193718 0.193802 0.192615
0.196469 0.196093 0.200721
0.294472 0.294441 0.294915
0.227128 0.227275 0.227529
0.250874 0.251387 0.251244
0.329747 0.331522 0.331627
0.211163 0.210837 0.211422
0.892324 0.888191 0.889222
0.548621 0.543803 0.542833
0.201867 0.205664 0.206028
0.408311 0.411631 0.412709
0.268267 0.269356 0.271006
0.160623 0.159993 0.155640
0.198132 0.199001 0.199295
0.235262 0.235591 0.234649
0.257295 0.259013 0.259431
0.270316 0.271132 0.271051
0.227610 0.224756 0.225121
0.269810 0.269553 0.268886
0.366898 0.366269 0.367431
0.208272 0.208842 0.209287
0.227314 0.233769 0.234057
0.210782 0.209964 0.210348
0.285087 0.287410 0.285621
0.234228 0.232979 0.232363
0.282281 0.283024 0.283728
0.820718 0.823418 0.827630
0.184061 0.183558 0.180298
0.240338 0.240989 0.240158
0.208039 0.209903 0.210517
0.409313 0.408083 0.408708
0.676411 0.703796 0.708527
0.502015 0.500544 0.499796
0.261508 0.264687 0.265382
0.175679 0.169186 0.169063
0.399515 0.398015 0.395675
0.268090 0.267267 0.265291
0.321902 0.321251 0.320287
0.218907 0.219278 0.210766
0.910457 0.911811 0.911059
0.239690 0.236279 0.238884
0.415825 0.426775 0.428920
0.193150 0.192957 0.192919
0.212088 0.212804 0.211022
0.194246 0.190554 0.186882
0.267215 0.272639 0.272876
0.195177 0.195227 0.193818
0.227262 0.227564 0.234467
0.198072 0.198564 0.201429
0.372953 0.372062 0.370178
0.806797 0.825216 0.829055
0.414030 0.412882 0.410335
0.253375 0.253179 0.256554
0.190676 0.190879 0.190340
0.416444 0.414781 0.408854
0.176385 0.176320 0.178281
0.186782 0.186791 0.187442
0.365688 0.366007 0.366426
0.289536 0.294329 0.314728
0.211593 0.210578 0.211342
0.233140 0.232704 0.232799
0.248100 0.233051 0.230194
0.191392 0.195198 0.197093
0.194607 0.196289 0.197421
0.195464 0.194945 0.193627
0.195880 0.195264 0.194361
0.224533 0.224084 0.223900
0.189345 0.189742 0.190619
0.223671 0.224609 0.226282
0.234375 0.232172 0.232962
0.848101 0.853716 0.847292
0.399265 0.408916 0.410043
0.186385 0.186764 0.189345
0.267985 0.267736 0.267869
0.661239 0.659618 0.659957
0.201327 0.201680 0.200523
0.215694 0.213502 0.212934
0.941727 0.939383 0.936832
0.364744 0.362517 0.362218
0.359136 0.358318 0.358123
0.241665 0.241116 0.241083
0.201671 0.201676 0.201555
0.201818 0.202565 0.204926
0.733576 0.748011 0.753713
0.184603 0.184314 0.184146
0.839788 0.841251 0.841879
0.268067 0.269726 0.269085
0.218344 0.217370 0.224696
0.609296 0.607250 0.599981
0.186105 0.190624 0.190085
0.233639 0.233041 0.235075
0.179444 0.180675 0.179115
0.190657 0.183230 0.182840
0.196390 0.196270 0.196313
0.169333 0.169555 0.170518
0.206735 0.207304 0.207088
0.944941 0.939985 0.918968
0.178245 0.176839 0.176113
0.196793 0.196692 0.196811
0.180677 0.181358 0.183193
0.889439 0.890227 0.896407
0.180603 0.180965 0.181193
0.206242 0.206309 0.206570
0.241086 0.241525 0.241268
0.196906 0.196541 0.196283
0.191793 0.191346 0.190928
0.303866 0.303933 0.306112
0.331960 0.332639 0.332487
0.237835 0.239107 0.240432
0.642686 0.643185 0.637188
0.186395 0.188439 0.188495
0.176379 0.208012 0.270116
0.247352 0.246481 0.246305
0.203672 0.203566 0.204474
0.249087 0.248847 0.250254
0.244029 0.251050 0.251844
0.253694 0.258171 0.258770
0.216871 0.216944 0.215070
0.193539 0.194147 0.195287
0.573966 0.549339 0.522737
0.368745 0.367732 0.366707
0.276390 0.277534 0.278862
0.541305 0.540061 0.539096
0.271198 0.269656 0.271492
0.235711 0.235791 0.237103
0.210071 0.210333 0.212637
0.666358 0.669230 0.666909
0.273995 0.274137 0.275975
0.240662 0.258877 0.254827
0.203752 0.203764 0.203872
0.222757 0.223092 0.223159
0.236786 0.238984 0.241033
0.811553 0.813334 0.820283
0.226746 0.226453 0.225358
0.273517 0.272524 0.265775
0.958757 0.947158 0.946928
0.232420 0.223735 0.216550
0.269243 0.274300 0.276261
0.614500 0.607619 0.605874
0.204093 0.201463 0.201731
0.191644 0.194787 0.197851
0.288397 0.289076 0.301993
0.428186 0.424714 0.424694
0.229506 0.229031 0.228573
0.221322 0.223563 0.223561
0.221318 0.221977 0.222251
0.207167 0.206683 0.206536
0.512891 0.533208 0.537635
0.192106 0.191689 0.192711
0.607056 0.602578 0.603804
0.660491 0.661430 0.661336
0.194516 0.194717 0.194792
0.217491 0.217230 0.217098
0.197258 0.192694 0.192020
0.190563 0.197024 0.196791
0.185755 0.187606 0.186348
0.198038 0.197318 0.195266
0.217534 0.217740 0.217737
0.264532 0.265874 0.265828
0.264669 0.264092 0.264264
0.260790 0.261573 0.263343
0.243324 0.243544 0.243357
0.263227 0.262981 0.260848
0.205084 0.206855 0.206567
0.201850 0.201157 0.201821
0.196727 0.194993 0.193074
0.201730 0.204468 0.205728
0.219422 0.213134 0.212116
0.226072 0.225517 0.225582
0.592280 0.592098 0.589686
0.243394 0.242944 0.242555
0.364142 0.363391 0.362722
0.660398 0.661823 0.667511
0.562005 0.566119 0.572374
0.249637 0.249881 0.249566
0.214869 0.214577 0.215525
0.230443 0.227105 0.233709
0.288201 0.294233 0.296528
0.272529 0.272859 0.271988
0.257987 0.265512 0.264823
0.436690 0.429372 0.436553
0.199700 0.200464 0.200940
0.188729 0.189185 0.188804
0.212671 0.212649 0.213104
0.182012 0.193466 0.212150
0.880359 0.888344 0.891360
0.227345 0.227950 0.228097
0.202187 0.201355 0.200938
0.451409 0.452455 0.452659
0.235882 0.229538 0.229175
0.188358 0.184065 0.184687
0.191752 0.192103 0.192157
0.481666 0.481890 0.482858
0.194045 0.192529 0.192013
0.215618 0.216254 0.216382
0.200004 0.194750 0.194232
0.288366 0.288214 0.278995
0.193848 0.194074 0.193816
0.282518 0.282940 0.283745
0.189288 0.190191 0.189302
0.224838 0.225110 0.226129
0.180206 0.180744 0.180455
0.206913 0.206438 0.205389
0.220728 0.221058 0.220077
0.249406 0.248081 0.247358
0.191614 0.191603 0.188003
0.366964 0.366285 0.368108
0.214286 0.217625 0.217168
0.274363 0.276165 0.267715
0.252124 0.251912 0.251969
0.407035 0.402471 0.399265
0.206700 0.206812 0.207432
0.230204 0.225561 0.223807
0.227192 0.228217 0.227261
0.202623 0.207074 0.206819
0.192446 0.190145 0.189963
0.198245 0.199339 0.198790
0.213280 0.214629 0.212316
0.183308 0.181036 0.180920
0.197639 0.197263 0.196913
0.414153 0.417442 0.417275
0.269036 0.268559 0.267854
0.212431 0.208437 0.209127
0.231395 0.234032 0.234435
0.232686 0.231333 0.225388
0.189474 0.189542 0.188379
0.863726 0.854121 0.848045
0.463545 0.461106 0.460662
0.245965 0.246457 0.246905
0.217722 0.211675 0.211252
0.175787 0.175628 0.176660
0.207510 0.199822 0.195834
0.270195 0.273020 0.272699
0.248734 0.249028 0.249064
0.343117 0.342252 0.339387
0.217021 0.216213 0.215694
0.696636 0.705663 0.699458
0.283787 0.281676 0.276876
0.538721 0.539786 0.540564
0.212831 0.217491 0.217086
0.201955 0.203090 0.202984
0.198772 0.201592 0.202784
0.330927 0.331959 0.332272
0.182107 0.182385 0.181288
0.199614 0.200014 0.194835
0.198128 0.198212 0.197751
0.769493 0.767570 0.770289
0.211135 0.212010 0.211037
0.211387 0.211140 0.210935
0.184954 0.185403 0.185637
0.334603 0.337547 0.340463
0.181886 0.181142 0.181070
0.215700 0.214682 0.215102
0.241433 0.240194 0.240134
0.190573 0.190606 0.190769
0.666923 0.667074 0.667746
0.213554 0.213224 0.214740
0.193712 0.196250 0.196804
0.249191 0.245033 0.244309
0.192964 0.194017 0.194165
0.181057 0.181862 0.181050
0.320147 0.321033 0.324008
0.206575 0.206474 0.206435
0.188945 0.187974 0.188641
0.198803 0.201614 0.200841
0.213173 0.208744 0.210627
0.202220 0.202428 0.207502
0.388916 0.388828 0.388601
0.207952 0.207229 0.206644
0.210105 0.210177 0.205420
0.188960 0.190333 0.190849
0.196643 0.196652 0.197058
0.212663 0.212840 0.213197
0.191586 0.191836 0.191810
0.277244 0.279948 0.282576
0.293158 0.293516 0.293166
0.201236 0.199710 0.199989
0.248901 0.246200 0.245397
0.203212 0.203045 0.202402
0.259657 0.261042 0.262618
0.238620 0.238364 0.240337
0.221968 0.221467 0.223104
0.932021 0.938087 0.939961
0.265100 0.265096 0.265370
0.201631 0.202034 0.202242
0.580294 0.555974 0.555467
0.215678 0.215196 0.214701
0.200714 0.201061 0.200989
0.667038 0.667784 0.666706
0.218222 0.218919 0.218463
0.202777 0.201383 0.193226
0.264800 0.265960 0.271332
0.285571 0.283665 0.284165
0.452200 0.446437 0.444550
0.199164 0.198811 0.198733
0.225339 0.224061 0.222259
0.204468 0.203110 0.203018
0.255751 0.257194 0.257012
0.257902 0.256678 0.256381
0.444159 0.437877 0.429315
0.210277 0.210307 0.211158
0.840702 0.840843 0.844259
0.451518 0.452808 0.451409
0.231118 0.230611 0.232403
0.515796 0.516734 0.519034
0.207355 0.207702 0.207042
0.296039 0.295037 0.291475
0.346442 0.346550 0.346849
0.206087 0.207318 0.205774
0.192113 0.192262 0.193085
0.211896 0.206748 0.206494
0.231793 0.233037 0.235711
0.200621 0.200101 0.197541
0.181149 0.182252 0.182359
0.663301 0.659107 0.651463
0.249751 0.249353 0.248984
0.204484 0.204710 0.210933
0.179262 0.178439 0.178931
0.223812 0.225281 0.225463
0.196292 0.195618 0.195661
0.816970 0.825310 0.827619
0.408981 0.408530 0.407694
0.263720 0.262148 0.264175
0.209806 0.210121 0.209474
0.373252 0.372032 0.371936
0.233299 0.234820 0.233977
0.405689 0.411905 0.415420
0.241620 0.238005 0.235240
0.244684 0.243944 0.242757
0.231534 0.241452 0.240163
0.228965 0.227013 0.226738
0.211847 0.211163 0.210001
0.187898 0.194803 0.195248
0.204560 0.200908 0.202048
0.207238 0.212624 0.212726
0.265005 0.262176 0.259605
0.189784 0.190164 0.190413
0.792807 0.791335 0.786557
0.666014 0.662882 0.655749
0.212620 0.213294 0.213836
0.256266 0.258957 0.259723
0.241814 0.237976 0.238421
0.202109 0.204485 0.205528
0.318543 0.324105 0.324407
0.202980 0.201534 0.201061
0.212966 0.212973 0.213136
0.178434 0.182462 0.182199
0.225372 0.225562 0.226376
0.210045 0.210194 0.208652
0.189551 0.191009 0.190167
0.221467 0.223104 0.224022
0.304033 0.304065 0.302190
0.265653 0.267751 0.268491
0.351788 0.366193 0.369540
0.454695 0.454743 0.455862
0.325415 0.325261 0.321257
0.224523 0.222396 0.221553
0.414394 0.416497 0.417711
0.221282 0.220295 0.222370
0.211745 0.210099 0.209362
0.202843 0.202330 0.201864
0.207740 0.207358 0.205509
0.423993 0.440480 0.440525
0.191906 0.190833 0.196616
0.229228 0.226961 0.225554
0.199173 0.199199 0.198853
0.249883 0.251365 0.251174
0.393362 0.392762 0.391649
0.505495 0.508432 0.522675
0.206734 0.207113 0.206904
0.196162 0.196866 0.195978
0.252819 0.252047 0.242474
0.255439 0.254656 0.253846
0.540499 0.547384 0.567148
0.234853 0.234960 0.235428
0.305569 0.306532 0.311662
0.809415 0.827436 0.829051
0.810046 0.809002 0.808795
0.198880 0.199105 0.198679
0.203371 0.204428 0.204997
0.827604 0.828710 0.834202
0.205679 0.206512 0.206550
0.218722 0.218278 0.215453
0.293795 0.295623 0.295025
0.537033 0.539070 0.539036
0.318795 0.318592 0.318820
0.882966 0.881750 0.881765
0.264475 0.261429 0.260819
0.268330 0.268581 0.269688
0.325654 0.326210 0.326965
0.194890 0.193052 0.192915
0.242301 0.242592 0.248432
0.233387 0.232202 0.231966
0.265983 0.272757 0.272863
0.208173 0.210039 0.212216
0.466988 0.467557 0.462874
0.231586 0.231804 0.231780
0.193168 0.190044 0.190192
0.239981 0.234241 0.235198
0.198338 0.198466 0.198659
0.221549 0.222650 0.221516
0.207545 0.206488 0.206368
0.477108 0.466516 0.465006
0.186753 0.186708 0.187465
0.263670 0.263836 0.261743
0.569206 0.574551 0.575495
0.205895 0.208014 0.208045
0.257497 0.256831 0.255929
0.218147 0.218556 0.220510
0.219787 0.219604 0.219618
0.225174 0.224508 0.224864
0.202994 0.203223 0.203801
0.242058 0.242196 0.240044
0.234950 0.235546 0.236660
0.257443 0.262687 0.272738
0.604938 0.603988 0.603551
0.510098 0.508436 0.504208
0.207706 0.210752 0.211129
0.272082 0.274426 0.272555
0.200573 0.199613 0.197102
0.254911 0.253375 0.253179
0.287421 0.287707 0.287641
0.264062 0.262199 0.262298
0.198735 0.200005 0.199786
0.546359 0.559777 0.564244
0.182092 0.183500 0.187271
0.291979 0.292449 0.295353
0.222804 0.220850 0.219629
0.264373 0.259015 0.258156
0.212000 0.211613 0.212006
0.199442 0.198973 0.198926
0.878448 0.870627 0.865266
0.178898 0.178389 0.179361
0.506846 0.501434 0.499428
0.225512 0.225509 0.225651
0.264989 0.266407 0.266362
0.252870 0.252683 0.252032
0.834057 0.836951 0.836611
0.206495 0.205464 0.206787
0.219195 0.218898 0.217796
0.200870 0.199548 0.184069
0.195673 0.196182 0.195996
0.208135 0.208006 0.208170
0.306472 0.302682 0.302088
0.391188 0.396310 0.399291
0.730306 0.729962 0.729485
0.532818 0.532776 0.535076
0.267536 0.266958 0.267102
0.235555 0.234686 0.231099
0.410907 0.412926 0.411921
0.199983 0.193713 0.193188
0.303893 0.303269 0.302985
0.193882 0.193752 0.194051
0.253392 0.255860 0.256183
0.386677 0.381013 0.367819
0.208483 0.207707 0.207394
0.408897 0.413666 0.425625
0.384878 0.384585 0.384206
0.215695 0.216411 0.216478
0.335959 0.337984 0.341588
0.346130 0.346757 0.346397
0.221709 0.221927 0.223350
0.231357 0.231933 0.231356
0.217690 0.217083 0.216361
0.434591 0.433242 0.433007
0.213977 0.213883 0.213480
0.176779 0.178068 0.176753
0.261691 0.252785 0.251430
0.235005 0.233352 0.228591
0.217552 0.217700 0.216989
0.403883 0.404152 0.397887
0.424895 0.424144 0.421868
0.178206 0.181969 0.182387
0.238852 0.238131 0.233757
0.787498 0.790435 0.791519
0.321543 0.326090 0.326526
0.189881 0.189755 0.185427
0.220446 0.222820 0.223173
0.945659 0.938912 0.940525
0.355258 0.356268 0.360340
0.217455 0.215495 0.215094
0.243528 0.235196 0.234647
0.274115 0.274891 0.272969
0.227002 0.226437 0.232132
0.167278 0.167715 0.166978
0.244171 0.242050 0.241720
0.384318 0.385116 0.383435
0.321580 0.326081 0.326661
0.238424 0.239409 0.237775
0.202129 0.202451 0.202276
0.238537 0.239047 0.243008
0.203093 0.201193 0.201447
0.213847 0.218295 0.218164
0.202383 0.202850 0.204064
0.213031 0.212182 0.211278
0.275404 0.283492 0.287631
0.165499 0.164469 0.162698
0.262333 0.261985 0.262493
0.933469 0.930387 0.921181
0.224033 0.226968 0.227487
0.223797 0.223927 0.224348
0.182384 0.181960 0.181988
0.192193 0.192026 0.189959
0.182194 0.182470 0.182458
0.172404 0.172518 0.167763
0.213216 0.218335 0.219197
0.383298 0.386327 0.396349
0.214371 0.214581 0.215416
0.789021 0.790401 0.791558
0.220179 0.212827 0.212549
0.217157 0.217462 0.216844
0.239516 0.238176 0.238944
0.198717 0.201492 0.202823
0.169562 0.169595 0.168837
0.230187 0.230329 0.227909
0.228699 0.228359 0.228972
0.193859 0.193882 0.193752
0.191810 0.191322 0.188805
0.685871 0.688763 0.684137
0.930492 0.918783 0.914633
0.237371 0.240623 0.237161
0.178813 0.179152 0.179004
0.223252 0.231065 0.231969
0.869526 0.861193 0.861223
0.272555 0.272733 0.272239
0.212052 0.212149 0.212220
0.196626 0.196885 0.199537
0.604377 0.604592 0.601545
0.517547 0.525761 0.528555
0.327526 0.329160 0.332560
0.197604 0.205073 0.201487
0.270005 0.271103 0.271734
0.205819 0.204528 0.204740
0.786241 0.782002 0.770470
0.303776 0.301713 0.302138
0.231460 0.231128 0.228708
0.252089 0.253360 0.254406
0.231825 0.231516 0.231685
0.235245 0.234622 0.223495
0.509543 0.508559 0.500011
0.302806 0.304261 0.303866
0.207318 0.205774 0.205530
0.232674 0.236368 0.237526
0.267129 0.266644 0.259822
0.227647 0.230485 0.230682
0.239366 0.240217 0.241971
0.192813 0.193108 0.191660
0.235274 0.234351 0.235698
0.207102 0.204074 0.204161
0.215616 0.214150 0.214826
0.205093 0.203432 0.202600
0.193104 0.193991 0.194523
0.205973 0.205767 0.204336
0.214040 0.213665 0.215616
0.425516 0.422269 0.422883
0.223252 0.223671 0.224609
0.289045 0.288933 0.287846
0.217842 0.218097 0.218534
0.240373 0.240485 0.258028
0.252112 0.251025 0.249250
0.224084 0.223900 0.223736
0.198521 0.201499 0.201631
0.193799 0.195514 0.197049
0.235698 0.235449 0.242177
0.233070 0.232009 0.232010
0.194142 0.191371 0.190681
0.238551 0.242058 0.242196
0.274025 0.277840 0.277979
0.276757 0.278860 0.280172
0.430687 0.429409 0.428228
0.234823 0.234703 0.234052
0.215650 0.207137 0.208165
0.242403 0.242146 0.242692
0.205163 0.205139 0.205085
0.293156 0.305371 0.308186
0.405922 0.414404 0.432388
0.190387 0.188757 0.189967
0.184357 0.183980 0.184307
0.534476 0.537293 0.541418
0.195642 0.195887 0.198241
0.939383 0.936832 0.938289
0.189539 0.190845 0.189542
0.191262 0.190548 0.190641
0.461677 0.466331 0.470791
0.498359 0.499336 0.500687
0.264098 0.264387 0.261363
0.188489 0.187938 0.188994
0.229046 0.227432 0.227689
0.934176 0.935611 0.950294
0.175311 0.175897 0.165508
0.782002 0.770470 0.767932
0.329040 0.328812 0.328344
0.411930 0.410737 0.408771
0.215037 0.215260 0.215187
0.229328 0.230016 0.229883
0.215093 0.216255 0.215566
0.204939 0.204010 0.203412
0.207895 0.206991 0.208274
0.233994 0.238130 0.238779
0.182943 0.183309 0.183661
0.215687 0.217121 0.217842
0.193662 0.193376 0.193219
0.430138 0.430233 0.432603
0.265164 0.272331 0.275013
0.263872 0.263637 0.262898
0.215347 0.214796 0.214924
0.316118 0.316909 0.318324
0.221516 0.221380 0.222138
0.188797 0.187918 0.188646
0.196078 0.196284 0.195867
0.211732 0.212001 0.211492
0.206244 0.205346 0.204892
0.597277 0.589448 0.590260
0.258106 0.257704 0.258655
0.166710 0.167012 0.170205
0.275777 0.268633 0.270709
0.193651 0.193745 0.193472
0.262623 0.262759 0.257489
0.480469 0.461905 0.456346
0.201154 0.200883 0.205849
0.253395 0.253730 0.254358
0.253898 0.254446 0.254965
0.241092 0.239692 0.235863
0.215181 0.217397 0.217943
0.185139 0.186863 0.185867
0.190198 0.193351 0.195119
0.187114 0.187544 0.187490
0.414633 0.418302 0.422176
0.228095 0.235464 0.235426
0.223756 0.224222 0.224101
0.219327 0.219610 0.219144
0.228016 0.228532 0.228173
0.266863 0.266455 0.266142
0.176139 0.177007 0.182178
0.167996 0.177319 0.179933
0.241555 0.241689 0.241902
0.311662 0.321668 0.330264
0.388630 0.387971 0.385276
0.602803 0.606715 0.613467
0.599136 0.602461 0.607637
0.272515 0.274379 0.275470
0.225566 0.225338 0.221656
0.677438 0.672213 0.665881
0.243798 0.243260 0.242924
0.239774 0.241110 0.242163
0.225503 0.224393 0.223386
0.553706 0.553219 0.541958
0.223098 0.224047 0.221057
0.236655 0.236552 0.243250
0.208782 0.212100 0.212819
0.371224 0.374438 0.394283
0.201789 0.202057 0.202653
0.210549 0.210237 0.210216
0.214282 0.214805 0.215540
0.434951 0.434464 0.433656
0.257309 0.258160 0.262779
0.228971 0.230870 0.237071
0.242356 0.242803 0.235923
0.236801 0.236622 0.234857
0.876828 0.878596 0.875903
0.192444 0.192611 0.192800
0.227284 0.228188 0.225154
0.200255 0.201743 0.203311
0.196825 0.196157 0.196366
0.233870 0.233672 0.232051
0.261473 0.263296 0.265966
0.869816 0.842634 0.837259
0.303504 0.302602 0.302107
0.180683 0.179946 0.180158
0.172270 0.167757 0.167492
0.186474 0.186418 0.189660
0.208240 0.209502 0.209814
0.262700 0.261827 0.260790
0.214894 0.214607 0.214634
0.236269 0.230998 0.230911
0.216650 0.217777 0.219446
0.198151 0.197203 0.198263
0.226439 0.230953 0.232931
0.234008 0.233640 0.234258
0.221774 0.222996 0.223568
0.171105 0.168807 0.169053
0.200583 0.200120 0.200511
0.189492 0.187145 0.181956
0.217236 0.217426 0.225083
0.806641 0.799961 0.792761
0.163855 0.164312 0.164219
0.801985 0.799289 0.789198
0.258738 0.258576 0.258765
0.263213 0.261073 0.259971
0.192487 0.191750 0.189334
0.238435 0.239251 0.238137
0.189437 0.188123 0.188864
0.209742 0.208821 0.210828
0.188026 0.189075 0.190509
0.232970 0.232952 0.230338
0.214097 0.216762 0.217194
0.346320 0.346015 0.346391
0.263139 0.264698 0.264262
0.199569 0.192694 0.189437
0.264513 0.265864 0.265801
0.221038 0.220782 0.221210
0.208223 0.207407 0.204989
0.263910 0.263928 0.264660
0.203341 0.202423 0.206995
0.274021 0.274026 0.276946
0.194162 0.194472 0.194716
0.230186 0.225707 0.224679
0.355975 0.352758 0.348515
0.201154 0.202437 0.206628
0.242160 0.242277 0.244643
0.204974 0.204768 0.204669
0.845493 0.857589 0.879879
0.190460 0.189784 0.190164
0.252518 0.252907 0.253471
0.219924 0.220472 0.220945
0.217023 0.216230 0.215899
0.325143 0.321587 0.320802
0.537380 0.535622 0.532098
0.207851 0.210035 0.195584
0.189608 0.190453 0.191141
0.385819 0.388161 0.386070
0.793114 0.792085 0.787405
0.843368 0.844847 0.847340
0.504570 0.504337 0.504117
0.204961 0.205066 0.203919
0.272489 0.274268 0.274108
0.495838 0.493917 0.494144
0.189563 0.189347 0.191028
0.190482 0.190169 0.190254
0.663886 0.664233 0.664936
0.291692 0.290094 0.290111
0.253728 0.253338 0.251781
0.537556 0.536628 0.545291
0.190281 0.190547 0.197374
0.190412 0.190129 0.189813
0.166305 0.166377 0.166311
0.199537 0.201518 0.202289
0.219310 0.218926 0.218450
0.188439 0.187951 0.189233
0.452263 0.449123 0.445961
0.202735 0.202525 0.201812
0.237378 0.245611 0.246635
0.201105 0.199603 0.202710
0.239757 0.238828 0.238433
0.217825 0.217562 0.217154
0.899016 0.899779 0.896191
0.228610 0.225233 0.225069
0.245001 0.243888 0.243071
0.201534 0.201798 0.203330
0.230138 0.230426 0.230998
0.315322 0.315909 0.316007
0.164789 0.163581 0.162939
0.872269 0.871921 0.875749
0.233082 0.232908 0.233439
0.199162 0.199415 0.200095
0.269726 0.269085 0.268881
0.882520 0.878233 0.876906
0.188252 0.187401 0.187255
0.216094 0.216413 0.212705
0.236348 0.236985 0.238627
0.307785 0.308734 0.308885
0.199836 0.199533 0.199496
0.244078 0.238299 0.237116
0.210796 0.212731 0.211619
0.208629 0.208769 0.200229
0.189896 0.188781 0.186476
0.224490 0.224050 0.223748
0.185575 0.188299 0.188364
0.457236 0.456135 0.449593
0.184341 0.187668 0.189922
0.232916 0.231773 0.232661
0.231983 0.231036 0.230751
0.251556 0.240803 0.240394
0.231552 0.230651 0.230179
0.397903 0.397587 0.400809
0.173066 0.172574 0.172430
0.188237 0.187733 0.186895
0.236631 0.236674 0.237420
0.229829 0.229638 0.229776
0.350937 0.350983 0.350307
0.206265 0.206428 0.212241
0.486194 0.488237 0.488280
0.196324 0.196335 0.194270
0.223015 0.223306 0.223882
0.303727 0.302861 0.301636
0.411000 0.405730 0.402678
0.187106 0.185600 0.185465
0.166474 0.166287 0.166710
0.253867 0.252202 0.251990
0.272436 0.272864 0.272529
0.186182 0.185703 0.186015
0.247120 0.248772 0.248559
0.245761 0.246661 0.247493
0.195241 0.195323 0.195000
0.239839 0.241176 0.241531
0.273392 0.271620 0.269229
0.324298 0.325936 0.331072
0.196497 0.192968 0.192012
0.223468 0.224136 0.223323
0.840786 0.839788 0.841251
0.244409 0.245098 0.242301
0.254302 0.253430 0.252557
0.202865 0.201154 0.204291
0.249360 0.249279 0.249270
0.330721 0.327493 0.326539
0.231002 0.227748 0.227384
0.164550 0.164146 0.163378
0.218889 0.218657 0.218091
0.190548 0.190641 0.189070
0.206891 0.207193 0.206903
0.197262 0.195543 0.193923
0.189895 0.193656 0.194036
0.195363 0.195129 0.191284
0.185928 0.185705 0.186041
0.189846 0.189933 0.189729
0.267712 0.259552 0.260982
0.394283 0.400695 0.404184
0.328097 0.327783 0.327309
0.199267 0.199938 0.199909
0.196840 0.196812 0.196803
0.206406 0.206858 0.205400
0.202774 0.200755 0.204199
0.225040 0.225196 0.224169
0.182231 0.184331 0.184955
0.179146 0.179347 0.179796
0.235729 0.236498 0.231013
0.236404 0.232192 0.232827
0.234679 0.235701 0.242463
0.544448 0.558386 0.563407
0.194033 0.193848 0.194074
0.303973 0.303894 0.302202
0.177409 0.180062 0.179469
0.206353 0.204855 0.206297
0.540858 0.541361 0.541219
0.193413 0.193582 0.192333
0.205058 0.204438 0.203817
0.204401 0.203595 0.197106
0.190247 0.186506 0.186226
0.201489 0.201355 0.202127
0.189988 0.188190 0.188228
0.235835 0.237858 0.232327
0.238864 0.238384 0.237633
0.227476 0.228883 0.230603
0.216023 0.215221 0.214885
0.519518 0.504829 0.494035
0.235701 0.234935 0.232653
0.204640 0.201126 0.207858
0.376481 0.373444 0.373135
0.201471 0.199103 0.197423
0.346550 0.346849 0.349491
0.237673 0.238266 0.239072
0.206571 0.206207 0.206328
0.219268 0.219194 0.218938
0.233235 0.235963 0.235251
0.197955 0.196969 0.190187
0.236668 0.236592 0.234810
0.416577 0.429007 0.436440
0.664432 0.664415 0.667020
0.195475 0.198225 0.198107
0.268509 0.267327 0.268215
0.210607 0.211387 0.211140
0.222139 0.222057 0.221600
0.178336 0.178653 0.178901
0.202857 0.202113 0.200669
0.263381 0.262657 0.262080
0.454552 0.454496 0.454664
0.216177 0.211320 0.210573
0.234513 0.234577 0.234799
0.207455 0.205599 0.206666
0.199712 0.199959 0.202752
