0.744175 0.754142 0.761365
0.534938 0.522860 0.521013
0.541575 0.544015 0.544258
0.695132 0.694185 0.698238
0.692719 0.689414 0.685420
0.737468 0.736481 0.734075
0.735847 0.733685 0.730170
0.844283 0.844274 0.839602
0.686857 0.678326 0.678873
0.768525 0.779850 0.787557
0.841629 0.838148 0.836973
0.865016 0.858735 0.842375
0.736194 0.738161 0.738663
0.752602 0.763727 0.768211
0.795759 0.804597 0.807740
0.588225 0.589901 0.589291
0.630451 0.626489 0.633147
0.569995 0.576674 0.580667
0.567418 0.566280 0.562439
0.743463 0.748219 0.752911
0.586083 0.571379 0.565246
0.558547 0.563028 0.562662
0.756074 0.757427 0.764956
0.830370 0.827700 0.830185
0.616724 0.619437 0.620733
0.939208 0.936726 0.935386
0.618493 0.616770 0.621417
0.592751 0.592101 0.590211
0.763718 0.759764 0.757615
0.845532 0.845209 0.829382
0.593772 0.592735 0.590768
0.740459 0.736869 0.733038
0.581330 0.578640 0.580498
0.539651 0.542869 0.537186
0.687758 0.690522 0.690213
0.529791 0.536138 0.546463
0.769936 0.771704 0.772457
0.656154 0.653471 0.652618
0.622807 0.620931 0.617146
0.821608 0.807732 0.801169
0.631372 0.631020 0.634526
0.547583 0.547559 0.545896
0.744505 0.745684 0.743494
0.589337 0.587594 0.590443
0.791347 0.791436 0.784882
0.634241 0.629605 0.629498
0.778591 0.778616 0.778738
0.829176 0.831660 0.831617
0.640729 0.632184 0.627985
0.654739 0.656041 0.656352
0.692673 0.694456 0.690753
0.519147 0.522402 0.529565
0.687364 0.686252 0.680556
0.836280 0.821808 0.818269
0.776998 0.777312 0.781587
0.645462 0.647484 0.643955
0.716600 0.717468 0.716707
0.751600 0.753455 0.754433
0.734183 0.739835 0.736485
0.535379 0.536362 0.537268
0.581084 0.584709 0.579317
0.766001 0.763731 0.761090
0.520603 0.519577 0.518132
0.738870 0.735960 0.722378
0.644614 0.648420 0.649918
0.729574 0.730957 0.732043
0.659050 0.663100 0.669146
0.750972 0.749387 0.755425
0.620529 0.618687 0.614000
0.595011 0.593383 0.589910
0.810557 0.810978 0.808368
0.557082 0.562898 0.553840
0.841792 0.841430 0.844496
0.808012 0.806295 0.797278
0.816717 0.804893 0.809745
0.749279 0.746148 0.760745
0.533106 0.532571 0.529135
0.553901 0.548917 0.546949
0.527630 0.536582 0.534507
0.642418 0.647442 0.646319
0.551909 0.550606 0.548174
0.722854 0.720888 0.725011
0.570991 0.569201 0.570575
0.578514 0.579850 0.585053
0.583162 0.585134 0.584296
0.532419 0.530750 0.531337
0.518579 0.509024 0.505553
0.697036 0.695755 0.695795
0.616795 0.611194 0.607823
0.697786 0.707814 0.708210
0.646894 0.633755 0.624570
0.518880 0.518700 0.518278
0.678913 0.681496 0.677875
0.733755 0.730792 0.730442
0.595334 0.592713 0.595407
0.893272 0.890899 0.910968
0.588498 0.592639 0.591428
0.557362 0.550286 0.549425
0.688584 0.688250 0.686722
0.681819 0.682128 0.678437
0.529301 0.528507 0.527632
0.777338 0.781413 0.780099
0.507389 0.502565 0.505909
0.575054 0.579341 0.583232
0.771710 0.766911 0.771081
0.509386 0.504456 0.504096
0.732408 0.733153 0.728890
0.811488 0.812553 0.815237
0.738800 0.746971 0.749204
0.695445 0.694182 0.692363
0.779924 0.775161 0.765792
0.643005 0.640729 0.632184
0.638817 0.639747 0.639348
0.847393 0.841712 0.837906
0.518577 0.521919 0.522320
0.721141 0.717436 0.720800
0.562838 0.563664 0.564396
0.571285 0.569339 0.572107
0.536138 0.546463 0.547295
0.646105 0.646870 0.648799
0.722624 0.733895 0.742201
0.631808 0.630914 0.628347
0.781640 0.783192 0.786880
0.581034 0.579355 0.579007
0.834727 0.833260 0.830686
0.789096 0.786624 0.782545
0.490488 0.490353 0.492903
0.838336 0.834906 0.833755
0.584693 0.591945 0.593038
0.755571 0.755459 0.758564
0.543353 0.543585 0.539050
0.633498 0.637053 0.643293
0.727719 0.724303 0.723087
0.682793 0.686075 0.686126
0.723645 0.722206 0.724092
0.534109 0.528235 0.535205
0.569881 0.567034 0.561890
0.764968 0.778289 0.795835
0.495980 0.496944 0.492262
0.592339 0.591372 0.587307
0.568988 0.564658 0.563631
0.569861 0.574728 0.578315
0.818829 0.822129 0.822550
0.552291 0.545834 0.552562
0.584043 0.585480 0.585819
0.576852 0.576644 0.573645
0.768476 0.761771 0.751624
0.722989 0.722081 0.719388
0.565539 0.559945 0.566591
0.570995 0.570362 0.564864
0.551103 0.549194 0.543122
0.781819 0.780006 0.781815
0.517475 0.519609 0.521014
0.575881 0.580505 0.580655
0.530054 0.520048 0.518074
0.584365 0.584967 0.583924
0.683585 0.687624 0.694878
0.887403 0.880348 0.858702
0.690835 0.694066 0.687771
0.694252 0.692605 0.692882
0.546947 0.547587 0.542754
0.592180 0.586680 0.586982
0.588937 0.586770 0.581926
0.565660 0.567498 0.570242
0.596498 0.598837 0.598208
0.579884 0.583051 0.580646
0.782276 0.783417 0.784623
0.753478 0.761131 0.759705
0.493864 0.493038 0.498012
0.506049 0.515386 0.521106
0.750505 0.745440 0.753801
0.839692 0.838238 0.840258
0.748399 0.748060 0.747283
0.671836 0.671994 0.670231
0.513227 0.514859 0.515353
0.697380 0.696359 0.697622
0.494010 0.498346 0.504983
0.648472 0.637821 0.608410
0.535187 0.536429 0.541288
0.670081 0.668853 0.670716
0.695253 0.694866 0.696010
0.842304 0.843100 0.840820
0.735648 0.729575 0.727245
0.503518 0.505430 0.507752
0.807104 0.806639 0.806994
0.566314 0.567114 0.567757
0.702711 0.698994 0.697724
0.529133 0.535309 0.542576
0.522635 0.524001 0.525161
0.574314 0.572988 0.563059
0.670788 0.671555 0.662072
0.639193 0.648152 0.657664
0.763667 0.754423 0.749702
0.629824 0.635002 0.641843
0.542186 0.536511 0.536325
0.620462 0.619820 0.618763
0.717436 0.720800 0.733045
0.637956 0.636383 0.631343
0.799230 0.806064 0.810714
0.751821 0.739709 0.734444
0.525327 0.530573 0.537272
0.537419 0.533948 0.534066
0.585153 0.580548 0.581025
0.525069 0.523772 0.518490
0.601721 0.598298 0.594566
0.558342 0.562045 0.562025
0.777904 0.781976 0.786782
0.577767 0.579499 0.582809
0.757904 0.758528 0.766912
0.552002 0.548313 0.544869
0.656497 0.654904 0.648621
0.644013 0.645250 0.648096
0.748646 0.747547 0.751926
0.633529 0.638972 0.650724
0.548676 0.552947 0.554189
0.754017 0.755071 0.747519
0.633041 0.635025 0.633719
0.564535 0.563454 0.564073
0.722195 0.720694 0.718738
0.630300 0.631006 0.633698
0.665717 0.669199 0.672792
0.515416 0.519838 0.520435
0.769396 0.767543 0.774574
0.638156 0.630913 0.628806
0.672180 0.677411 0.674243
0.664225 0.668294 0.681239
0.505816 0.505290 0.502596
0.537827 0.534210 0.525840
0.567207 0.568644 0.570752
0.500144 0.506307 0.512832
0.510624 0.507161 0.505048
0.541900 0.543612 0.543260
0.825953 0.826179 0.832746
0.758088 0.758929 0.762965
0.720909 0.735610 0.742709
0.823963 0.826007 0.827011
0.560179 0.559117 0.571263
0.664905 0.670181 0.683960
0.703398 0.700332 0.700371
0.798936 0.791610 0.791783
0.558915 0.560477 0.559174
0.772464 0.770170 0.777108
0.647154 0.657586 0.662979
0.842913 0.840629 0.844758
0.754068 0.759469 0.763023
0.503786 0.505016 0.504743
0.564830 0.557577 0.553890
0.796941 0.788335 0.779362
0.604680 0.605297 0.600575
0.754589 0.754209 0.754145
0.755439 0.755091 0.758543
0.810425 0.811230 0.807642
0.499513 0.498972 0.499515
0.715058 0.715255 0.716889
0.647262 0.650111 0.650336
0.913183 0.909660 0.906819
0.712918 0.713097 0.715082
0.595805 0.595786 0.592035
0.734357 0.737190 0.740273
0.807374 0.798401 0.788113
0.559144 0.559365 0.561760
0.770160 0.771350 0.769001
0.642176 0.640630 0.641097
0.703802 0.705517 0.705934
0.698235 0.698984 0.697090
0.603557 0.603318 0.612961
0.797982 0.797789 0.806573
0.682191 0.665376 0.659890
0.808869 0.819727 0.825774
0.632543 0.638676 0.639287
0.826647 0.830976 0.828254
0.634986 0.633308 0.633614
0.828065 0.830136 0.829916
0.548751 0.543949 0.548687
0.869800 0.877288 0.871358
0.756980 0.746762 0.740253
0.531550 0.533464 0.532691
0.785189 0.786307 0.787375
0.851391 0.843709 0.845200
0.520890 0.529658 0.530185
0.741748 0.743625 0.752820
0.883610 0.885821 0.891251
0.677745 0.682523 0.681136
0.550274 0.550691 0.548733
0.528460 0.528452 0.534661
0.538995 0.539272 0.541537
0.847432 0.842733 0.847010
0.629619 0.631420 0.630696
0.632864 0.635316 0.635141
0.725701 0.731633 0.731175
0.531434 0.532387 0.533177
0.680486 0.683671 0.684912
0.546080 0.550576 0.543066
0.584789 0.579535 0.575864
0.768501 0.768144 0.766930
0.714939 0.716826 0.719753
0.578558 0.574504 0.574532
0.592398 0.595166 0.603266
0.556496 0.560463 0.562201
0.591860 0.595608 0.594210
0.580118 0.584078 0.585015
0.782398 0.786496 0.791292
0.575870 0.575569 0.575325
0.538425 0.536745 0.533251
0.694115 0.693333 0.693399
0.635777 0.650845 0.652055
0.755034 0.754688 0.756105
0.666295 0.676680 0.684260
0.531324 0.528403 0.533903
0.557779 0.559485 0.563583
0.699779 0.701438 0.702808
0.820660 0.824069 0.830901
0.690537 0.685528 0.693210
0.605066 0.609842 0.612398
0.620139 0.619748 0.609912
0.858161 0.856772 0.853888
0.509353 0.504785 0.503793
0.526161 0.526764 0.525216
0.867656 0.862107 0.852344
0.574968 0.567564 0.568373
0.721877 0.738708 0.749981
0.519958 0.522489 0.523463
0.652537 0.658766 0.668849
0.789340 0.795592 0.797886
0.567097 0.566904 0.565314
0.530465 0.529762 0.526562
0.551419 0.551430 0.553445
0.695235 0.690218 0.691068
0.583632 0.583373 0.579075
0.614274 0.613646 0.613338
0.519143 0.519968 0.515884
0.532617 0.538455 0.539381
0.574725 0.570741 0.568814
0.567345 0.558958 0.558665
0.879647 0.877343 0.880588
0.612700 0.611980 0.610339
0.761422 0.752334 0.742687
0.748749 0.749950 0.761453
0.611083 0.609382 0.606000
0.596699 0.596547 0.592562
0.552081 0.551817 0.551468
0.598215 0.591043 0.590200
0.609084 0.614734 0.619310
0.530977 0.526729 0.524073
0.673794 0.675308 0.679703
0.573956 0.576177 0.578475
0.494652 0.497006 0.501527
0.737128 0.736855 0.735563
0.613493 0.612673 0.612809
0.746806 0.746859 0.742464
0.752914 0.755394 0.750351
0.589445 0.587556 0.587354
0.662366 0.656891 0.654508
0.717829 0.717349 0.716172
0.555840 0.562607 0.562907
0.556661 0.556700 0.555048
0.684319 0.684906 0.686284
0.773610 0.774176 0.772787
0.625311 0.630854 0.632684
0.588513 0.583776 0.581080
0.702149 0.699860 0.702147
0.512363 0.513942 0.515616
0.498032 0.495093 0.490776
0.847689 0.845709 0.846434
0.714872 0.718096 0.722026
0.849954 0.843324 0.839795
0.707332 0.707328 0.705928
0.538268 0.531415 0.529060
0.563469 0.564138 0.562504
0.550967 0.550872 0.550484
0.522342 0.520417 0.526186
0.781591 0.789982 0.789417
0.621312 0.625707 0.625577
0.788867 0.785594 0.784005
0.632658 0.621342 0.612732
0.684908 0.683705 0.683140
0.575199 0.576386 0.582101
0.578430 0.580756 0.574776
0.640812 0.638061 0.649141
0.825681 0.817341 0.809148
0.760109 0.756708 0.743483
0.812645 0.805102 0.804869
0.638565 0.638671 0.649014
0.812375 0.817260 0.818649
0.753438 0.753211 0.752699
0.515674 0.513089 0.516405
0.799334 0.795907 0.795533
0.861993 0.858601 0.867681
0.530030 0.535723 0.535533
0.931600 0.938378 0.935365
0.496655 0.499257 0.500380
0.559390 0.560475 0.556408
0.656744 0.657266 0.656589
0.730101 0.732436 0.737221
0.966257 0.965017 0.963877
0.515616 0.515337 0.517998
0.554107 0.551370 0.551645
0.594944 0.595613 0.593740
0.512645 0.518141 0.526378
0.725921 0.731708 0.734890
0.725986 0.729683 0.732531
0.736214 0.733356 0.732113
0.551418 0.559993 0.563792
0.545471 0.548236 0.542645
0.846389 0.850535 0.857994
0.778256 0.779959 0.777693
0.538476 0.546479 0.547412
0.552152 0.551471 0.549380
0.814069 0.810258 0.807374
0.605723 0.606546 0.601653
0.725596 0.724363 0.722177
0.705664 0.702210 0.709599
0.849432 0.842325 0.837756
0.900213 0.902009 0.902332
0.796727 0.793821 0.795471
0.632919 0.632097 0.638038
0.683707 0.686198 0.684782
0.506533 0.507893 0.509222
0.540701 0.542649 0.538545
0.552652 0.550654 0.549454
0.837464 0.842443 0.852372
0.582380 0.578237 0.570505
0.823585 0.827985 0.829258
0.722726 0.708202 0.704608
0.584046 0.586353 0.586983
0.662849 0.668430 0.667986
0.751867 0.751128 0.736673
0.565258 0.569330 0.571768
0.760001 0.762359 0.764574
0.637727 0.643777 0.644221
0.558611 0.560830 0.561254
0.507089 0.512762 0.515337
0.551435 0.551270 0.553130
0.590617 0.589908 0.591415
0.623368 0.630709 0.639731
0.578343 0.581210 0.580759
0.691126 0.694379 0.703187
0.502297 0.499363 0.499369
0.612244 0.613658 0.616025
0.528449 0.532540 0.532005
0.516763 0.515171 0.518124
0.718770 0.720584 0.731073
0.562952 0.564746 0.566765
0.696623 0.695010 0.688302
0.820728 0.823585 0.827985
0.731252 0.733720 0.734876
0.869118 0.873314 0.877069
0.654611 0.663252 0.661764
0.651250 0.653813 0.652627
0.620871 0.629614 0.623183
0.724324 0.723314 0.728057
0.617368 0.618751 0.617805
0.536645 0.538400 0.533708
0.694846 0.695660 0.692197
0.780340 0.780144 0.776892
0.823298 0.823293 0.824211
0.765770 0.767449 0.776260
0.537589 0.540200 0.542043
0.791967 0.792270 0.792086
0.583300 0.586340 0.586913
0.504897 0.505577 0.504430
0.532415 0.522029 0.522539
0.641642 0.639853 0.639475
0.836638 0.837238 0.830965
0.760639 0.767758 0.773523
0.845103 0.847027 0.847219
0.519304 0.522078 0.512320
0.638411 0.638927 0.636866
0.539301 0.540871 0.544425
0.562211 0.562648 0.562323
0.784310 0.777992 0.779083
0.764570 0.761408 0.759784
0.557372 0.561791 0.560254
0.978546 0.971367 0.956893
0.750874 0.740129 0.742072
0.705704 0.707033 0.710543
0.575784 0.580717 0.583547
0.696462 0.698677 0.698090
0.584699 0.597025 0.610206
0.662107 0.658921 0.660470
0.595771 0.592245 0.589688
0.613047 0.611795 0.616419
0.554666 0.556448 0.558840
0.620245 0.620013 0.622336
0.690724 0.691680 0.691305
0.546182 0.542649 0.538152
0.737365 0.734643 0.731708
0.653468 0.648712 0.646768
0.653887 0.640425 0.646476
0.564076 0.562778 0.573310
0.669992 0.667954 0.661966
0.561246 0.559278 0.560904
0.585635 0.582145 0.583740
0.717845 0.715285 0.713506
0.809186 0.821717 0.824559
0.551853 0.546245 0.543347
0.743571 0.748140 0.746183
0.572195 0.571478 0.565758
0.832962 0.833638 0.841723
0.748128 0.750869 0.749770
0.749799 0.756971 0.760838
0.926873 0.921922 0.915077
0.518541 0.522990 0.525729
0.531154 0.529531 0.524925
0.619679 0.611693 0.610627
0.675389 0.675472 0.684719
0.511365 0.503969 0.505137
0.746645 0.752602 0.763727
0.518519 0.514789 0.513248
0.636334 0.642026 0.639572
0.688993 0.670283 0.667441
0.535400 0.544567 0.549304
0.560129 0.555947 0.557255
0.696111 0.695264 0.697056
0.870112 0.867686 0.868043
0.736177 0.727982 0.718167
0.566605 0.563806 0.564074
0.499655 0.503356 0.504062
0.747655 0.744878 0.747738
0.668237 0.668580 0.667968
0.821355 0.821029 0.815890
0.486134 0.484827 0.481797
0.519495 0.515725 0.525095
0.657420 0.655748 0.652009
0.494053 0.493104 0.488875
0.697349 0.685392 0.682111
0.602584 0.598641 0.599927
0.623521 0.622185 0.621843
0.531238 0.531985 0.540850
0.543892 0.542377 0.541021
0.590681 0.584218 0.584091
0.706791 0.710036 0.709250
0.702519 0.707182 0.707779
0.684693 0.684388 0.683835
0.756248 0.758162 0.745512
0.775292 0.774773 0.773961
0.851721 0.851972 0.852226
0.774632 0.778306 0.778937
0.619180 0.622791 0.607096
0.560603 0.559031 0.560523
0.715905 0.715708 0.718740
0.531610 0.530745 0.525270
0.719753 0.719041 0.715276
0.577044 0.572132 0.571548
0.688287 0.687204 0.690127
0.554418 0.552306 0.550335
0.748425 0.747665 0.748168
0.669830 0.676204 0.677222
0.806938 0.805371 0.798913
0.716553 0.725695 0.739961
0.533025 0.535009 0.533967
0.539326 0.541698 0.541382
0.731169 0.729644 0.725901
0.611244 0.614508 0.615427
0.691308 0.690189 0.687211
0.504250 0.502673 0.502366
0.812481 0.809452 0.809909
0.833976 0.833953 0.833647
0.585671 0.585692 0.582425
0.570169 0.571880 0.570852
0.541396 0.535405 0.520164
0.654388 0.653053 0.654703
0.809732 0.789720 0.784059
0.523221 0.515608 0.512320
0.552481 0.553686 0.554230
0.564124 0.566330 0.566821
0.717794 0.726523 0.733303
0.573346 0.569820 0.563703
0.761931 0.762358 0.763953
0.531664 0.536679 0.537739
0.648370 0.634000 0.627960
0.912541 0.912993 0.912757
0.548230 0.553626 0.561514
0.518289 0.512182 0.516542
0.530014 0.536961 0.541226
0.671994 0.670231 0.669716
0.687808 0.686730 0.692121
0.669995 0.669775 0.665466
0.737741 0.735447 0.736756
0.582756 0.583495 0.583502
0.634170 0.631003 0.630405
0.771691 0.767429 0.758466
0.789254 0.786851 0.786972
0.620871 0.623214 0.622795
0.595978 0.597331 0.599873
0.525653 0.529973 0.531497
0.714627 0.714009 0.703384
0.505417 0.506892 0.510054
0.547069 0.546879 0.556244
0.851448 0.867785 0.890810
0.729302 0.695929 0.688047
0.702155 0.710449 0.707332
0.730018 0.737680 0.745061
0.534971 0.538996 0.540708
0.717440 0.719789 0.718690
0.622953 0.619898 0.620837
0.532540 0.532005 0.532278
0.673761 0.676355 0.677848
0.674336 0.680661 0.679047
0.827537 0.825854 0.822222
0.513435 0.514836 0.515139
0.508036 0.506426 0.513411
0.647741 0.647746 0.642617
0.775868 0.782277 0.779824
0.757803 0.760702 0.759946
0.650795 0.648635 0.651083
0.576538 0.577846 0.585201
0.599245 0.601953 0.626943
0.718242 0.722136 0.728677
0.634196 0.637520 0.635694
0.758617 0.763632 0.763960
0.524686 0.515219 0.516088
0.551309 0.561898 0.563744
0.867729 0.861574 0.851767
0.730035 0.735348 0.724698
0.764719 0.764459 0.768973
0.749872 0.755629 0.756766
0.695996 0.707708 0.714526
0.573781 0.576584 0.567101
0.549838 0.552810 0.552296
0.772687 0.771910 0.769257
0.551439 0.553909 0.553486
0.718647 0.718777 0.722779
0.547957 0.549839 0.558173
0.748956 0.755587 0.752179
0.805458 0.801449 0.791901
0.748059 0.755899 0.745797
0.758409 0.756303 0.755630
0.671991 0.670638 0.670268
0.735669 0.735174 0.732281
0.601661 0.597794 0.598510
0.555739 0.558433 0.553392
0.690357 0.672358 0.666190
0.802789 0.806271 0.809441
0.634210 0.629931 0.622657
0.563558 0.567604 0.572285
0.769715 0.766456 0.764742
0.750048 0.747900 0.756457
0.773567 0.773714 0.769636
0.678969 0.683820 0.694821
0.546834 0.549428 0.548169
0.965704 0.974872 0.970044
0.756094 0.729686 0.732188
0.515761 0.519657 0.517842
0.536725 0.535986 0.537589
0.530791 0.530887 0.533200
0.678700 0.680747 0.672309
0.717418 0.715475 0.710314
0.706143 0.713324 0.730423
0.675067 0.675493 0.681705
0.525263 0.522737 0.520762
0.759710 0.773009 0.783896
0.734696 0.731142 0.725507
0.853535 0.851666 0.845029
0.583502 0.583798 0.581763
0.645405 0.643477 0.642058
0.699072 0.699327 0.699146
0.804152 0.810969 0.810651
0.650648 0.648696 0.636377
0.551299 0.550110 0.549254
0.840258 0.844260 0.845891
0.533461 0.533298 0.532115
0.701046 0.707829 0.707080
0.569395 0.567004 0.564807
0.847217 0.842666 0.840678
0.750502 0.756989 0.758203
0.633248 0.631035 0.620871
0.604731 0.608660 0.604536
0.673025 0.668417 0.666023
0.681029 0.679999 0.681266
0.648686 0.650294 0.647606
0.693751 0.691908 0.695944
0.558513 0.558497 0.561547
0.749768 0.742173 0.739060
0.538098 0.540962 0.541835
0.690156 0.688066 0.687889
0.615855 0.618084 0.619884
0.574637 0.572350 0.583401
0.721830 0.738680 0.747812
0.578489 0.578063 0.581540
0.753780 0.754027 0.758281
0.574566 0.575684 0.580230
0.767700 0.772270 0.774130
0.510021 0.510567 0.507415
0.649333 0.647802 0.653070
0.840972 0.840201 0.836927
0.758541 0.762728 0.773929
0.677838 0.678294 0.672626
0.542048 0.543450 0.543899
0.533645 0.534762 0.538995
0.517141 0.515470 0.517355
0.547157 0.535086 0.534718
0.714456 0.714929 0.711149
0.585546 0.586203 0.592483
0.532600 0.532219 0.539471
0.525191 0.526065 0.531601
0.780590 0.753548 0.733416
0.755430 0.750693 0.752577
0.533724 0.523465 0.524035
0.869274 0.863800 0.855334
0.780013 0.784174 0.789254
0.614672 0.610613 0.614217
0.563070 0.557998 0.555129
0.875174 0.875919 0.879975
0.633389 0.639148 0.669768
0.737261 0.742030 0.740131
0.997935 0.989729 0.973208
0.571011 0.572708 0.574417
0.621678 0.617762 0.616125
0.792383 0.791946 0.797923
0.564222 0.564119 0.566445
0.747536 0.749653 0.747259
0.558745 0.554876 0.555456
0.760708 0.762453 0.755293
0.639398 0.638555 0.639815
0.770479 0.769660 0.766940
0.730276 0.732882 0.736823
0.996177 1.000000 0.994634
0.789684 0.789533 0.791150
0.863800 0.855334 0.848061
0.658894 0.653593 0.650182
0.771017 0.772932 0.777229
0.662624 0.655944 0.643643
0.559951 0.568377 0.566057
0.580622 0.577086 0.579887
0.724864 0.721380 0.723870
0.564003 0.577706 0.590186
0.567817 0.569756 0.569075
0.672105 0.670961 0.673154
0.672317 0.685233 0.684038
0.760392 0.763472 0.767955
0.709155 0.706516 0.679756
0.703636 0.702871 0.685934
0.837800 0.839907 0.837270
0.744464 0.743856 0.729096
0.636345 0.629376 0.628604
0.726047 0.721742 0.748434
0.591161 0.593792 0.593179
0.601591 0.598158 0.594216
0.581466 0.580928 0.582246
0.510590 0.511556 0.510325
0.561266 0.560154 0.555968
0.565314 0.563210 0.558430
0.762810 0.765042 0.764978
0.575775 0.573091 0.567481
0.641619 0.640400 0.638703
0.548054 0.545779 0.547023
0.756239 0.752899 0.754452
0.712802 0.713800 0.701974
0.562220 0.564906 0.565059
0.613646 0.613338 0.602902
0.787572 0.776652 0.753284
0.768879 0.766842 0.745894
0.786145 0.783479 0.779185
0.847633 0.860394 0.872778
0.669783 0.672946 0.677718
0.570336 0.568299 0.560015
0.539553 0.543860 0.545209
0.531471 0.531424 0.529884
0.928563 0.922155 0.916204
0.967507 0.972137 0.971340
0.783449 0.777801 0.776297
0.792487 0.795377 0.792072
0.539847 0.545543 0.559719
0.834755 0.835112 0.840017
0.786672 0.784542 0.784930
0.514299 0.516185 0.516137
0.558364 0.554801 0.551992
0.528487 0.528140 0.528578
0.606546 0.601653 0.602200
0.497667 0.511571 0.513420
0.566516 0.567536 0.561552
0.853762 0.848405 0.838744
0.561784 0.570323 0.574016
0.591061 0.589175 0.591922
0.569598 0.562387 0.564885
0.523428 0.518771 0.513653
0.652280 0.656127 0.648996
0.910364 0.910788 0.911643
0.590833 0.593397 0.595887
0.955752 0.956257 0.956921
0.817310 0.814472 0.812690
0.632039 0.619144 0.615377
0.749338 0.749933 0.744544
0.521875 0.522457 0.523367
0.787535 0.781023 0.784214
0.708769 0.703646 0.699854
0.842510 0.843823 0.845491
0.534055 0.531448 0.528969
0.556076 0.554282 0.556769
0.729268 0.723992 0.723796
0.807864 0.798328 0.797326
0.590542 0.592199 0.595545
0.586525 0.589982 0.588654
0.588173 0.585028 0.581695
0.725565 0.714716 0.717208
0.592692 0.585366 0.585437
0.523432 0.525982 0.530330
0.567892 0.564683 0.565917
0.596547 0.592562 0.591460
0.751754 0.757793 0.771285
0.871966 0.871508 0.863567
0.548263 0.548736 0.546062
0.514907 0.515340 0.520024
0.647662 0.647044 0.646518
0.680877 0.635943 0.634674
0.827727 0.828492 0.832540
0.574528 0.582138 0.584102
0.569112 0.568856 0.566050
0.520496 0.513859 0.513740
0.582553 0.576909 0.578703
0.757377 0.768702 0.782002
0.696164 0.700460 0.703192
0.689348 0.694544 0.701881
0.741417 0.735262 0.736526
0.812762 0.798702 0.791621
0.524176 0.524425 0.525173
0.691183 0.692704 0.691503
0.740832 0.744803 0.745861
0.813576 0.808006 0.807273
0.703148 0.700742 0.700293
0.790407 0.778778 0.779773
0.627429 0.628412 0.635446
0.805281 0.808869 0.819727
0.723943 0.721368 0.715847
0.735224 0.735126 0.732513
0.792613 0.787290 0.791806
0.768505 0.762214 0.758113
0.587745 0.591871 0.594951
0.627043 0.625192 0.614975
0.555273 0.554004 0.551464
0.575743 0.573971 0.582178
0.544785 0.548370 0.546296
0.580381 0.583221 0.581366
0.574664 0.574920 0.574490
0.519301 0.522111 0.523107
0.831908 0.833408 0.830370
0.855953 0.847689 0.845709
0.799618 0.800108 0.801091
0.720708 0.724227 0.724746
0.548267 0.543260 0.545871
0.774598 0.775200 0.772893
0.766156 0.765781 0.772673
0.734556 0.741258 0.745143
0.554251 0.549382 0.547403
0.764990 0.754552 0.750731
0.827338 0.825183 0.822731
0.533081 0.530298 0.528692
0.549194 0.543122 0.549929
0.638582 0.635924 0.638178
0.574628 0.567915 0.565337
0.562510 0.564936 0.564786
0.563308 0.555378 0.556552
0.532093 0.531433 0.534549
0.777807 0.769488 0.770543
0.527202 0.535354 0.542658
0.965973 0.967885 0.973077
0.720768 0.724648 0.730800
0.844839 0.843699 0.842948
0.585145 0.587109 0.586531
0.756581 0.752504 0.759117
0.545309 0.547530 0.549944
0.503817 0.514895 0.527610
0.927238 0.927739 0.921551
0.562932 0.562252 0.564254
0.711375 0.707376 0.707588
0.551569 0.550750 0.550967
0.755578 0.748348 0.757353
0.563291 0.559163 0.553352
0.813327 0.813723 0.805595
0.532270 0.528977 0.529038
0.529596 0.518097 0.521825
0.739086 0.741785 0.741783
0.846327 0.852888 0.849926
0.530628 0.522535 0.520786
0.665888 0.668002 0.674615
0.637696 0.636565 0.627158
0.590660 0.599306 0.604680
0.560277 0.562214 0.575896
0.615382 0.615156 0.615663
0.810307 0.812479 0.804063
0.754954 0.758446 0.781644
0.704869 0.704159 0.700217
0.529143 0.528340 0.531003
0.571782 0.573947 0.572875
0.492520 0.495234 0.494258
0.675835 0.679055 0.678681
0.571155 0.568115 0.574401
0.583702 0.585720 0.586008
0.783849 0.784445 0.787731
0.601111 0.593538 0.592041
0.591132 0.599245 0.601953
0.783273 0.787163 0.784714
0.537327 0.536842 0.533339
0.599718 0.599383 0.597646
0.670268 0.668731 0.668240
0.593933 0.593643 0.588712
0.775850 0.783547 0.779738
0.706823 0.713523 0.724756
0.678509 0.677063 0.675806
0.756617 0.752494 0.753994
0.750517 0.754891 0.755180
0.610638 0.610379 0.610243
0.601758 0.605719 0.606339
0.512628 0.516812 0.516681
0.549335 0.552831 0.559619
0.914320 0.910866 0.912532
0.535245 0.538928 0.541165
0.585567 0.581874 0.579410
0.603266 0.602412 0.601765
0.594263 0.593227 0.591045
0.646329 0.647463 0.646161
0.638875 0.652154 0.651444
0.757486 0.757420 0.764089
0.608167 0.612537 0.616223
0.808378 0.807772 0.807894
0.678581 0.683922 0.687537
0.721039 0.721460 0.731771
0.779409 0.770800 0.762159
0.595182 0.591130 0.589273
0.647926 0.657128 0.656102
0.540769 0.543206 0.543946
0.518405 0.519430 0.520075
0.536468 0.536033 0.533222
0.868966 0.867419 0.861340
0.756291 0.757926 0.751998
0.887348 0.883581 0.881329
0.521604 0.520276 0.520738
0.584757 0.584951 0.585478
0.634000 0.635818 0.633526
0.546875 0.544095 0.547040
0.719476 0.725342 0.733668
0.652521 0.659612 0.667239
0.626833 0.629837 0.631168
0.857780 0.857162 0.858741
0.616355 0.621397 0.620529
0.564222 0.563124 0.563501
0.621209 0.614699 0.610371
0.594963 0.594590 0.597150
0.565363 0.570208 0.574092
0.696777 0.698842 0.698808
0.672098 0.671991 0.670638
0.766604 0.762590 0.762763
0.772484 0.771068 0.776680
0.547967 0.551439 0.552440
0.564582 0.564977 0.562968
0.535375 0.537441 0.537127
0.826280 0.827533 0.834261
0.664266 0.665419 0.663051
0.805756 0.807869 0.785434
0.699903 0.701555 0.701764
0.538390 0.535665 0.531099
0.602390 0.604935 0.605283
0.662932 0.658903 0.655356
0.550046 0.561674 0.567294
0.557345 0.549923 0.540701
0.776424 0.776555 0.769811
0.840786 0.842395 0.840380
0.819140 0.823066 0.824623
0.639440 0.631044 0.634363
0.744589 0.781698 0.787422
0.696206 0.694552 0.696879
0.657720 0.662624 0.655944
0.654506 0.660698 0.669502
0.592256 0.592527 0.590309
0.630507 0.630748 0.631122
0.587548 0.583498 0.580557
0.511710 0.509674 0.513202
0.596199 0.594146 0.580715
0.760402 0.762036 0.761798
0.572824 0.582099 0.592167
0.529746 0.525192 0.527195
0.565347 0.562617 0.563542
0.562871 0.561106 0.561577
0.554247 0.559851 0.555880
0.695598 0.696451 0.689451
0.804042 0.808379 0.808165
0.758562 0.756944 0.755449
0.581775 0.582202 0.587250
0.729093 0.722359 0.721504
0.561686 0.565047 0.565571
0.769092 0.762841 0.752775
0.776770 0.773291 0.769828
0.556116 0.553219 0.551919
0.511941 0.509656 0.512956
0.846815 0.854850 0.860256
0.634027 0.634245 0.634150
0.566900 0.561806 0.559304
0.601104 0.601994 0.613483
0.684932 0.681368 0.683785
0.576087 0.575051 0.577575
0.605517 0.608250 0.608043
0.663388 0.662885 0.661220
0.576915 0.574710 0.573270
0.799320 0.805586 0.806397
0.768274 0.771846 0.771182
0.539929 0.547826 0.547715
0.595219 0.592372 0.595612
0.760373 0.753866 0.755571
0.564061 0.562840 0.563130
