0.177549 0.177285 0.176329
0.171593 0.171431 0.171197
0.150174 0.155094 0.157529
0.286628 0.286963 0.286654
0.094464 0.094708 0.094224
0.122485 0.122344 0.122528
0.094574 0.094492 0.094510
0.099401 0.098771 0.098787
0.120125 0.120169 0.119891
0.224450 0.221777 0.222989
0.195646 0.197528 0.198454
0.192187 0.189246 0.189084
0.116517 0.116726 0.115959
0.118195 0.118156 0.118098
0.096776 0.096947 0.095626
0.191382 0.186521 0.186478
0.081053 0.079012 0.077387
0.236301 0.240725 0.241212
0.072327 0.075492 0.075407
0.083327 0.083054 0.081809
0.106295 0.108556 0.108735
0.251411 0.264200 0.271019
0.245251 0.244483 0.244636
0.185328 0.184916 0.181150
0.087955 0.087927 0.084190
0.080345 0.080449 0.080492
0.093178 0.093017 0.093349
0.180903 0.177447 0.176194
0.173901 0.174869 0.181447
0.142438 0.142645 0.142628
0.096131 0.092692 0.092111
0.124145 0.125402 0.126258
0.142184 0.142425 0.142020
0.149104 0.148382 0.146581
0.068559 0.069944 0.070198
0.139036 0.138889 0.138626
0.161478 0.161202 0.160459
0.086319 0.081331 0.078819
0.287163 0.286696 0.286772
0.229833 0.230056 0.234713
0.165021 0.164990 0.165126
0.114381 0.114594 0.118764
0.148594 0.150474 0.151025
0.192010 0.188605 0.188153
0.060918 0.061973 0.062328
0.113685 0.114078 0.114013
0.072835 0.072771 0.072758
0.082347 0.082156 0.081951
0.151736 0.151265 0.141588
0.093146 0.093009 0.093038
0.077554 0.077964 0.078735
0.135639 0.133306 0.128019
0.082203 0.082163 0.082362
0.070547 0.069353 0.069192
0.094880 0.095468 0.095535
0.140093 0.140368 0.139606
0.264969 0.264554 0.264386
0.101641 0.099837 0.099324
0.175362 0.173878 0.173339
0.060761 0.060640 0.060363
0.096757 0.097078 0.096357
0.252305 0.246918 0.245178
0.095824 0.095928 0.096206
0.097597 0.097654 0.098650
0.139878 0.140724 0.141175
0.106450 0.106902 0.108341
0.177764 0.177178 0.174829
0.164212 0.163941 0.162417
0.127577 0.126900 0.124428
0.173070 0.173334 0.173155
0.090507 0.091604 0.091223
0.091989 0.090905 0.090156
0.097434 0.099806 0.094329
0.180961 0.181450 0.181706
0.091585 0.091899 0.092365
0.170683 0.170284 0.170177
0.113665 0.113658 0.111702
0.093081 0.094427 0.094259
0.071826 0.080326 0.081669
0.188189 0.189014 0.189422
0.184054 0.179258 0.179301
0.099043 0.099025 0.098612
0.097455 0.097801 0.097876
0.095414 0.095973 0.096153
0.223115 0.221232 0.214706
0.094114 0.094088 0.090952
0.072155 0.072192 0.072197
0.233024 0.231708 0.233180
0.107360 0.104211 0.103121
0.200271 0.199900 0.200365
0.058255 0.058214 0.057975
0.070387 0.069375 0.069678
0.096031 0.095980 0.095900
0.117942 0.113960 0.108287
0.258149 0.256192 0.255563
0.089682 0.088472 0.088212
0.154936 0.153701 0.153983
0.099222 0.099193 0.103061
0.172033 0.166030 0.163858
0.081719 0.081724 0.081797
0.175164 0.173867 0.173384
0.080261 0.087087 0.089434
0.061875 0.061776 0.060782
0.077643 0.077811 0.077897
0.060017 0.059981 0.060257
0.190313 0.190595 0.190914
0.089655 0.089124 0.092261
0.138578 0.138646 0.139917
0.102337 0.104953 0.105080
0.068504 0.068586 0.068670
0.185096 0.183803 0.183119
0.099266 0.099314 0.099137
0.139798 0.140051 0.139177
0.181494 0.175469 0.175113
0.098705 0.098622 0.098564
0.098194 0.098236 0.098891
0.179395 0.179116 0.179014
0.164875 0.141181 0.141174
0.231285 0.221723 0.220677
0.170578 0.171018 0.173076
0.189070 0.207849 0.205835
0.228698 0.228481 0.228704
0.229335 0.228597 0.226865
0.096418 0.096192 0.096059
0.161449 0.163347 0.165035
0.282323 0.284574 0.284544
0.072413 0.072732 0.072816
0.245676 0.246072 0.246266
0.197011 0.197923 0.199605
0.064518 0.064450 0.064685
0.151368 0.149387 0.149410
0.060017 0.060005 0.060170
0.086448 0.086564 0.087092
0.066125 0.066141 0.066173
0.061945 0.061949 0.060815
0.178976 0.178978 0.178913
0.082966 0.082577 0.080277
0.072954 0.074668 0.074574
0.218649 0.218256 0.218182
0.242735 0.242904 0.243016
0.114029 0.115532 0.115702
0.091209 0.091314 0.091259
0.225315 0.223727 0.223516
0.161891 0.162378 0.161971
0.076364 0.075773 0.075921
0.198863 0.197778 0.197426
0.279192 0.279428 0.279001
0.060360 0.059786 0.059450
0.198713 0.198495 0.198641
0.191070 0.193694 0.193323
0.178260 0.178207 0.177774
0.103044 0.102809 0.100745
0.088574 0.088694 0.087776
0.194685 0.194639 0.194825
0.099947 0.099941 0.100045
0.161778 0.161574 0.161028
0.092414 0.091818 0.091725
0.159026 0.157930 0.158623
0.204239 0.203381 0.204857
0.144697 0.145333 0.145819
0.125301 0.124486 0.123927
0.069400 0.069717 0.069318
0.095535 0.095835 0.095732
0.192985 0.191397 0.191210
0.144678 0.145539 0.145778
0.097118 0.097076 0.096901
0.105206 0.105228 0.104934
0.083751 0.083931 0.084010
0.089667 0.089631 0.089521
0.178251 0.179436 0.178675
0.093442 0.095414 0.095973
0.183129 0.182581 0.180267
0.207861 0.208409 0.208554
0.083612 0.082222 0.080298
0.139350 0.139301 0.139210
0.168011 0.169956 0.171428
0.161903 0.170117 0.175113
0.103121 0.102718 0.102363
0.070606 0.070343 0.069846
0.055680 0.056306 0.056206
0.215685 0.215858 0.217324
0.092044 0.091735 0.091915
0.176083 0.178241 0.179402
0.241287 0.241139 0.241061
0.252495 0.252292 0.252621
0.077326 0.077730 0.077819
0.284545 0.284278 0.283950
0.083238 0.084436 0.085134
0.123630 0.122309 0.121791
0.167854 0.166764 0.165842
0.088662 0.089095 0.089755
0.076022 0.077083 0.082094
0.105455 0.105326 0.104346
0.216564 0.215974 0.215681
0.213346 0.213464 0.213245
0.188609 0.184726 0.186376
0.096038 0.095905 0.096038
0.074108 0.074422 0.077853
0.094755 0.094912 0.095108
0.218653 0.216155 0.215831
0.073719 0.073091 0.072978
0.258205 0.258786 0.258616
0.198688 0.198446 0.208361
0.098241 0.098962 0.098785
0.091975 0.092014 0.092057
0.095276 0.095276 0.094934
0.182626 0.182640 0.182579
0.092114 0.091632 0.091495
0.123113 0.121090 0.121492
0.117694 0.117972 0.118414
0.103324 0.102844 0.096368
0.190301 0.195082 0.197310
0.129619 0.127127 0.118311
0.128871 0.128013 0.127698
0.222521 0.231973 0.237247
0.111415 0.111364 0.111326
0.086642 0.085685 0.085244
0.085393 0.085618 0.086651
0.065545 0.065522 0.065600
0.095922 0.096086 0.096057
0.183113 0.182477 0.181963
0.100365 0.100502 0.100689
0.094079 0.094448 0.096036
0.092683 0.093086 0.093290
0.093804 0.093853 0.094284
0.283636 0.284369 0.278736
0.165390 0.165930 0.165492
0.222340 0.222221 0.221818
0.098817 0.098708 0.098713
0.235503 0.240118 0.249426
0.182271 0.182500 0.182953
0.094451 0.096417 0.096194
0.103644 0.102813 0.102407
0.250398 0.251190 0.251877
0.104987 0.105520 0.107937
0.053429 0.053577 0.053652
0.196900 0.195179 0.194520
0.092616 0.092410 0.091346
0.130399 0.129008 0.128541
0.083565 0.083633 0.083585
0.054872 0.054517 0.054051
0.071847 0.071715 0.072259
0.101885 0.102438 0.102510
0.420366 0.420691 0.421377
0.201777 0.201960 0.202942
0.224912 0.223047 0.222818
0.175273 0.175579 0.175816
0.101337 0.101454 0.101491
0.088441 0.088506 0.088666
0.100799 0.101047 0.100880
0.200160 0.200691 0.199362
0.115976 0.116349 0.117322
0.091154 0.091557 0.090122
0.075892 0.076001 0.075871
0.075220 0.074418 0.074356
0.074559 0.074551 0.074379
0.071988 0.072262 0.072466
0.256288 0.255618 0.255082
0.077502 0.077707 0.077798
0.098466 0.098403 0.098262
0.088889 0.089216 0.089678
0.101728 0.102144 0.102745
0.124259 0.124487 0.124427
0.275219 0.274985 0.274905
0.228700 0.228450 0.228528
0.216543 0.216928 0.217137
0.076415 0.076567 0.075542
0.177581 0.176610 0.175387
0.057447 0.057961 0.058255
0.222717 0.222473 0.222563
0.124615 0.123955 0.125091
0.114561 0.113535 0.111790
0.245898 0.246349 0.246558
0.080344 0.080916 0.081564
0.136343 0.140171 0.140727
0.178947 0.178961 0.178333
0.084987 0.083691 0.083599
0.152768 0.151516 0.150041
0.083245 0.082170 0.082108
0.200613 0.199971 0.198371
0.148485 0.146456 0.146350
0.097261 0.097786 0.097978
0.087728 0.089229 0.089222
0.204207 0.204013 0.200099
0.116483 0.116081 0.115321
0.102562 0.102322 0.102397
0.109497 0.109485 0.109571
0.168088 0.169455 0.167214
0.077307 0.077530 0.077845
0.134894 0.134823 0.135259
0.173806 0.174852 0.177452
0.141969 0.142091 0.141335
0.067211 0.067226 0.067147
0.198287 0.199331 0.199095
0.103077 0.102869 0.101746
0.141588 0.142395 0.142548
0.064504 0.064569 0.064480
0.181995 0.183370 0.183486
0.095856 0.096948 0.097646
0.366229 0.368448 0.369035
0.097302 0.095162 0.094645
0.160468 0.160482 0.159489
0.064388 0.064576 0.064581
0.084479 0.084381 0.083361
0.071797 0.071912 0.071213
0.128124 0.135722 0.145122
0.175838 0.174919 0.175907
0.108365 0.108330 0.108007
0.097296 0.097345 0.097457
0.289457 0.287541 0.286998
0.079233 0.080358 0.081565
0.136268 0.138099 0.138568
0.087009 0.086946 0.087320
0.105245 0.105157 0.105151
0.211074 0.211907 0.212408
0.084306 0.083313 0.083107
0.220691 0.220488 0.220262
0.196428 0.197268 0.197582
0.067862 0.066020 0.065858
0.077157 0.078096 0.079247
0.153075 0.152495 0.151544
0.209750 0.209188 0.211185
0.082253 0.081371 0.078864
0.185981 0.184824 0.179619
0.076446 0.076329 0.075929
0.126780 0.127045 0.127790
0.178581 0.177232 0.177436
0.203890 0.203762 0.203883
0.193828 0.194188 0.195311
0.189921 0.190153 0.190509
0.075106 0.076472 0.077417
0.122315 0.122338 0.122124
0.202430 0.204216 0.204785
0.188018 0.190321 0.192503
0.119440 0.118903 0.117314
0.207908 0.207611 0.207161
0.243893 0.244793 0.250495
0.072532 0.072166 0.070737
0.102811 0.098185 0.097251
0.166574 0.163390 0.162273
0.094421 0.094576 0.094641
0.218167 0.219093 0.221155
0.060108 0.059722 0.058455
0.056395 0.055136 0.054762
0.070213 0.069526 0.069427
0.214588 0.214649 0.214737
0.220526 0.221199 0.217207
0.101768 0.107214 0.107666
0.269312 0.269509 0.266550
0.073600 0.072975 0.072944
0.177915 0.179643 0.179890
0.114929 0.115171 0.114954
0.108970 0.106373 0.105983
0.112654 0.112666 0.113113
0.084680 0.084444 0.084441
0.088175 0.088087 0.088141
0.132609 0.132242 0.132010
0.171423 0.167928 0.163084
0.158320 0.160907 0.170554
0.185027 0.185121 0.185129
0.108027 0.108320 0.108861
0.222357 0.215959 0.213404
0.193470 0.196898 0.194992
0.241077 0.259597 0.261072
0.083430 0.084369 0.096205
0.099031 0.099046 0.098759
0.061029 0.061178 0.061382
0.119688 0.119516 0.119475
0.101396 0.101502 0.101796
0.194394 0.193900 0.192991
0.074486 0.074316 0.074667
0.171472 0.154605 0.154416
0.132733 0.138760 0.140317
0.096466 0.096706 0.096578
0.093389 0.092976 0.093260
0.183462 0.183132 0.182836
0.067365 0.067721 0.069877
0.138244 0.138781 0.142309
0.074373 0.074432 0.074542
0.183407 0.184003 0.186936
0.160314 0.159015 0.158268
0.106327 0.106444 0.106485
0.217955 0.229290 0.231348
0.085772 0.085550 0.085461
0.161617 0.159194 0.158252
0.068284 0.067462 0.067349
0.066131 0.066227 0.066162
0.158738 0.158773 0.159128
0.073958 0.073485 0.073020
0.093805 0.093108 0.092974
0.219235 0.219272 0.219649
0.168407 0.168377 0.168257
0.256965 0.257005 0.256735
0.183240 0.183114 0.182964
0.138065 0.137988 0.138064
0.097963 0.099174 0.100420
0.097622 0.097704 0.098146
0.138371 0.139359 0.140711
0.158971 0.159158 0.158410
0.050186 0.050359 0.050598
0.234629 0.233355 0.233068
0.161755 0.161637 0.161477
0.167272 0.166487 0.165952
0.207977 0.208132 0.207701
0.093205 0.093222 0.093201
0.095901 0.097780 0.099850
0.087317 0.087018 0.086864
0.100641 0.100815 0.101975
0.087553 0.087478 0.087748
0.091469 0.091758 0.092433
0.061776 0.060782 0.060572
0.232033 0.231760 0.231759
0.226901 0.228304 0.228447
0.102322 0.102169 0.101478
0.072488 0.072118 0.071403
0.167391 0.167133 0.167117
0.120220 0.121018 0.120961
0.090385 0.090458 0.090903
0.095004 0.094893 0.094953
0.076967 0.077173 0.077165
0.246675 0.246331 0.250278
0.205403 0.204251 0.201883
0.168308 0.169110 0.169340
0.107830 0.109288 0.110104
0.098708 0.098713 0.098728
0.053007 0.053030 0.053383
0.198315 0.199458 0.200573
0.077588 0.077603 0.077668
0.108174 0.108122 0.107938
0.154093 0.154249 0.154578
0.243918 0.245526 0.245917
0.069761 0.068816 0.067116
0.142665 0.144583 0.150819
0.245426 0.247147 0.246719
0.081639 0.080402 0.078307
0.239292 0.241831 0.260663
0.281926 0.282520 0.288822
0.258042 0.258818 0.263256
0.058030 0.058055 0.058337
0.272811 0.273605 0.274243
0.087210 0.085832 0.083119
0.180800 0.178922 0.171915
0.061727 0.063425 0.063461
0.276779 0.277155 0.279141
0.096727 0.096815 0.096392
0.205647 0.204679 0.203702
0.095272 0.095747 0.099139
0.186299 0.186621 0.186883
0.094887 0.094591 0.094560
0.179515 0.179515 0.179516
0.098100 0.097622 0.097725
0.079775 0.079878 0.080336
0.287604 0.286818 0.284339
0.120236 0.121001 0.121069
0.117821 0.117889 0.117893
0.096657 0.096834 0.097195
0.148935 0.153993 0.155049
0.223030 0.224508 0.224695
0.082237 0.082266 0.082380
0.188968 0.187924 0.187935
0.240299 0.240512 0.241258
0.061943 0.060537 0.059825
0.069555 0.068301 0.066417
0.147261 0.147135 0.146872
0.069411 0.068263 0.067372
0.102678 0.104322 0.106510
0.094907 0.098316 0.099354
0.138427 0.138715 0.138726
0.146130 0.146278 0.145878
0.182500 0.182422 0.182153
0.284988 0.284592 0.280222
0.139865 0.142134 0.147124
0.072797 0.072370 0.072752
0.073319 0.073316 0.073623
0.107432 0.102824 0.093008
0.051980 0.051819 0.051587
0.252484 0.252402 0.249452
0.130916 0.131464 0.131800
0.092010 0.091903 0.091427
0.080969 0.080991 0.080440
0.164217 0.164361 0.164138
0.178388 0.177165 0.176020
0.106739 0.106649 0.106374
0.205055 0.204612 0.203436
0.056411 0.057715 0.057929
0.294599 0.293070 0.292107
0.364002 0.364704 0.366229
0.117524 0.117380 0.116952
0.076567 0.075542 0.074526
0.066327 0.066634 0.066605
0.143630 0.143415 0.143470
0.113702 0.113601 0.113449
0.170420 0.168771 0.168185
0.232637 0.222682 0.220922
0.111777 0.113148 0.115309
0.177599 0.178881 0.189213
0.116097 0.115620 0.115687
0.216804 0.216761 0.216875
0.119952 0.120956 0.121578
0.128994 0.128370 0.127691
0.085686 0.084806 0.085560
0.093593 0.094390 0.094580
0.066394 0.066458 0.066738
0.097076 0.096901 0.094907
0.194694 0.195546 0.197347
0.105957 0.106394 0.106524
0.059349 0.059404 0.060131
0.214425 0.214587 0.214642
0.089218 0.089612 0.090344
0.155195 0.156024 0.156637
0.092057 0.092061 0.092946
0.154451 0.155685 0.156429
0.236960 0.238908 0.239143
0.087880 0.088249 0.088251
0.132055 0.132085 0.132713
0.085771 0.085660 0.085965
0.095581 0.095692 0.096187
0.190115 0.189593 0.187151
0.083510 0.081923 0.082052
0.054354 0.054240 0.054541
0.158444 0.159198 0.159615
0.081039 0.080832 0.080335
0.211805 0.211768 0.211807
0.168102 0.171100 0.180191
0.097136 0.097171 0.097188
0.255691 0.255061 0.253153
0.240298 0.241333 0.239799
0.230943 0.230506 0.232997
0.072148 0.072064 0.072679
0.204457 0.204143 0.201321
0.146798 0.149356 0.150161
0.095446 0.095490 0.095534
0.089080 0.088791 0.088628
0.099868 0.099504 0.099369
0.149650 0.150521 0.152316
0.244719 0.243922 0.243694
0.378365 0.369883 0.364144
0.088089 0.088032 0.088035
0.109027 0.109396 0.109672
0.094809 0.094286 0.093426
0.210306 0.210887 0.214238
0.211755 0.211802 0.211335
0.197202 0.202197 0.199903
0.105167 0.105202 0.105060
0.099793 0.099240 0.096653
0.158023 0.157520 0.156806
0.170423 0.170201 0.170210
0.126969 0.126899 0.125702
0.193733 0.193841 0.193891
0.083712 0.083884 0.083934
0.190443 0.190115 0.189593
0.135409 0.135382 0.137869
0.198853 0.201065 0.201770
0.098907 0.099002 0.098778
0.077707 0.077639 0.077541
0.071895 0.070313 0.068889
0.083053 0.083092 0.083274
0.161508 0.164244 0.163535
0.203970 0.203368 0.204672
0.070753 0.070612 0.071132
0.137075 0.137091 0.137252
0.202122 0.209628 0.211399
0.059422 0.060859 0.061002
0.092365 0.092357 0.092067
0.225685 0.225650 0.225624
0.107984 0.108228 0.108109
0.061130 0.060963 0.061086
0.240448 0.240578 0.242416
0.109379 0.109591 0.110265
0.158834 0.158377 0.158234
0.175310 0.175162 0.175158
0.093807 0.094238 0.094275
0.078050 0.078084 0.078173
0.130487 0.130320 0.129450
0.074919 0.074471 0.073437
0.187423 0.188105 0.189843
0.213445 0.213181 0.212245
0.185278 0.184785 0.179763
0.101210 0.101144 0.100641
0.207399 0.206673 0.205040
0.216153 0.216108 0.212916
0.139352 0.139392 0.139052
0.061200 0.060810 0.061073
0.098724 0.098857 0.098475
0.289616 0.289821 0.289291
0.137852 0.138190 0.137808
0.093115 0.092992 0.093360
0.254156 0.251588 0.244668
0.074083 0.073059 0.072852
0.071582 0.071804 0.071869
0.086088 0.086462 0.086607
0.208254 0.207913 0.207399
0.071336 0.071547 0.071577
0.053746 0.053695 0.053379
0.068266 0.067862 0.066020
0.108808 0.109341 0.109203
0.105928 0.105758 0.105040
0.061082 0.060884 0.060856
0.289328 0.289636 0.288913
0.073107 0.072903 0.072789
0.101060 0.100027 0.097429
0.100501 0.099062 0.099266
0.070103 0.070174 0.070343
0.136099 0.134807 0.125761
0.181358 0.182492 0.182162
0.096513 0.096573 0.096067
0.095072 0.096775 0.096886
0.164712 0.164756 0.163411
0.075396 0.074886 0.076353
0.169033 0.169837 0.170220
0.076681 0.077265 0.078024
0.091445 0.093135 0.092776
0.125297 0.124430 0.124973
0.266281 0.271886 0.281369
0.097486 0.095950 0.090382
0.096983 0.097560 0.097459
0.068674 0.069995 0.071174
0.229276 0.234283 0.234884
0.210718 0.210938 0.214250
0.077632 0.077240 0.076026
0.127110 0.126156 0.126649
0.511311 0.512400 0.512477
0.135744 0.136404 0.136646
0.099895 0.099628 0.100007
0.097135 0.096815 0.097525
0.131228 0.131527 0.132471
0.091854 0.091508 0.091407
0.070596 0.071680 0.072051
0.225649 0.226499 0.228488
0.174636 0.174572 0.174214
0.114621 0.114564 0.114421
0.167794 0.166522 0.166856
0.073789 0.073814 0.073445
0.076902 0.076249 0.076413
0.182652 0.183109 0.184957
0.211259 0.211803 0.212318
0.130790 0.134983 0.135101
0.209917 0.209776 0.210070
0.167262 0.162125 0.157430
0.073976 0.073926 0.074075
0.079859 0.079829 0.080021
0.103291 0.102825 0.102916
0.116726 0.115959 0.116235
0.240271 0.240661 0.240469
0.092761 0.092928 0.093221
0.083693 0.083549 0.084332
0.161883 0.158621 0.156238
0.094647 0.094789 0.095059
0.186266 0.187334 0.190399
0.086986 0.086695 0.086609
0.285763 0.286684 0.286800
0.175676 0.174172 0.169003
0.181060 0.175580 0.174167
0.123771 0.123804 0.123668
0.138390 0.138312 0.137616
0.060347 0.060570 0.061786
0.264347 0.264367 0.264192
0.108902 0.108909 0.106801
0.211203 0.212706 0.213101
0.104891 0.105210 0.106716
0.154864 0.155073 0.154890
0.159316 0.159531 0.158293
0.196937 0.197291 0.199135
0.145962 0.145612 0.145678
0.066618 0.067109 0.067577
0.111222 0.107926 0.107805
0.070148 0.069991 0.070125
0.087479 0.085909 0.084055
0.175273 0.174947 0.173755
0.069727 0.069819 0.068690
0.237029 0.236773 0.231345
0.228603 0.227960 0.226660
0.092724 0.093138 0.093917
0.099087 0.099047 0.098814
0.249019 0.249975 0.249518
0.095237 0.097485 0.097307
0.174923 0.175503 0.177642
0.094394 0.093887 0.093695
0.081102 0.080392 0.079256
0.096750 0.096923 0.096714
0.098118 0.099132 0.099100
0.236116 0.238006 0.238136
0.072903 0.072923 0.072787
0.178121 0.178364 0.178792
0.204021 0.203928 0.203436
0.094845 0.095098 0.095048
0.085600 0.085659 0.085514
0.085457 0.086297 0.088557
0.109300 0.108913 0.109622
0.194446 0.194580 0.194690
0.077268 0.077588 0.077381
0.060122 0.060567 0.061035
0.119720 0.120151 0.121015
0.216596 0.216505 0.216496
0.182157 0.182656 0.169261
0.100430 0.100444 0.100509
0.214510 0.219281 0.224606
0.131142 0.130942 0.131160
0.059786 0.059450 0.059530
0.073029 0.072619 0.072576
0.071203 0.071217 0.071204
0.134775 0.119334 0.117823
0.172555 0.172604 0.176259
0.080488 0.081864 0.081421
0.268704 0.270564 0.270840
0.108052 0.108120 0.107180
0.066755 0.066127 0.066303
0.087081 0.086748 0.085984
0.112494 0.112292 0.108646
0.086492 0.086696 0.086745
0.141695 0.141700 0.141897
0.232153 0.230705 0.229134
0.100187 0.099733 0.099336
0.199460 0.198106 0.199095
0.079567 0.081241 0.080015
0.199005 0.199684 0.200289
0.281100 0.277877 0.277589
0.075105 0.074551 0.073985
0.214033 0.213525 0.213762
0.172444 0.172451 0.172451
0.145653 0.141306 0.139986
0.097801 0.097876 0.096527
0.092270 0.091901 0.091824
0.137378 0.136918 0.139745
0.131913 0.132032 0.132083
0.131005 0.131432 0.131334
0.278195 0.273302 0.240965
0.245479 0.249458 0.251190
0.293640 0.294811 0.294636
0.092137 0.091515 0.078748
0.125256 0.124615 0.124685
0.072531 0.072686 0.072756
0.124486 0.123927 0.123688
0.085721 0.085055 0.078258
0.120206 0.120269 0.119955
0.084710 0.084485 0.084399
0.083591 0.083391 0.083155
0.250724 0.249257 0.251484
0.128707 0.128704 0.130313
0.080110 0.077611 0.077247
0.105435 0.106860 0.106806
0.264666 0.264303 0.264183
0.183024 0.183086 0.183711
0.202392 0.202453 0.204552
0.177530 0.177400 0.176494
0.234861 0.234863 0.235224
0.186060 0.184503 0.179416
0.151549 0.157154 0.157132
0.182294 0.185903 0.184092
0.138415 0.134237 0.132936
0.144680 0.151118 0.152999
0.195471 0.193838 0.197584
0.120925 0.121659 0.122463
0.082102 0.082111 0.082048
0.070228 0.069917 0.069174
0.087764 0.086973 0.086913
0.072590 0.069558 0.069583
0.092992 0.093360 0.092825
0.103864 0.108752 0.109316
0.203457 0.203890 0.203762
0.177114 0.178087 0.180273
0.103795 0.103934 0.104357
0.258396 0.258199 0.257112
0.136723 0.136708 0.136654
0.099186 0.100742 0.103573
0.174563 0.174917 0.176083
0.211227 0.204976 0.204878
0.272578 0.272569 0.271532
0.172026 0.172378 0.173090
0.142334 0.142556 0.142637
0.159727 0.160332 0.160820
0.066375 0.067004 0.067563
0.275890 0.274292 0.273978
0.108351 0.108381 0.107558
0.221119 0.220751 0.219898
0.125153 0.123441 0.119466
0.074590 0.072586 0.071990
0.194386 0.194446 0.194571
0.104812 0.105177 0.106207
0.166279 0.166259 0.165549
0.191100 0.190789 0.186880
0.162784 0.162806 0.162910
0.107798 0.106796 0.106606
0.104502 0.104625 0.104608
0.249322 0.249190 0.249681
0.068601 0.069196 0.070043
0.156448 0.156541 0.157165
0.193227 0.192211 0.190728
0.136214 0.132515 0.128254
0.057176 0.056996 0.057386
0.190816 0.190575 0.190458
0.082816 0.085224 0.098864
0.191010 0.190948 0.188775
0.072262 0.071856 0.071844
0.167208 0.166897 0.165382
0.130541 0.131598 0.131856
0.119091 0.118596 0.117904
0.178695 0.182618 0.183251
0.204900 0.206322 0.206493
0.236017 0.236925 0.237387
0.098434 0.098145 0.097900
0.100516 0.100715 0.102806
0.077441 0.077608 0.077062
0.134366 0.132677 0.131647
0.191593 0.190815 0.190685
0.179089 0.180394 0.181899
0.072232 0.072456 0.072596
0.133617 0.131691 0.131523
0.084937 0.085219 0.085412
0.087156 0.087468 0.087959
0.289497 0.289607 0.289518
0.153581 0.153932 0.154126
0.070151 0.069960 0.069753
0.159052 0.158528 0.158254
0.140674 0.143420 0.152710
0.142309 0.144363 0.144488
0.104919 0.105515 0.105877
0.097467 0.095415 0.091951
0.081855 0.080781 0.080642
0.107702 0.107189 0.107093
0.099464 0.099492 0.099232
0.182352 0.179882 0.177971
0.099948 0.100041 0.100195
0.245811 0.246161 0.246337
0.186728 0.186643 0.186962
0.206623 0.206392 0.205621
0.122388 0.119272 0.118178
0.161123 0.158534 0.160489
0.088960 0.089370 0.088679
0.121762 0.122112 0.125110
0.088699 0.089029 0.089704
0.199802 0.201908 0.204211
0.072271 0.073755 0.073899
0.057327 0.057427 0.057325
0.155094 0.157529 0.159761
0.137552 0.137898 0.136999
0.106361 0.106977 0.107169
0.199903 0.199532 0.198974
0.072377 0.072647 0.072698
0.094208 0.091233 0.091224
0.171393 0.171091 0.170896
0.222571 0.222963 0.222969
0.097326 0.096887 0.097527
0.153308 0.154288 0.155047
0.078921 0.078919 0.078180
0.221958 0.221454 0.219011
0.133393 0.133368 0.133672
0.117493 0.117600 0.117795
0.173268 0.172672 0.172030
0.223018 0.226188 0.228499
0.165644 0.167573 0.169108
0.109382 0.108192 0.108052
0.205614 0.210766 0.212091
0.220448 0.220652 0.219087
0.137633 0.137624 0.137574
0.181570 0.180082 0.168264
0.212507 0.212872 0.213231
0.071268 0.071690 0.074114
0.095059 0.095112 0.094743
0.159426 0.160988 0.164677
0.104735 0.103848 0.103365
0.069710 0.069636 0.069554
0.178460 0.178581 0.178778
0.255604 0.254769 0.254493
0.098457 0.098285 0.097717
0.114843 0.114560 0.114569
0.108123 0.108259 0.106508
0.074431 0.074370 0.074270
0.065474 0.065495 0.064929
0.096980 0.096816 0.098162
0.185494 0.182225 0.176346
0.097050 0.097098 0.097733
0.073224 0.073093 0.072090
0.190597 0.187463 0.186756
0.212806 0.212963 0.211085
0.086890 0.088620 0.088975
0.100666 0.101097 0.101685
0.105734 0.100402 0.098207
0.098686 0.098600 0.098487
0.079067 0.077633 0.078292
0.123510 0.123730 0.124256
0.105237 0.105308 0.105551
0.270434 0.269967 0.269303
0.078308 0.078790 0.079294
0.102767 0.102954 0.104114
0.059453 0.060764 0.061103
0.159405 0.159504 0.160432
0.056889 0.057098 0.057510
0.274977 0.274618 0.272350
0.163671 0.162923 0.168011
0.113414 0.114450 0.113743
0.097651 0.096504 0.096574
0.076603 0.076875 0.076926
0.149957 0.148668 0.147776
0.173124 0.173323 0.174459
0.095374 0.093728 0.089955
0.133319 0.133703 0.134355
0.108122 0.107999 0.107970
0.073066 0.073044 0.072979
0.086660 0.085636 0.096308
0.098394 0.099216 0.098810
0.250305 0.249746 0.250046
0.096043 0.096039 0.095911
0.261630 0.262461 0.256919
0.105862 0.107074 0.107342
0.159384 0.158861 0.159142
0.238892 0.238696 0.238726
0.079619 0.079977 0.079876
0.262239 0.261846 0.259713
0.130832 0.130452 0.130368
0.133947 0.138444 0.141943
0.079608 0.080085 0.080932
0.082616 0.081471 0.074087
0.273235 0.273598 0.274249
0.067585 0.064669 0.064290
0.131609 0.131576 0.131415
0.083120 0.085440 0.086790
0.113453 0.112986 0.112863
0.181447 0.182735 0.183923
0.223166 0.223833 0.223935
0.269994 0.264910 0.265081
0.091028 0.090194 0.088663
0.150845 0.150400 0.150074
0.084000 0.084013 0.084106
0.172436 0.172463 0.172489
0.122786 0.122311 0.122383
0.075871 0.076420 0.076547
0.137065 0.137078 0.137071
0.216235 0.218606 0.223790
0.095357 0.095283 0.094811
0.079138 0.080971 0.081902
0.081975 0.081901 0.081786
0.091332 0.091294 0.090974
0.125319 0.125964 0.126568
0.203667 0.204566 0.205254
0.183143 0.182567 0.182161
0.091193 0.089668 0.089736
0.144411 0.145597 0.148324
0.064564 0.064507 0.064121
0.255290 0.255770 0.252860
0.098929 0.098683 0.099098
0.088083 0.088047 0.088032
0.277733 0.274516 0.273134
0.075102 0.075147 0.075164
0.109383 0.109265 0.108942
0.087564 0.087574 0.087685
0.066187 0.066195 0.066315
0.122379 0.122328 0.122348
0.083523 0.076104 0.075378
0.173868 0.173495 0.173731
0.080116 0.080437 0.080495
0.168264 0.167224 0.166786
0.252465 0.252302 0.249335
0.205168 0.205184 0.204779
0.098422 0.098466 0.098403
0.070528 0.072021 0.072340
0.054549 0.054327 0.052532
0.070000 0.070508 0.073985
0.166040 0.167752 0.168110
0.154400 0.155527 0.167312
0.178948 0.178363 0.178320
0.091188 0.091261 0.091234
0.073489 0.073806 0.075232
0.073834 0.074170 0.072853
0.190595 0.192000 0.197695
0.095517 0.096208 0.095918
0.176786 0.179475 0.179258
0.184316 0.184866 0.185151
0.168712 0.167901 0.165165
0.072784 0.072723 0.073266
0.182264 0.181940 0.180944
0.173738 0.174847 0.175333
0.174265 0.174447 0.170200
0.092552 0.091899 0.090425
0.105166 0.105215 0.105386
0.107526 0.113023 0.113458
0.176649 0.177557 0.195470
0.204039 0.202923 0.202376
0.063763 0.064208 0.066398
0.075967 0.076068 0.076032
0.091824 0.091665 0.092021
0.106853 0.106735 0.106682
0.095573 0.095911 0.096472
0.175563 0.175358 0.174830
0.096257 0.097322 0.097440
0.194193 0.193068 0.173030
0.094308 0.100852 0.101326
0.131545 0.131612 0.131885
0.298816 0.296032 0.293866
0.158677 0.157108 0.158530
0.070683 0.070978 0.072249
0.189034 0.185426 0.185507
0.191446 0.186587 0.186367
0.153760 0.153901 0.153790
0.093388 0.093391 0.092592
0.068174 0.066017 0.065889
0.169916 0.170001 0.169931
0.095136 0.094854 0.095219
0.106451 0.106346 0.105949
0.122726 0.123337 0.123275
