0.335439 0.333729 0.333525
0.510791 0.512629 0.517293
0.339839 0.340364 0.338382
0.425319 0.434855 0.436707
0.692415 0.696367 0.699740
0.324407 0.325360 0.325672
0.602868 0.604392 0.605518
0.517392 0.516036 0.513083
0.721701 0.718188 0.714313
0.692711 0.682264 0.682133
0.543168 0.548853 0.551758
0.534569 0.537815 0.539995
0.516775 0.525321 0.526666
0.455519 0.457949 0.461069
0.348568 0.351888 0.354475
0.325339 0.323580 0.322370
0.378757 0.392475 0.396263
0.433595 0.430527 0.410932
0.505051 0.520145 0.542520
0.297045 0.298424 0.299726
0.380524 0.378451 0.372840
0.441270 0.445661 0.448855
0.580444 0.583133 0.585647
0.716882 0.726564 0.726630
0.732561 0.732434 0.734742
0.518347 0.519757 0.525883
0.732487 0.732167 0.729264
0.459319 0.464299 0.477537
0.321972 0.323789 0.324571
0.337913 0.337795 0.337859
0.650674 0.646256 0.645214
0.373780 0.379129 0.379535
0.588850 0.569246 0.566067
0.292482 0.294262 0.294279
0.693485 0.696547 0.697204
0.375384 0.374855 0.375307
0.469674 0.469693 0.467547
0.271466 0.269504 0.269629
0.497832 0.537430 0.540893
0.309786 0.311589 0.312020
0.237373 0.237570 0.232496
0.662484 0.659863 0.654417
0.312656 0.325284 0.333503
0.304803 0.304361 0.304113
0.738644 0.732084 0.730087
0.544111 0.540216 0.538799
0.622109 0.638740 0.675651
0.426935 0.430239 0.436749
0.452856 0.454016 0.454317
0.336636 0.377625 0.379196
0.746229 0.746422 0.745487
0.693747 0.691169 0.687487
0.364360 0.366966 0.369248
0.724948 0.720717 0.715815
0.655929 0.655948 0.657265
0.558543 0.580264 0.585218
0.264468 0.280595 0.291464
0.687762 0.687669 0.686132
0.398474 0.383257 0.379122
0.384307 0.384522 0.385771
0.759085 0.756062 0.747459
0.257189 0.257369 0.258673
0.304994 0.311097 0.308912
0.420360 0.411990 0.408038
0.304479 0.308767 0.309754
0.638770 0.634274 0.624464
0.482169 0.481872 0.482422
0.849838 0.859056 0.915615
0.404610 0.404280 0.404448
0.641888 0.656647 0.669919
0.299603 0.303139 0.323251
0.720036 0.721956 0.728265
0.328631 0.325612 0.324475
0.539210 0.540449 0.541543
0.296509 0.302292 0.303865
0.539582 0.540579 0.540623
0.372036 0.369846 0.369288
0.434808 0.432044 0.431895
0.637378 0.636249 0.633396
0.330424 0.328902 0.311866
0.369439 0.365468 0.356070
0.336794 0.334889 0.329703
0.308113 0.307719 0.306745
0.356473 0.351477 0.350702
0.601847 0.603856 0.603105
0.547870 0.546860 0.545689
0.348473 0.346646 0.343642
0.304918 0.304772 0.306504
0.626579 0.623191 0.624480
0.281178 0.283954 0.273012
0.329924 0.327541 0.322586
0.295102 0.289451 0.288727
0.669614 0.673192 0.673812
0.282813 0.284536 0.286288
0.648581 0.645896 0.631470
0.721364 0.720548 0.715552
0.413580 0.423089 0.423182
0.379933 0.379106 0.379029
0.304790 0.303913 0.296840
0.571039 0.562026 0.560563
0.276415 0.276553 0.276282
0.224452 0.223685 0.224712
0.360463 0.362269 0.362877
0.321603 0.321378 0.320670
0.222058 0.220351 0.219455
0.332019 0.331941 0.331831
0.287665 0.288645 0.292488
0.491278 0.477348 0.472836
0.577804 0.580049 0.581564
0.705438 0.701882 0.699321
0.734821 0.734807 0.733604
0.524156 0.521728 0.519651
0.583451 0.578375 0.571099
0.642997 0.640874 0.637046
0.662619 0.669158 0.671712
0.456674 0.448854 0.448600
0.335593 0.335701 0.334978
0.176209 0.176464 0.175350
0.589427 0.568012 0.565695
0.611270 0.610802 0.610855
0.496687 0.497877 0.488566
0.286499 0.286677 0.287044
0.453540 0.447175 0.441264
0.372051 0.371115 0.370682
0.639428 0.643783 0.665183
0.464542 0.466172 0.467718
0.658004 0.656624 0.656966
0.525684 0.525626 0.526247
0.341940 0.342740 0.341196
0.632656 0.632113 0.628378
0.327457 0.326227 0.328167
0.731546 0.730347 0.740980
0.353976 0.355316 0.355862
0.328043 0.328305 0.328726
0.683381 0.688307 0.679848
0.282398 0.282266 0.281324
0.679281 0.677403 0.671618
0.665923 0.666301 0.690123
0.362092 0.363249 0.363450
0.687485 0.682279 0.681742
0.368724 0.370574 0.371062
0.353288 0.355226 0.355465
0.347505 0.352237 0.352695
0.306767 0.309303 0.315230
0.728821 0.730964 0.731722
0.264823 0.277249 0.280627
0.376123 0.328203 0.340883
0.648002 0.649666 0.649229
0.319056 0.315714 0.314440
0.604446 0.604268 0.593901
0.370475 0.368861 0.368623
0.623504 0.593496 0.599067
0.488990 0.490888 0.481125
0.931306 0.940197 0.952780
0.634912 0.634965 0.633747
0.451651 0.452505 0.454025
0.364599 0.364131 0.365438
0.560563 0.561628 0.568209
0.696254 0.697612 0.697071
0.307175 0.311190 0.308769
0.311866 0.304103 0.305211
0.415614 0.410564 0.408906
0.750771 0.750051 0.749642
0.499083 0.497685 0.486984
0.388520 0.388064 0.387589
0.896928 0.887650 0.871874
0.244466 0.245853 0.248064
0.336175 0.337151 0.337125
0.381904 0.380261 0.373410
0.626145 0.622304 0.611938
0.762879 0.761184 0.766661
0.341498 0.340601 0.314494
0.553567 0.569102 0.579777
0.479917 0.520101 0.546916
0.305836 0.309384 0.318855
0.640203 0.639248 0.634517
0.632315 0.618429 0.616540
0.627915 0.653834 0.669994
0.665747 0.670829 0.671877
0.385980 0.385819 0.385445
0.642809 0.639840 0.635451
0.288740 0.288658 0.289056
0.558855 0.559826 0.560066
0.330128 0.329924 0.327541
0.593014 0.591230 0.585199
0.243378 0.242821 0.242081
0.620724 0.629009 0.670517
0.267866 0.267846 0.267834
0.687912 0.688860 0.694069
0.609176 0.616329 0.619124
0.558787 0.560037 0.554296
0.327501 0.330851 0.333239
0.350532 0.363926 0.379966
0.665279 0.666312 0.667083
0.602945 0.598485 0.586374
0.550672 0.549234 0.548218
0.487861 0.483298 0.455525
0.326762 0.324407 0.321957
0.324288 0.326729 0.344416
0.595579 0.634356 0.663085
0.500888 0.501118 0.501344
0.682623 0.671116 0.672071
0.732973 0.730572 0.730288
0.513677 0.512346 0.510382
0.309566 0.308104 0.305638
0.431374 0.434062 0.438448
0.623355 0.624721 0.628997
0.412686 0.411739 0.414562
0.565126 0.568633 0.569461
0.428635 0.423724 0.418789
0.562160 0.545324 0.532615
0.332967 0.331868 0.329575
0.575077 0.577202 0.577065
0.218495 0.221558 0.224725
0.325229 0.325444 0.325916
0.300458 0.294469 0.294273
0.602776 0.607445 0.605079
0.325087 0.312479 0.302804
0.617295 0.620112 0.597622
0.380439 0.381455 0.382459
0.327136 0.330047 0.334197
0.695998 0.697575 0.701924
0.359794 0.359914 0.359977
0.589477 0.589701 0.588070
0.278067 0.282083 0.288227
0.639947 0.635381 0.637416
0.340575 0.342876 0.343546
0.630679 0.630825 0.630635
0.680735 0.674540 0.673854
0.497477 0.500779 0.521259
0.290793 0.290755 0.292190
0.616613 0.610234 0.605173
0.434124 0.431196 0.429020
0.325304 0.324968 0.323858
0.238925 0.241793 0.248220
0.349210 0.339263 0.332986
0.364608 0.369197 0.369170
0.310500 0.311677 0.312031
0.601441 0.591628 0.587929
0.215105 0.214991 0.213841
0.666497 0.669090 0.669063
0.502661 0.501878 0.501812
0.368948 0.369072 0.369097
0.536413 0.537646 0.538468
0.322102 0.330069 0.337329
0.707769 0.708875 0.709758
0.458793 0.458223 0.455875
0.383688 0.383684 0.383481
0.732329 0.732487 0.732458
0.593063 0.599800 0.602518
0.299700 0.302802 0.319797
0.368011 0.368215 0.366763
0.301969 0.301880 0.302181
0.326620 0.330640 0.333302
0.449503 0.455394 0.467141
0.804263 0.800730 0.777649
0.707848 0.708856 0.709156
0.682701 0.678043 0.677239
0.710783 0.711180 0.717410
0.593978 0.591987 0.590483
0.720071 0.722749 0.723543
0.364254 0.364472 0.365464
0.275833 0.276611 0.266711
0.375296 0.375317 0.376062
0.243928 0.243718 0.244064
0.744176 0.744098 0.742649
0.314657 0.330356 0.335261
0.614908 0.626366 0.628356
0.342837 0.342141 0.342404
0.297751 0.291010 0.289207
0.544249 0.542829 0.541880
0.518612 0.520511 0.520194
0.239843 0.238980 0.237344
0.602271 0.607244 0.603986
0.624460 0.663107 0.669447
0.547398 0.547708 0.551545
0.309346 0.314747 0.315377
0.598698 0.599944 0.603191
0.318309 0.316223 0.314103
0.606031 0.605053 0.589739
0.569434 0.551264 0.544401
0.782595 0.765991 0.750965
0.497025 0.495730 0.490709
0.495183 0.478325 0.494583
0.698735 0.697903 0.699853
0.221742 0.229835 0.238989
0.357118 0.356183 0.363734
0.364763 0.361006 0.360039
0.330638 0.329482 0.330783
0.455178 0.454945 0.452625
0.327199 0.324362 0.319314
0.669140 0.681174 0.684935
0.339657 0.338076 0.336816
0.602885 0.629354 0.629876
0.630593 0.616447 0.632245
0.745199 0.746609 0.749520
0.223955 0.223284 0.224768
0.568289 0.568441 0.568788
0.356975 0.359598 0.360897
0.303599 0.303226 0.301100
0.756555 0.754473 0.742677
0.310175 0.310212 0.309838
0.303094 0.300684 0.283045
0.602134 0.596702 0.590748
0.559536 0.558685 0.558743
0.555032 0.558021 0.558727
0.697766 0.697717 0.699014
0.743440 0.743662 0.738765
0.940014 0.941152 0.942102
0.553539 0.474038 0.464870
0.366116 0.361569 0.360100
0.349018 0.343157 0.325749
0.325712 0.327199 0.328647
0.391362 0.389724 0.386938
0.699795 0.698093 0.697349
0.332154 0.347748 0.348529
0.319812 0.318465 0.313095
0.745308 0.743720 0.740431
0.407761 0.408757 0.411837
0.755843 0.763369 0.791811
0.337472 0.377393 0.377253
0.619827 0.622973 0.624894
0.477806 0.476578 0.477491
0.471216 0.469836 0.467947
0.628605 0.618210 0.616441
0.432825 0.479901 0.479994
0.291701 0.291810 0.291823
0.326071 0.326329 0.326928
0.322443 0.323038 0.323459
0.635151 0.638291 0.666878
0.297354 0.302222 0.301861
0.342054 0.343109 0.344229
0.294328 0.294377 0.294281
0.297046 0.295365 0.292431
0.702859 0.702551 0.699893
0.335951 0.336371 0.336699
0.680109 0.677995 0.678259
0.722716 0.715340 0.711883
0.472717 0.471095 0.465446
0.692573 0.685710 0.683146
0.578509 0.571084 0.543780
0.708937 0.707010 0.706657
0.316408 0.331482 0.346345
0.226357 0.224520 0.224295
0.464765 0.475000 0.482139
0.323792 0.319977 0.319653
0.347435 0.347603 0.347931
0.666194 0.673476 0.683531
0.752637 0.752665 0.752778
0.410659 0.398975 0.385364
0.564872 0.566406 0.569778
0.392682 0.392125 0.392200
0.285538 0.282440 0.269840
0.364251 0.366418 0.367685
0.283824 0.282243 0.285177
0.373091 0.372953 0.373698
0.348035 0.345503 0.345539
0.649635 0.647968 0.654550
0.670014 0.669086 0.669201
0.274954 0.275935 0.276058
0.336245 0.335935 0.337828
0.307522 0.304389 0.309877
0.409081 0.391706 0.387606
0.267856 0.267840 0.267822
0.496757 0.498448 0.498327
0.248093 0.246612 0.246481
0.288702 0.289286 0.288936
0.535493 0.529151 0.527264
0.364905 0.364076 0.365924
0.743291 0.739390 0.724878
0.734628 0.737091 0.738421
0.582815 0.589174 0.640872
0.548218 0.547037 0.547933
0.619320 0.620435 0.656229
0.338141 0.341892 0.341311
0.680479 0.678849 0.675459
0.666445 0.666490 0.666115
0.642737 0.680152 0.680938
0.491034 0.490905 0.492999
0.364181 0.364455 0.363518
0.566677 0.610064 0.613025
0.676405 0.663292 0.657380
0.386811 0.386326 0.381153
0.381064 0.378825 0.375757
0.290623 0.292361 0.294455
0.845096 0.843195 0.842465
0.416073 0.416256 0.432989
0.707898 0.701036 0.686919
0.328483 0.328678 0.327218
0.660391 0.660366 0.660320
0.692339 0.692018 0.692189
0.492914 0.494998 0.492347
0.557087 0.563283 0.606191
0.751521 0.753747 0.755843
0.326977 0.326315 0.328806
0.430379 0.433548 0.437017
0.765610 0.766819 0.767591
0.688649 0.714028 0.717730
0.323287 0.323336 0.323392
0.376382 0.376444 0.376322
0.335614 0.334877 0.334088
0.334778 0.334758 0.334787
0.395140 0.387873 0.368110
0.658321 0.657803 0.655205
0.231287 0.231601 0.234145
0.695150 0.730917 0.736579
0.340739 0.337265 0.340469
0.446624 0.449113 0.449772
0.314080 0.314137 0.311634
0.736834 0.733583 0.731408
0.651317 0.654627 0.654585
0.365977 0.365835 0.365800
0.605453 0.603542 0.602191
0.420309 0.419232 0.410659
0.711250 0.705172 0.701867
0.729162 0.649538 0.646145
0.551851 0.551203 0.553018
0.665573 0.665200 0.660545
0.242734 0.243939 0.243214
0.453578 0.454104 0.454562
0.539741 0.538142 0.538392
0.338330 0.340178 0.342714
0.709632 0.710432 0.714733
0.377787 0.372839 0.372381
0.649227 0.649136 0.641956
0.326832 0.332568 0.339966
0.567407 0.569962 0.573052
0.916726 0.913291 0.897295
0.525689 0.550690 0.554269
0.320957 0.318295 0.317619
0.335384 0.336502 0.336318
0.542667 0.544256 0.543980
0.430226 0.431208 0.430862
0.337634 0.336204 0.334389
0.592226 0.593627 0.593257
0.346071 0.346223 0.347212
0.759854 0.750965 0.746000
0.620218 0.630110 0.666736
0.441725 0.441910 0.441832
0.378028 0.378259 0.374789
0.715491 0.726929 0.729574
0.625030 0.634429 0.630676
0.672194 0.672165 0.670102
0.645022 0.595558 0.594695
0.495655 0.494986 0.500427
0.380914 0.384018 0.386531
0.475248 0.468974 0.465473
0.566247 0.565637 0.565754
0.443892 0.444019 0.445573
0.409594 0.408878 0.407087
0.326720 0.324794 0.323838
0.606666 0.607022 0.602196
0.939226 0.892835 0.884545
0.366542 0.369017 0.369638
0.597363 0.641864 0.683300
0.640205 0.639098 0.640554
0.389085 0.389001 0.388792
0.648779 0.636440 0.635931
0.465455 0.469450 0.447450
0.497114 0.497684 0.492763
0.679921 0.680440 0.679344
0.561334 0.563867 0.568423
0.270953 0.272108 0.272586
0.614404 0.615394 0.615339
0.364822 0.358517 0.353853
0.536517 0.536214 0.541898
0.475207 0.483738 0.487036
0.320783 0.322405 0.326665
0.729368 0.729131 0.731284
0.459802 0.450564 0.443843
0.733445 0.730437 0.700167
0.232518 0.232657 0.240016
0.636890 0.635843 0.634246
0.484571 0.485200 0.490599
0.506156 0.506663 0.506520
0.579403 0.581970 0.588633
0.586064 0.584650 0.584437
0.228800 0.229377 0.229657
0.723179 0.727100 0.728821
0.648498 0.637399 0.621373
0.245590 0.242066 0.241002
0.317068 0.315045 0.312589
0.511493 0.511573 0.512021
0.758856 0.755235 0.746598
0.353275 0.346436 0.347900
0.169296 0.171529 0.174953
0.998398 0.999408 0.996745
0.391535 0.381904 0.380261
0.251248 0.247265 0.245464
0.707474 0.706339 0.707179
0.231223 0.231204 0.229931
0.552805 0.554200 0.556513
0.528873 0.528391 0.529440
0.337635 0.338037 0.337438
0.673691 0.666943 0.663304
0.394944 0.390809 0.382092
0.505318 0.511292 0.512604
0.618933 0.618260 0.617938
0.686112 0.679241 0.669635
0.434290 0.428819 0.436372
0.537815 0.539995 0.539588
0.635491 0.635994 0.636376
0.633058 0.634203 0.648619
0.363880 0.376418 0.390418
0.427158 0.423181 0.417452
0.267703 0.265630 0.263380
0.734658 0.744319 0.754120
0.598757 0.581326 0.578768
0.311222 0.311380 0.310968
0.344325 0.354885 0.365000
0.488765 0.486768 0.486200
0.647859 0.648735 0.633709
0.605253 0.585708 0.580742
0.492453 0.491290 0.500094
0.362309 0.365097 0.365419
0.596930 0.606233 0.610795
0.314440 0.312414 0.311904
0.345369 0.339959 0.315188
0.352996 0.346670 0.348867
0.656757 0.683271 0.682481
0.284400 0.278568 0.275755
0.618568 0.615733 0.618900
0.650669 0.634581 0.624955
0.269840 0.269187 0.265132
0.417775 0.419313 0.419488
0.484661 0.489574 0.490336
0.650623 0.647716 0.644848
0.321957 0.303392 0.295343
0.368855 0.367038 0.364364
0.620100 0.620820 0.620555
0.665880 0.667847 0.667679
0.454141 0.454933 0.456283
0.687492 0.692480 0.692154
0.481913 0.477984 0.480297
0.711827 0.707051 0.728413
0.226425 0.229140 0.243187
0.523174 0.523122 0.521836
0.512999 0.514174 0.514346
0.595976 0.596378 0.601991
0.690136 0.682517 0.669839
0.533501 0.532045 0.530856
0.268092 0.267703 0.265630
0.569413 0.576048 0.574968
0.567580 0.563482 0.553139
0.255196 0.254716 0.251556
0.319987 0.319993 0.318169
0.283797 0.283917 0.285194
0.648952 0.641274 0.642600
0.707178 0.708206 0.708464
0.645465 0.648037 0.651002
0.328385 0.325959 0.328340
0.264024 0.266528 0.288282
0.944661 0.944891 0.943704
0.709543 0.709716 0.710538
0.412770 0.413749 0.417215
0.239768 0.240550 0.243385
0.426701 0.425821 0.425142
0.574271 0.575183 0.577684
0.638669 0.634243 0.615764
0.354808 0.354512 0.354862
0.381288 0.386756 0.387068
0.698258 0.714899 0.704093
0.339081 0.326515 0.323257
0.581646 0.584317 0.584538
0.511836 0.498407 0.495054
0.498253 0.496792 0.484922
0.336907 0.336509 0.336809
0.336537 0.335940 0.335876
0.536656 0.537708 0.539577
0.287369 0.286358 0.286778
0.646020 0.651646 0.651659
0.551112 0.550564 0.547772
0.631323 0.628141 0.622185
0.602237 0.589315 0.586570
0.599987 0.612426 0.610831
0.287197 0.286382 0.286827
0.438458 0.438346 0.437482
0.685059 0.678306 0.669993
0.592205 0.593692 0.589625
0.297348 0.266130 0.258867
0.345389 0.350861 0.356227
0.518053 0.517252 0.515760
0.352117 0.352849 0.353744
0.268291 0.269165 0.269328
0.496792 0.484922 0.489502
0.359738 0.360245 0.360120
0.640250 0.640258 0.637878
0.551948 0.551961 0.552147
0.795559 0.796741 0.793251
0.707953 0.709185 0.709696
0.301086 0.300518 0.298897
0.325783 0.328022 0.328044
0.619855 0.613283 0.600334
0.327061 0.325827 0.324858
0.461105 0.463396 0.467261
0.703393 0.691234 0.684757
0.388640 0.389065 0.389154
0.738161 0.735763 0.748712
0.411721 0.425582 0.419297
0.509589 0.515985 0.553779
0.379090 0.379003 0.380052
0.238899 0.239011 0.239273
0.380571 0.378996 0.378063
0.232161 0.236873 0.282431
0.445469 0.444019 0.442021
0.528146 0.531273 0.532074
0.473992 0.473586 0.473132
0.710501 0.680102 0.679384
0.257613 0.260175 0.275574
0.289563 0.289204 0.289092
0.507000 0.506982 0.507057
0.549159 0.551121 0.553731
0.800034 0.799732 0.799175
0.485365 0.475949 0.456226
0.481038 0.481781 0.482599
0.365416 0.365031 0.363664
0.490431 0.499730 0.551360
0.723560 0.722938 0.720434
0.372495 0.404393 0.410211
0.577730 0.577723 0.579687
0.338083 0.338948 0.341992
0.729417 0.731386 0.731929
0.436711 0.433676 0.433098
0.714902 0.715116 0.722096
0.249532 0.248784 0.247751
0.726935 0.730721 0.730741
0.698641 0.698743 0.699849
0.545332 0.551771 0.552121
0.697015 0.692740 0.689829
0.342110 0.343503 0.337127
0.363667 0.365949 0.366733
0.870081 0.870735 0.869223
0.484661 0.489116 0.490282
0.550694 0.552504 0.552426
0.592445 0.591677 0.592295
0.689777 0.693360 0.693181
0.324490 0.323014 0.322887
0.559429 0.558657 0.559048
0.438114 0.437859 0.444042
0.867321 0.845096 0.843195
0.416205 0.412844 0.411956
0.705708 0.701830 0.700189
0.295530 0.295690 0.298942
0.381468 0.380111 0.378754
0.628876 0.628863 0.628214
0.315600 0.315716 0.314055
0.341945 0.333329 0.306343
0.600077 0.619681 0.614760
0.661043 0.634543 0.635151
0.433323 0.433570 0.434070
0.271100 0.298073 0.302586
0.332849 0.312997 0.317221
0.309401 0.309562 0.309570
0.268509 0.267631 0.267767
0.293523 0.296271 0.301960
0.675201 0.675536 0.675306
0.322635 0.318078 0.310142
0.381731 0.383285 0.384405
0.307149 0.308879 0.309631
0.478385 0.480327 0.486395
0.658841 0.664104 0.670659
0.273609 0.275289 0.275341
0.327004 0.325302 0.325072
0.527787 0.512549 0.507167
0.490388 0.494462 0.502192
0.430239 0.436749 0.436032
0.325919 0.327512 0.329027
0.726432 0.724557 0.676787
0.372681 0.373282 0.373053
0.294535 0.299196 0.302127
0.289686 0.291132 0.291468
0.576614 0.575925 0.576938
0.457407 0.456989 0.456909
0.294495 0.290735 0.289996
0.325236 0.329214 0.330136
0.656824 0.653932 0.646057
0.325862 0.327921 0.327681
0.267499 0.266020 0.263900
0.434034 0.429514 0.437437
0.291759 0.291836 0.291859
0.676656 0.675208 0.672842
0.685972 0.680580 0.680730
0.332958 0.337136 0.338128
0.497322 0.501357 0.499561
0.386461 0.390571 0.411164
0.377778 0.378650 0.379029
0.700389 0.706148 0.731071
0.603865 0.597058 0.594905
0.591758 0.598579 0.601432
0.697898 0.699177 0.705313
0.422720 0.419064 0.421600
0.629802 0.631317 0.623893
0.310181 0.318970 0.322589
0.337317 0.338685 0.343315
0.382518 0.379497 0.378491
0.706362 0.709282 0.709360
0.614239 0.623016 0.634331
0.701262 0.702616 0.703355
0.317131 0.331647 0.329067
0.641058 0.640659 0.640357
0.716044 0.716000 0.713132
0.627637 0.650920 0.656581
0.408906 0.406456 0.405899
0.368199 0.368246 0.366767
0.328756 0.329076 0.327265
0.239010 0.239393 0.239470
0.539588 0.539516 0.539958
0.356909 0.360113 0.357402
0.264229 0.264429 0.263510
0.657446 0.657276 0.658211
0.319849 0.318059 0.315903
0.379162 0.380587 0.391561
0.649099 0.647549 0.643576
0.240556 0.244665 0.245493
0.706542 0.701979 0.693492
0.310463 0.310449 0.310211
0.561468 0.581203 0.593438
0.334446 0.339612 0.340523
0.673937 0.672946 0.668730
0.332152 0.334417 0.334446
0.310845 0.307683 0.304073
0.347177 0.347011 0.347054
0.374364 0.384217 0.387218
0.432351 0.453398 0.462430
0.658882 0.656110 0.638992
0.246433 0.246476 0.246478
0.249889 0.249829 0.249729
0.345374 0.345806 0.345947
0.326497 0.324436 0.324726
0.234546 0.232853 0.232274
0.576666 0.580635 0.586633
0.663761 0.663103 0.662549
0.479289 0.470475 0.473310
0.423650 0.424418 0.422959
0.407273 0.411191 0.412088
0.330555 0.326319 0.325930
0.384676 0.387148 0.387868
0.365077 0.350498 0.234088
0.590966 0.579409 0.577433
0.364454 0.374627 0.379589
0.484858 0.486221 0.488899
0.510535 0.509121 0.508606
0.463487 0.463510 0.464209
0.238033 0.238651 0.239284
0.602446 0.601805 0.600040
0.285396 0.284311 0.282523
0.387216 0.386900 0.387645
0.486708 0.482004 0.451052
0.330864 0.331481 0.331489
0.660420 0.656428 0.655271
0.877465 0.898557 0.880589
0.343305 0.343931 0.346898
0.714812 0.713017 0.713205
0.455012 0.454217 0.455173
0.554237 0.557278 0.561106
0.379715 0.379554 0.379476
0.407537 0.393663 0.385609
0.699633 0.697941 0.695038
0.600302 0.604628 0.604438
0.319468 0.290811 0.264693
0.380587 0.391561 0.420169
0.226606 0.232883 0.245806
0.491070 0.490131 0.486708
0.555565 0.557499 0.554603
0.754516 0.755803 0.748657
0.741966 0.743108 0.743190
0.628949 0.628894 0.628265
0.350414 0.238892 0.232634
0.601011 0.601348 0.594653
0.330028 0.330730 0.330811
0.563239 0.568407 0.567931
0.641006 0.644276 0.648160
0.380380 0.364208 0.355308
0.685994 0.677817 0.675628
0.458059 0.459440 0.460860
0.585332 0.584979 0.583879
0.334000 0.333883 0.334136
0.259136 0.264817 0.266611
0.537833 0.553762 0.556507
0.270413 0.269877 0.269739
0.611353 0.607660 0.603865
0.395836 0.395659 0.395664
0.268819 0.278188 0.306709
0.678782 0.680280 0.728969
0.281510 0.280678 0.280194
0.304063 0.301280 0.298711
0.524145 0.523234 0.519910
0.395775 0.396089 0.396233
0.709173 0.696656 0.700654
0.306243 0.303351 0.303608
0.546771 0.547638 0.547562
0.354585 0.356299 0.359162
0.371540 0.367643 0.364518
0.342346 0.327448 0.323833
0.334559 0.332248 0.324418
0.608789 0.620356 0.621227
0.328347 0.323724 0.319485
0.888352 0.896694 0.898216
0.320889 0.321736 0.319934
0.644984 0.639064 0.638793
0.329032 0.328946 0.328273
0.351665 0.369104 0.370395
0.364213 0.361826 0.370628
0.533554 0.531978 0.530883
0.541206 0.536399 0.537533
0.264759 0.282494 0.291266
0.593571 0.591655 0.577307
0.372560 0.371323 0.371814
0.327138 0.329480 0.325190
0.657978 0.658402 0.660897
0.621657 0.621476 0.619077
0.515557 0.516804 0.518753
0.353291 0.355012 0.355501
0.282256 0.283608 0.288929
0.330568 0.330832 0.333227
0.309384 0.318855 0.336046
0.395633 0.390684 0.389273
0.260367 0.255653 0.245718
0.229873 0.231028 0.231192
0.332822 0.331539 0.327057
0.556926 0.557710 0.559126
0.739187 0.728190 0.710312
0.557303 0.560882 0.569393
0.349315 0.347463 0.347317
0.399061 0.399264 0.399521
0.505214 0.476754 0.471276
0.426653 0.427011 0.427041
0.799782 0.799536 0.802238
0.631469 0.641906 0.660661
0.528215 0.528459 0.535540
0.505308 0.505955 0.511117
0.609444 0.604331 0.600381
0.272962 0.276402 0.276102
0.548982 0.549253 0.551173
0.363182 0.369764 0.387508
0.327879 0.326640 0.324315
0.595942 0.591543 0.589728
0.353404 0.356405 0.363850
0.507280 0.504981 0.501470
0.648057 0.649633 0.651556
0.419797 0.420770 0.421995
0.315185 0.314819 0.314083
0.343629 0.343680 0.344267
0.315452 0.314386 0.311607
0.267535 0.265863 0.264539
0.380903 0.380922 0.380869
0.400195 0.400456 0.400825
0.518746 0.517170 0.518821
0.621529 0.629311 0.629942
0.652202 0.656540 0.656618
0.704424 0.704256 0.703977
0.389979 0.390975 0.391868
0.453943 0.459235 0.458142
0.637322 0.637082 0.637599
0.346000 0.350934 0.355132
0.539905 0.539644 0.539524
0.435595 0.435021 0.434492
0.488433 0.495288 0.531077
0.288411 0.286561 0.271730
0.527290 0.527754 0.527981
0.484761 0.485758 0.489346
0.332938 0.334667 0.336529
0.425079 0.426670 0.435785
0.316907 0.331107 0.329809
0.600381 0.594917 0.591266
0.458117 0.458870 0.459383
0.486092 0.495651 0.501691
0.501192 0.502092 0.503191
0.666638 0.663621 0.657177
0.683904 0.688545 0.689777
0.637636 0.637270 0.634251
0.316628 0.311832 0.310544
0.427855 0.427791 0.427381
0.336567 0.336598 0.335813
0.402992 0.406722 0.407585
0.601579 0.601530 0.603864
0.728637 0.727995 0.725037
0.330347 0.329409 0.328205
0.366999 0.364001 0.362918
0.387068 0.387304 0.387019
0.703267 0.694280 0.694705
0.319963 0.323804 0.329410
0.518280 0.517975 0.511240
0.265331 0.266596 0.271142
0.452592 0.455459 0.457564
0.673290 0.673235 0.673963
0.363872 0.353531 0.325391
0.263982 0.262766 0.264449
0.667015 0.664369 0.661880
0.299273 0.311616 0.319513
0.279361 0.278490 0.276768
0.635549 0.642991 0.643385
0.502728 0.498581 0.499111
0.554758 0.553939 0.554887
0.598816 0.600939 0.599866
0.806747 0.801511 0.759704
0.280393 0.277898 0.272309
0.567329 0.569134 0.569453
0.635927 0.635711 0.636873
0.582554 0.585035 0.578748
0.643954 0.643458 0.642328
0.331588 0.333327 0.337120
0.490897 0.491461 0.493662
0.334557 0.326720 0.324794
0.678455 0.674610 0.665644
0.327722 0.327346 0.326221
0.320825 0.312413 0.284167
0.441414 0.474952 0.476218
0.481608 0.486114 0.486411
0.221176 0.220409 0.220219
0.466727 0.461113 0.468354
0.672306 0.679171 0.682859
0.362394 0.357002 0.351541
0.451370 0.446848 0.435875
0.295235 0.302576 0.302384
0.345748 0.344551 0.340212
0.609795 0.608668 0.620406
0.306911 0.307220 0.307410
0.285323 0.279628 0.269764
0.490197 0.489946 0.488074
0.593788 0.592883 0.590146
0.656530 0.658564 0.673059
0.340708 0.340134 0.337734
0.710788 0.706542 0.701979
0.588281 0.587138 0.586822
0.363734 0.362703 0.365571
0.239266 0.242298 0.244185
0.696172 0.695752 0.692210
0.273271 0.272207 0.271221
0.415389 0.413579 0.414471
0.671087 0.679231 0.686670
0.383374 0.383649 0.383688
0.308970 0.296939 0.299304
0.475771 0.475440 0.474578
0.563439 0.560605 0.561653
0.672126 0.674301 0.674691
0.635695 0.611357 0.599724
0.515119 0.513955 0.515156
0.445397 0.482033 0.488804
0.312799 0.313843 0.316605
0.616675 0.620102 0.581600
0.917116 0.909714 0.898633
0.615790 0.617916 0.617678
0.536214 0.537449 0.537688
0.584785 0.567764 0.562889
0.585360 0.589792 0.589750
0.389202 0.389109 0.388953
0.542053 0.544895 0.544907
0.491499 0.498937 0.499242
0.509282 0.509807 0.514472
0.470995 0.474325 0.476603
0.645837 0.641981 0.641388
0.655048 0.654739 0.648987
0.303072 0.302375 0.300041
0.637465 0.622928 0.617799
0.674537 0.673854 0.671470
0.739309 0.730550 0.729408
0.329744 0.331438 0.331839
0.419313 0.419488 0.418543
0.681768 0.669709 0.673063
0.318591 0.317803 0.312813
0.712653 0.716947 0.720667
0.348911 0.351334 0.359278
0.284274 0.295067 0.306984
0.597257 0.599097 0.599271
0.647239 0.657452 0.662481
0.597669 0.597380 0.597916
0.329423 0.328644 0.332632
0.526222 0.524598 0.517724
0.732827 0.745929 0.749810
0.665905 0.659024 0.650222
0.327511 0.326231 0.325619
0.521226 0.519347 0.519740
0.548356 0.559108 0.568320
0.668469 0.666205 0.673947
0.664259 0.665631 0.671801
0.320494 0.318053 0.336420
0.657423 0.667154 0.698598
0.654323 0.647063 0.643845
0.503653 0.504618 0.504520
0.690926 0.696053 0.708690
0.292990 0.298820 0.317212
0.384803 0.383808 0.381311
0.331090 0.331198 0.330594
0.412509 0.413541 0.415393
0.547403 0.546037 0.545184
0.247059 0.246639 0.245866
0.493378 0.495734 0.495109
0.442033 0.436904 0.436973
0.721199 0.719998 0.715495
0.453200 0.450936 0.437280
0.302858 0.304891 0.302557
0.682267 0.685341 0.688176
0.309315 0.311074 0.312291
0.340059 0.340443 0.341933
0.279104 0.278217 0.277818
0.662296 0.664205 0.661926
0.734668 0.710625 0.706950
0.452280 0.457729 0.464167
0.632198 0.631924 0.634908
