0.142188 0.142308 0.142153
0.174475 0.177065 0.184013
0.123181 0.122884 0.123046
0.110565 0.111378 0.109361
0.106966 0.107030 0.107116
0.300116 0.301729 0.304009
0.155389 0.155771 0.155541
0.100194 0.100576 0.099289
0.104753 0.104462 0.104291
0.252064 0.250320 0.249408
0.200502 0.197564 0.198758
0.205932 0.206189 0.206357
0.201389 0.200808 0.198270
0.134698 0.134588 0.134752
0.097659 0.097005 0.095783
0.086050 0.086362 0.087284
0.128672 0.128084 0.124771
0.093921 0.094601 0.095613
0.195304 0.195459 0.195962
0.108619 0.109238 0.109519
0.119241 0.119027 0.118698
0.326397 0.326492 0.326603
0.089583 0.089413 0.089202
0.097416 0.096955 0.097326
0.114891 0.114588 0.114983
0.174225 0.174766 0.174819
0.131770 0.132171 0.132362
0.119708 0.121142 0.119254
0.089547 0.088738 0.088600
0.186351 0.186479 0.186279
0.265901 0.265832 0.265597
0.150116 0.150619 0.151247
0.156153 0.158088 0.160038
0.282701 0.283303 0.284189
0.211135 0.211525 0.210028
0.100106 0.100991 0.101342
0.409227 0.407837 0.414610
0.284752 0.280251 0.271130
0.229959 0.229018 0.228225
0.200434 0.200429 0.200848
0.305581 0.305616 0.305766
0.115988 0.115644 0.115681
0.285447 0.286285 0.287665
0.347360 0.348144 0.349073
0.262387 0.262401 0.262547
0.120717 0.121489 0.123120
0.115349 0.114739 0.113994
0.142037 0.142280 0.142912
0.105643 0.104915 0.104540
0.140415 0.138676 0.137877
0.142583 0.142028 0.141992
0.107000 0.106632 0.105844
0.092761 0.092457 0.092196
0.197644 0.197181 0.196085
0.095808 0.095916 0.095382
0.173168 0.173875 0.174031
0.138701 0.138143 0.138358
0.339561 0.339697 0.339805
0.104928 0.104609 0.103784
0.171044 0.166572 0.162512
0.120438 0.120801 0.120638
0.219740 0.219375 0.219169
0.109002 0.109248 0.109064
0.215707 0.216079 0.216061
0.145337 0.144389 0.143889
0.293751 0.293352 0.292580
0.123369 0.124495 0.125568
0.119985 0.119465 0.116604
0.116680 0.117074 0.117672
0.128861 0.129734 0.129010
0.165733 0.167406 0.167931
0.145799 0.145589 0.144782
0.109143 0.109698 0.109949
0.144673 0.144733 0.144745
0.311875 0.311749 0.311771
0.187113 0.188416 0.190519
0.217324 0.198999 0.196060
0.123770 0.123671 0.123918
0.164496 0.165692 0.165493
0.119640 0.118512 0.118696
0.094948 0.095545 0.096102
0.318562 0.318934 0.320331
0.098860 0.101786 0.101446
0.107796 0.107688 0.107668
0.298885 0.286629 0.279531
0.108871 0.107563 0.105375
0.113369 0.113632 0.113561
0.110537 0.109949 0.109106
0.145403 0.145684 0.146470
0.273579 0.272931 0.272500
0.285269 0.283895 0.282008
0.323043 0.322950 0.319475
0.129647 0.128954 0.126344
0.278197 0.278621 0.278654
0.122993 0.123154 0.122274
0.180928 0.181553 0.184259
0.079955 0.079613 0.080092
0.118685 0.118724 0.118943
0.326418 0.320372 0.319653
0.135452 0.136523 0.138477
0.211799 0.211926 0.203875
0.233502 0.234626 0.234694
0.287677 0.287826 0.288378
0.089701 0.089693 0.089877
0.109887 0.109761 0.109921
0.102291 0.102280 0.101826
0.374041 0.373777 0.373556
0.381214 0.382134 0.383728
0.201700 0.202037 0.203855
0.102909 0.103039 0.103487
0.155155 0.155529 0.155736
0.167208 0.167646 0.167846
0.346725 0.349487 0.351844
0.201834 0.201972 0.200862
0.340601 0.340673 0.339934
0.214819 0.213345 0.211487
0.247626 0.242819 0.227254
0.143777 0.143269 0.140073
0.188737 0.188074 0.187819
0.100152 0.100124 0.100134
0.091485 0.091868 0.091822
0.150969 0.151349 0.151371
0.226663 0.225793 0.224190
0.149800 0.148512 0.147671
0.089227 0.089944 0.089800
0.137746 0.137531 0.138061
0.174772 0.176456 0.180248
0.212473 0.213542 0.213935
0.112538 0.112858 0.115099
0.192054 0.193343 0.194364
0.109857 0.108904 0.109302
0.096091 0.096621 0.096543
0.169876 0.169887 0.170262
0.155801 0.159260 0.162591
0.273737 0.275575 0.278951
0.120714 0.120521 0.120463
0.116757 0.116624 0.116500
0.099521 0.099621 0.098992
0.152739 0.152674 0.152936
0.237156 0.241150 0.245443
0.122970 0.125787 0.128497
0.226004 0.219526 0.219232
0.144232 0.144655 0.144771
0.164946 0.163857 0.163624
0.154580 0.154821 0.155043
0.097338 0.097075 0.096568
0.137420 0.141159 0.143818
0.170828 0.170302 0.170624
0.156368 0.157839 0.159644
0.346379 0.346376 0.346334
0.128509 0.127507 0.126205
0.108131 0.105159 0.096744
0.161662 0.161623 0.161639
0.095972 0.095230 0.094902
0.254035 0.266053 0.282532
0.098018 0.096883 0.096092
0.152346 0.152247 0.152011
0.205278 0.193307 0.188302
0.165391 0.165300 0.163937
0.110430 0.110756 0.110806
0.155399 0.155901 0.155614
0.091111 0.090803 0.091580
0.183176 0.187878 0.188450
0.118824 0.116265 0.115898
0.204613 0.202421 0.205259
0.184131 0.189293 0.191538
0.282808 0.281350 0.280058
0.151332 0.151387 0.151460
0.231973 0.229468 0.228456
0.120373 0.120090 0.119657
0.306171 0.300783 0.300230
0.096532 0.098160 0.098864
0.089413 0.089202 0.089610
0.180400 0.180462 0.177978
0.169164 0.169007 0.168865
0.119343 0.118873 0.117838
0.274541 0.274598 0.275891
0.108241 0.107786 0.106170
0.105722 0.106141 0.106219
0.141951 0.141946 0.142185
0.183990 0.185997 0.187605
0.133712 0.132286 0.130914
0.303510 0.300634 0.294984
0.141757 0.141844 0.141791
0.094741 0.094587 0.095531
0.283834 0.279808 0.264541
0.181136 0.182558 0.185042
0.373911 0.376258 0.382133
0.111562 0.111127 0.111286
0.097436 0.096036 0.096342
0.193550 0.192905 0.193120
0.200692 0.200362 0.199981
0.096556 0.097305 0.096836
0.279871 0.280629 0.279888
0.211911 0.211850 0.211527
0.111502 0.111200 0.111099
0.211282 0.211299 0.211162
0.164324 0.181328 0.186090
0.308347 0.308273 0.308125
0.135204 0.132326 0.129704
0.356448 0.356655 0.357610
0.139980 0.140103 0.140054
0.182406 0.177109 0.173656
0.110275 0.109906 0.110421
0.255562 0.254041 0.252381
0.130721 0.130762 0.131756
0.094226 0.095729 0.097313
0.215022 0.215306 0.217569
0.186969 0.185450 0.183393
0.105477 0.102822 0.100001
0.229703 0.229834 0.230291
0.181628 0.181573 0.181604
0.147987 0.142247 0.140415
0.178061 0.176775 0.176113
0.153685 0.153561 0.153173
0.110141 0.108704 0.108682
0.099761 0.099077 0.097837
0.284234 0.285254 0.285351
0.238693 0.242830 0.254284
0.140627 0.140244 0.139441
0.194734 0.192972 0.189659
0.102484 0.102060 0.101787
0.082320 0.081469 0.081706
0.103487 0.103651 0.103615
0.209054 0.208021 0.205083
0.109866 0.110104 0.110565
0.177785 0.169408 0.169958
0.101826 0.101824 0.101772
0.123198 0.122082 0.121548
0.113116 0.112421 0.110352
0.096183 0.096849 0.097204
0.158370 0.159688 0.160222
0.100481 0.098465 0.094372
0.177864 0.177884 0.177741
0.213439 0.210662 0.189337
0.116822 0.117460 0.117661
0.201553 0.197515 0.196032
0.111831 0.111705 0.112657
0.094560 0.094773 0.094457
0.304579 0.302351 0.278435
0.197189 0.190500 0.177496
0.220061 0.220406 0.220679
0.222366 0.221881 0.218310
0.216068 0.218494 0.219134
0.216685 0.217013 0.217080
0.180716 0.180988 0.180856
0.105712 0.107026 0.108324
0.308857 0.309406 0.310457
0.258806 0.253494 0.249974
0.118186 0.118558 0.118028
0.146697 0.146602 0.146329
0.162571 0.160907 0.156610
0.125273 0.125677 0.127394
0.122431 0.123916 0.124106
0.114875 0.114708 0.113866
0.354958 0.355070 0.355785
0.126429 0.126245 0.126091
0.197576 0.196550 0.193954
0.152867 0.153043 0.152857
0.220515 0.220115 0.219675
0.153517 0.153136 0.152893
0.218650 0.216303 0.211594
0.167468 0.167818 0.169064
0.095567 0.095429 0.094775
0.187363 0.186998 0.188250
0.131268 0.131268 0.131201
0.105121 0.104658 0.104571
0.098641 0.098426 0.098176
0.105873 0.106125 0.106153
0.194719 0.197222 0.197849
0.130481 0.130957 0.131193
0.222934 0.222392 0.221102
0.111344 0.109408 0.108682
0.100878 0.100924 0.097427
0.191492 0.192154 0.192574
0.187667 0.187291 0.187498
0.261225 0.262571 0.264549
0.178274 0.177751 0.175750
0.221377 0.221807 0.221776
0.091522 0.093123 0.093503
0.251451 0.257594 0.262758
0.187283 0.195325 0.195731
0.089091 0.088025 0.087118
0.094986 0.095562 0.099682
0.227823 0.204039 0.187916
0.188124 0.188932 0.190571
0.300120 0.299901 0.299738
0.153286 0.149011 0.145073
0.230617 0.231711 0.233502
0.236156 0.234837 0.234173
0.101088 0.100852 0.100106
0.153685 0.154122 0.154104
0.411610 0.409346 0.406433
0.100397 0.100321 0.101291
0.145520 0.145397 0.145617
0.299846 0.299679 0.299134
0.210849 0.209738 0.209860
0.152573 0.152261 0.151932
0.351826 0.353404 0.352184
0.173209 0.173140 0.173708
0.295499 0.295591 0.294972
0.142147 0.142020 0.142033
0.195290 0.195143 0.194715
0.219684 0.219554 0.218570
0.138297 0.138269 0.137062
0.118923 0.118879 0.120194
0.222970 0.222445 0.218119
0.097694 0.097675 0.097497
0.283821 0.283952 0.283445
0.310707 0.309200 0.308151
0.152525 0.151959 0.151790
0.141497 0.139270 0.139530
0.295854 0.296551 0.299365
0.356922 0.357117 0.357099
0.170929 0.171817 0.172931
0.230502 0.230372 0.231336
0.136085 0.136009 0.135313
0.116428 0.116973 0.117267
0.401116 0.401123 0.401106
0.203234 0.205483 0.206015
0.119925 0.119901 0.119796
0.168865 0.168585 0.167672
0.401159 0.401205 0.401368
0.354831 0.356855 0.357105
0.132919 0.135465 0.139101
0.243874 0.242614 0.242184
0.111204 0.110159 0.110101
0.088899 0.089097 0.089299
0.182918 0.186465 0.190343
0.199376 0.192950 0.184412
0.258485 0.258506 0.258501
0.091392 0.092561 0.093655
0.154654 0.152862 0.152082
0.128677 0.129843 0.130377
0.300147 0.299826 0.299718
0.337147 0.343672 0.350252
0.118284 0.121172 0.122641
0.220327 0.219994 0.219684
0.141128 0.141099 0.140941
0.110445 0.109825 0.108467
0.098322 0.098531 0.098641
0.292485 0.293284 0.293710
0.181229 0.181884 0.182725
0.310849 0.311164 0.313902
0.116413 0.116446 0.116800
0.159644 0.160257 0.161055
0.096023 0.096642 0.096518
0.109774 0.110318 0.110487
0.329161 0.329458 0.329344
0.171863 0.171277 0.170752
0.238157 0.237906 0.237605
0.108513 0.108787 0.108794
0.154097 0.153975 0.153878
0.154663 0.154770 0.155234
0.187959 0.208321 0.218614
0.092205 0.091542 0.091371
0.116766 0.115444 0.112450
0.136322 0.136431 0.136283
0.097497 0.097316 0.097507
0.133760 0.135385 0.135600
0.117616 0.117263 0.118123
0.220388 0.221068 0.221997
0.207789 0.200827 0.197366
0.216630 0.216367 0.216778
0.273368 0.274482 0.277497
0.142280 0.142912 0.142494
0.130753 0.131029 0.132349
0.180200 0.187735 0.192806
0.191315 0.193440 0.196946
0.095899 0.096556 0.096361
0.225800 0.224962 0.222827
0.338530 0.336264 0.335594
0.177318 0.177093 0.175862
0.194723 0.194840 0.194670
0.106987 0.106516 0.105114
0.114286 0.115073 0.115181
0.109302 0.109229 0.109619
0.119775 0.119984 0.119795
0.274807 0.273931 0.273269
0.188419 0.189091 0.189461
0.094364 0.093469 0.093606
0.104512 0.104210 0.104562
0.186916 0.187058 0.187174
0.278367 0.276798 0.273839
0.338948 0.338746 0.336924
0.122431 0.122871 0.123525
0.197238 0.198007 0.201418
0.120964 0.121012 0.120274
0.234346 0.232813 0.231005
0.117348 0.117547 0.117546
0.153619 0.153618 0.153685
0.190711 0.187310 0.185699
0.128409 0.136160 0.140353
0.286621 0.280222 0.279100
0.165901 0.165825 0.165990
0.206461 0.273357 0.279558
0.302368 0.302572 0.306634
0.190336 0.190442 0.192172
0.209735 0.217499 0.217236
0.158088 0.160038 0.161441
0.162491 0.162252 0.162356
0.326978 0.326511 0.326346
0.096499 0.096545 0.096549
0.186047 0.188258 0.189447
0.110497 0.111016 0.110904
0.133374 0.132795 0.131762
0.106969 0.106928 0.105756
0.097908 0.098292 0.097859
0.271396 0.272381 0.270574
0.099881 0.100597 0.100921
0.214020 0.208971 0.203388
0.381548 0.382226 0.388014
0.135608 0.134278 0.134722
0.139617 0.139620 0.138772
0.110464 0.109754 0.109594
0.138721 0.141207 0.153412
0.176113 0.175056 0.174547
0.222890 0.222776 0.222398
0.211492 0.211128 0.210484
0.101398 0.100156 0.099819
0.194274 0.196300 0.198071
0.099955 0.100514 0.100444
0.289900 0.289942 0.290315
0.119620 0.119786 0.119789
0.136272 0.136029 0.135779
0.191082 0.190999 0.190981
0.126928 0.127728 0.130713
0.142323 0.142535 0.142237
0.193452 0.193545 0.193612
0.256220 0.259476 0.259625
0.198430 0.198226 0.197573
0.121566 0.121589 0.122000
0.141748 0.143964 0.148329
0.402843 0.402805 0.403474
0.133667 0.133954 0.133244
0.221967 0.224445 0.224779
0.308205 0.306942 0.301106
0.089673 0.089108 0.088979
0.221838 0.224747 0.227472
0.279061 0.278866 0.279180
0.120111 0.120515 0.120311
0.200115 0.198543 0.192842
0.240867 0.185275 0.184460
0.109829 0.109421 0.109185
0.095801 0.096149 0.095275
0.105005 0.104960 0.106735
0.167959 0.166886 0.166082
0.092395 0.092415 0.093816
0.107139 0.104688 0.103506
0.126624 0.126186 0.126164
0.304619 0.304717 0.304899
0.139366 0.139349 0.139606
0.170609 0.174191 0.174901
0.217641 0.217334 0.216532
0.145932 0.145418 0.146046
0.137825 0.139579 0.139996
0.138133 0.136515 0.138537
0.176123 0.177511 0.177087
0.228165 0.219747 0.231202
0.287806 0.287949 0.285732
0.255786 0.249794 0.233255
0.107941 0.108343 0.109022
0.185313 0.186508 0.187580
0.221819 0.221098 0.220971
0.168671 0.168452 0.166579
0.228405 0.227873 0.227239
0.092954 0.092787 0.093710
0.154213 0.146463 0.144018
0.139659 0.139978 0.139990
0.092991 0.093028 0.093041
0.226377 0.225834 0.226754
0.115040 0.116507 0.117721
0.204610 0.205213 0.205594
0.174989 0.175108 0.175114
0.249408 0.246443 0.241527
0.091010 0.090616 0.089573
0.220280 0.215460 0.210279
0.253584 0.227120 0.224019
0.154726 0.154556 0.154515
0.273653 0.273975 0.273962
0.133980 0.133654 0.133850
0.120017 0.119813 0.119713
0.093057 0.092579 0.092120
0.092401 0.090862 0.091323
0.187183 0.187733 0.187029
0.110485 0.110209 0.109831
0.197085 0.197491 0.199061
0.185764 0.184876 0.184212
0.181856 0.183357 0.186217
0.128200 0.128251 0.128949
0.096763 0.096403 0.097416
0.110964 0.110027 0.109856
0.174126 0.174014 0.171788
0.285047 0.298638 0.348986
0.142481 0.142583 0.142028
0.127609 0.129244 0.128918
0.126849 0.127337 0.127276
0.241860 0.234949 0.225147
0.116662 0.116595 0.117031
0.097950 0.097747 0.097302
0.097382 0.097129 0.096580
0.138120 0.135571 0.136397
0.263697 0.279569 0.279730
0.103860 0.102554 0.100997
0.167818 0.169064 0.170321
0.131893 0.132289 0.134410
0.176811 0.178648 0.181460
0.219806 0.206592 0.196224
0.322861 0.322296 0.323029
0.183234 0.182811 0.182627
0.143550 0.140990 0.141405
0.161604 0.161429 0.161662
0.149643 0.148014 0.147302
0.237021 0.236847 0.238802
0.148014 0.147302 0.147257
0.100155 0.100053 0.099554
0.114668 0.114785 0.114870
0.113765 0.113581 0.113346
0.200217 0.204865 0.205571
0.201453 0.201923 0.201834
0.271725 0.270871 0.270698
0.153394 0.154216 0.155443
0.119846 0.119856 0.119851
0.104319 0.107883 0.107671
0.263940 0.264164 0.264412
0.289410 0.287577 0.283501
0.170518 0.171783 0.172144
0.186860 0.188126 0.194313
0.091516 0.092816 0.093837
0.118863 0.118734 0.118385
0.231916 0.229610 0.227434
0.309700 0.312055 0.312976
0.393020 0.393272 0.394995
0.181054 0.181278 0.181048
0.205415 0.204834 0.203957
0.176695 0.176643 0.177235
0.408364 0.402695 0.401382
0.184022 0.181549 0.180894
0.093171 0.093680 0.093918
0.184344 0.187728 0.187384
0.254746 0.253293 0.249135
0.115646 0.116549 0.116836
0.307119 0.312746 0.330219
0.107447 0.107542 0.106931
0.187854 0.186804 0.185182
0.217632 0.218207 0.219302
0.179016 0.181968 0.186031
0.154518 0.154517 0.154662
0.190075 0.194496 0.199035
0.134588 0.134752 0.134177
0.106146 0.105138 0.104856
0.393882 0.403363 0.413073
0.263435 0.264696 0.266085
0.092208 0.092836 0.093561
0.153365 0.153215 0.152923
0.126020 0.126374 0.126926
0.096531 0.091432 0.088566
0.135355 0.133420 0.132671
0.201599 0.201931 0.202836
0.182615 0.182735 0.182967
0.098760 0.098795 0.098322
0.111663 0.112278 0.111829
0.114002 0.114524 0.114273
0.280431 0.280271 0.280284
0.152396 0.153360 0.153685
0.263160 0.263237 0.264197
0.227543 0.230003 0.230456
0.181388 0.177605 0.174094
0.146794 0.148840 0.151006
0.280629 0.279888 0.280430
0.110239 0.110729 0.114930
0.117199 0.118584 0.118147
0.131538 0.131250 0.130619
0.211224 0.212340 0.214299
0.262417 0.262451 0.262299
0.110385 0.110969 0.110762
0.272734 0.272761 0.272255
0.181431 0.181317 0.181902
0.190493 0.190736 0.190985
0.148575 0.147486 0.147366
0.121914 0.118013 0.117925
0.355149 0.357015 0.357108
0.114410 0.112868 0.111724
0.213502 0.213439 0.210662
0.122381 0.122201 0.122415
0.093340 0.093682 0.094119
0.089640 0.090190 0.090449
0.188275 0.187480 0.177681
0.169522 0.169915 0.170055
0.264881 0.265379 0.272763
0.104852 0.114305 0.138732
0.251510 0.254253 0.271187
0.138061 0.138079 0.138324
0.110530 0.109686 0.109511
0.148167 0.148102 0.148289
0.217195 0.216654 0.216012
0.192868 0.186271 0.182146
0.306038 0.308516 0.311625
0.154116 0.154017 0.153927
0.129126 0.129291 0.129277
0.129625 0.128672 0.128084
0.340097 0.340559 0.340354
0.199617 0.195405 0.195101
0.118711 0.118860 0.118881
0.104238 0.104639 0.105567
0.111160 0.111876 0.112538
0.183548 0.182257 0.181598
0.140464 0.140028 0.137729
0.161413 0.161658 0.161567
0.108657 0.109006 0.108806
0.108540 0.108514 0.108635
0.196727 0.197281 0.198957
0.197666 0.192193 0.190099
0.289144 0.285963 0.284528
0.173819 0.172654 0.172173
0.116117 0.115549 0.115045
0.123385 0.123315 0.123520
0.111964 0.113100 0.113691
0.193607 0.193581 0.193732
0.092575 0.091793 0.091600
0.135235 0.136292 0.137683
0.208698 0.200132 0.200154
0.397769 0.393357 0.391222
0.162455 0.162403 0.163147
0.195107 0.196115 0.196507
0.142186 0.141667 0.141013
0.109506 0.109865 0.109952
0.186123 0.206461 0.273357
0.308950 0.309238 0.309666
0.168906 0.168841 0.169080
0.151414 0.151428 0.151566
0.283502 0.284660 0.286256
0.146139 0.146882 0.147579
0.295425 0.295477 0.295959
0.272057 0.270978 0.270397
0.092892 0.092894 0.092568
0.116844 0.116155 0.115988
0.106267 0.106512 0.105477
0.186980 0.189584 0.194023
0.240683 0.236374 0.232940
0.253254 0.252828 0.249732
0.143545 0.142967 0.142954
0.113663 0.113456 0.113591
0.097690 0.097587 0.097338
0.114099 0.114104 0.114542
0.127505 0.127912 0.128262
0.105996 0.106391 0.106314
0.306014 0.305577 0.305579
0.366958 0.366729 0.366224
0.131515 0.131271 0.131652
0.119580 0.117015 0.116496
0.119052 0.118690 0.119051
0.209500 0.210837 0.210823
0.122229 0.120656 0.120673
0.115243 0.115819 0.115978
0.185188 0.183739 0.183481
0.137769 0.118815 0.109845
0.118611 0.119147 0.120072
0.109623 0.110071 0.110422
0.118884 0.121456 0.122179
0.098155 0.098164 0.098861
0.352230 0.344652 0.338657
0.285913 0.217143 0.209694
0.093052 0.093556 0.092262
0.107533 0.104024 0.095158
0.109374 0.109606 0.109829
0.291844 0.296102 0.309396
0.093596 0.093421 0.093212
0.104650 0.105121 0.105799
0.187130 0.187774 0.188112
0.126017 0.126870 0.126333
0.207454 0.205188 0.194897
0.255770 0.256008 0.256562
0.309606 0.290435 0.264517
0.191392 0.192401 0.192671
0.169276 0.170841 0.171871
0.224677 0.224949 0.225622
0.156326 0.156329 0.156382
0.257095 0.271279 0.277270
0.130315 0.130459 0.130233
0.174487 0.174676 0.178277
0.407183 0.405973 0.403360
0.212733 0.212617 0.212484
0.219232 0.219147 0.219004
0.183368 0.187760 0.191205
0.230845 0.229874 0.228917
0.181572 0.181336 0.181509
0.103998 0.104422 0.104156
0.209406 0.204326 0.200813
0.166834 0.167252 0.167672
0.100626 0.100313 0.100488
0.225804 0.224454 0.224507
0.271772 0.270991 0.270835
0.249183 0.248955 0.248901
0.160405 0.152921 0.149325
0.110463 0.112924 0.115342
0.185469 0.184866 0.182832
0.105158 0.102983 0.100748
0.182559 0.182029 0.180765
0.097685 0.095685 0.095428
0.288471 0.288379 0.287700
0.248862 0.248566 0.248544
0.210255 0.210246 0.210031
0.343943 0.343430 0.336887
0.288628 0.288989 0.289143
0.297204 0.297929 0.298352
0.132050 0.131977 0.131706
0.248524 0.248444 0.248331
0.191944 0.194238 0.195414
0.240389 0.224881 0.223359
0.134396 0.138968 0.142010
0.276488 0.277543 0.277307
0.195811 0.195934 0.197000
0.197985 0.197900 0.197793
0.216991 0.224435 0.226831
0.109833 0.109238 0.108547
0.177330 0.183610 0.187716
0.118738 0.115472 0.115012
0.154159 0.154398 0.154315
0.123046 0.122586 0.125160
0.133727 0.133742 0.133220
0.123154 0.122274 0.119231
0.147748 0.147217 0.146426
0.282726 0.284771 0.284861
0.119254 0.118662 0.118675
0.183465 0.182925 0.182574
0.258260 0.259501 0.261036
0.116534 0.116282 0.114984
0.183280 0.183501 0.183234
0.142706 0.139941 0.136854
0.095352 0.097551 0.100414
0.189899 0.190743 0.191570
0.293634 0.292653 0.290677
0.311577 0.301563 0.302208
0.093915 0.094183 0.094683
0.208657 0.217957 0.219389
0.123047 0.122867 0.122884
0.303045 0.300606 0.295080
0.120702 0.118482 0.116188
0.112474 0.112849 0.111713
0.401039 0.396436 0.383099
0.095486 0.094428 0.093425
0.221068 0.221997 0.221931
0.107585 0.108026 0.107279
0.422140 0.419429 0.411527
0.140074 0.140001 0.139918
0.096148 0.096234 0.096791
0.219032 0.218204 0.218182
0.201340 0.200306 0.198960
0.135100 0.134665 0.132371
0.349273 0.350829 0.346885
0.187231 0.187231 0.187335
0.114081 0.113965 0.113412
0.107759 0.107593 0.107420
0.142229 0.142147 0.142020
0.280468 0.279076 0.279094
0.219640 0.218282 0.215382
0.330299 0.329724 0.326852
0.284273 0.284677 0.284258
0.284164 0.283874 0.283546
0.194489 0.194731 0.194905
0.128144 0.128109 0.127967
0.151326 0.150318 0.149141
0.108874 0.109546 0.109462
0.120295 0.127505 0.136482
0.355173 0.355745 0.355561
0.097264 0.097875 0.098448
0.104470 0.104220 0.103951
0.178321 0.176143 0.183200
0.243930 0.242481 0.241628
0.283131 0.281480 0.280630
0.098466 0.098762 0.097933
0.141158 0.136388 0.128269
0.401737 0.402531 0.402850
0.114502 0.113359 0.111873
0.102345 0.102049 0.102076
0.111525 0.111488 0.110837
0.354067 0.353407 0.353693
0.129920 0.130470 0.129850
0.159146 0.158997 0.157925
0.124735 0.126098 0.128989
0.094078 0.093158 0.091207
0.221617 0.222311 0.222717
0.338828 0.339598 0.339540
0.180755 0.193891 0.196165
0.180376 0.180259 0.179719
0.308177 0.308143 0.308139
0.241401 0.241591 0.240461
0.139865 0.139271 0.138971
0.384427 0.381278 0.380823
0.169681 0.169018 0.167759
0.093874 0.093812 0.094964
0.193266 0.192616 0.187373
0.117627 0.118206 0.118861
0.223090 0.222839 0.222624
0.159936 0.153286 0.149011
0.288961 0.280468 0.279076
0.097257 0.096352 0.096512
0.309882 0.309079 0.307477
0.092970 0.088650 0.088359
0.098431 0.097736 0.097528
0.131262 0.131787 0.131644
0.115743 0.116030 0.115953
0.108969 0.107347 0.108051
0.138296 0.137339 0.135894
0.201820 0.201307 0.204883
0.095479 0.095325 0.095633
0.194052 0.193920 0.193640
0.156577 0.158227 0.158581
0.126157 0.125585 0.124568
0.377887 0.374786 0.373335
0.200591 0.201382 0.203173
0.091345 0.091108 0.094787
0.089796 0.089412 0.089220
0.097510 0.097606 0.098202
0.097521 0.095698 0.095172
0.124692 0.126177 0.129591
0.155070 0.155193 0.155446
0.123228 0.123272 0.122468
0.249881 0.246544 0.242819
0.104749 0.104864 0.104172
0.187282 0.187959 0.189249
0.129817 0.129851 0.129006
0.142745 0.143217 0.143954
0.278921 0.277541 0.277920
0.187018 0.184968 0.181570
0.129693 0.129626 0.130995
0.219853 0.219738 0.219642
0.144223 0.144650 0.144790
0.319410 0.317826 0.317343
0.329353 0.328922 0.329681
0.110836 0.109960 0.109576
0.222617 0.223179 0.224079
0.210351 0.210387 0.210973
0.135339 0.136037 0.133428
0.262534 0.262363 0.262281
0.190564 0.187199 0.185681
0.126323 0.127451 0.128271
0.259913 0.259951 0.259812
0.211333 0.211290 0.211203
0.134954 0.134709 0.135202
0.272283 0.272510 0.272197
0.225535 0.224436 0.225022
0.091816 0.089642 0.089947
0.284677 0.284258 0.284114
0.177797 0.177878 0.178179
0.103848 0.102685 0.102791
0.101430 0.101316 0.101162
0.096938 0.097004 0.095811
0.098082 0.096994 0.097667
0.197846 0.196590 0.195943
0.215328 0.216630 0.217837
0.123614 0.122729 0.122656
0.346525 0.346725 0.349487
0.153360 0.152729 0.152660
0.112816 0.113736 0.115126
0.102833 0.103742 0.103585
0.218259 0.217081 0.216684
0.364498 0.368514 0.369830
0.111713 0.110946 0.109827
0.236633 0.238284 0.240696
0.130589 0.130117 0.129772
0.297570 0.297289 0.296188
0.308125 0.308623 0.309411
0.268121 0.248589 0.239873
0.113323 0.113823 0.114380
0.263828 0.263863 0.263823
0.200256 0.200032 0.199951
0.208068 0.208493 0.208591
0.147550 0.147645 0.148607
0.137745 0.136789 0.135467
0.196300 0.195952 0.195588
0.282162 0.283102 0.283179
0.203486 0.209773 0.216990
0.362847 0.364498 0.368514
0.280649 0.282444 0.282257
0.295221 0.295611 0.296637
0.156449 0.156369 0.155748
0.113542 0.114340 0.114426
0.100832 0.100215 0.099745
0.280855 0.281067 0.280959
0.100937 0.100847 0.100119
0.292258 0.294132 0.294253
0.180314 0.181279 0.181628
0.096515 0.096559 0.097115
0.109253 0.108980 0.109451
0.216061 0.220824 0.228789
0.174369 0.173696 0.170766
0.328242 0.328308 0.328910
0.147165 0.148904 0.152058
0.104189 0.103679 0.103340
0.239748 0.239703 0.239969
0.111479 0.111389 0.111911
0.104727 0.103558 0.102578
0.116611 0.116922 0.116761
0.096987 0.097501 0.097868
0.160365 0.161190 0.161807
0.132168 0.131649 0.131450
0.138342 0.139173 0.139197
0.181192 0.181522 0.181437
0.158711 0.161160 0.165338
0.308949 0.309666 0.311390
0.099997 0.099871 0.099638
0.215296 0.217474 0.217875
0.122860 0.121293 0.117971
0.117547 0.117546 0.116475
0.200134 0.200299 0.200245
0.108514 0.108635 0.109085
0.142320 0.142188 0.142308
0.380604 0.381548 0.382226
0.118267 0.117960 0.117378
0.272633 0.272292 0.272342
0.141972 0.144643 0.149098
0.189421 0.187926 0.186036
0.172230 0.173608 0.174889
0.132891 0.133167 0.133193
0.104235 0.103926 0.102295
0.251353 0.252207 0.252725
0.151249 0.148748 0.147139
0.139590 0.138801 0.138655
0.218290 0.217605 0.213767
0.156512 0.156530 0.156558
0.097491 0.097840 0.097530
0.140437 0.140140 0.139991
0.289538 0.289206 0.286644
0.272481 0.272158 0.272059
0.249098 0.248857 0.248828
0.111139 0.111056 0.110637
0.227329 0.238035 0.238087
0.225393 0.229279 0.214129
0.162990 0.162552 0.162147
0.109726 0.109996 0.110290
0.091428 0.091012 0.091619
0.265951 0.263965 0.263492
0.218514 0.218140 0.218935
0.102257 0.102237 0.101678
0.401205 0.401368 0.401727
0.146636 0.147605 0.148624
0.108538 0.108223 0.107843
0.179862 0.179878 0.180337
0.109626 0.109701 0.109519
0.088621 0.088764 0.089509
0.094801 0.094078 0.093981
0.104978 0.104834 0.106900
0.310073 0.310060 0.310060
0.175061 0.174547 0.175073
0.095040 0.094399 0.094285
0.355984 0.355656 0.355366
0.190289 0.191102 0.190984
0.241516 0.240542 0.238732
0.339612 0.339561 0.339697
0.194126 0.194073 0.194005
0.089387 0.090158 0.091172
0.109492 0.109547 0.107449
0.119049 0.121503 0.123639
0.166128 0.166218 0.166722
0.122867 0.122884 0.122949
0.239837 0.246633 0.246468
0.150400 0.150568 0.150838
0.170374 0.168957 0.169876
0.389100 0.382643 0.377887
0.137517 0.138072 0.138074
0.190626 0.192053 0.194500
0.097156 0.097644 0.097744
0.100246 0.103062 0.105877
0.193716 0.191258 0.190307
0.145161 0.145064 0.145181
0.123782 0.122476 0.119155
0.093599 0.093837 0.093553
0.195768 0.192420 0.193893
0.241749 0.247365 0.255445
0.141432 0.141952 0.142130
0.089415 0.089992 0.090419
0.242860 0.251868 0.261710
0.175609 0.179104 0.180188
0.142788 0.142533 0.142525
0.116953 0.116299 0.116074
0.096299 0.096123 0.095550
0.096781 0.096088 0.095270
0.117168 0.115614 0.115862
0.217117 0.217397 0.216618
0.150349 0.152749 0.154822
0.117403 0.117252 0.117096
0.186232 0.186224 0.186634
0.211937 0.212389 0.213745
0.154493 0.161415 0.165199
0.198139 0.198430 0.198226
0.095490 0.095688 0.095949
0.104422 0.104156 0.104085
0.242794 0.241965 0.236662
0.117153 0.116944 0.117085
0.216071 0.215988 0.216289
0.281999 0.283404 0.283947
0.123380 0.124315 0.124846
0.114549 0.115947 0.116648
0.182240 0.180773 0.176929
0.154223 0.154036 0.154046
0.146313 0.146672 0.147061
0.097236 0.096872 0.096415
0.151787 0.152823 0.155937
