0.275248 0.273550 0.272855
0.469319 0.471200 0.472729
0.360521 0.361142 0.354144
0.417067 0.416827 0.416469
0.629789 0.637679 0.640651
0.445268 0.440954 0.430947
0.618369 0.636072 0.654685
0.373287 0.371281 0.367388
0.420875 0.419608 0.417510
0.298548 0.300486 0.300278
0.686236 0.686905 0.687636
0.395154 0.394665 0.403854
0.695384 0.695086 0.694691
0.532427 0.529640 0.529914
0.411891 0.405702 0.405020
0.876504 0.882766 0.886939
0.479519 0.480299 0.475558
0.412578 0.411009 0.412697
0.902174 0.902374 0.906042
0.520151 0.517034 0.514604
0.526076 0.581401 0.595439
0.346026 0.347038 0.344171
0.575540 0.582818 0.583860
0.365718 0.366166 0.367161
0.324770 0.320640 0.319487
0.470408 0.458947 0.458638
0.735028 0.734056 0.733248
0.446524 0.444303 0.443850
0.524720 0.524338 0.522659
0.315364 0.317921 0.316805
0.776477 0.776762 0.770080
0.721486 0.718484 0.746005
0.572879 0.568770 0.561203
0.560221 0.561199 0.568868
0.544942 0.544736 0.545623
0.471281 0.471242 0.470922
0.336338 0.343468 0.344581
0.294981 0.295258 0.294204
0.640316 0.645623 0.658368
0.283011 0.281996 0.280511
0.360531 0.361788 0.362736
0.443674 0.434588 0.436559
0.367311 0.364385 0.364622
0.595937 0.600351 0.594861
0.433403 0.425511 0.422717
0.687359 0.687064 0.681093
0.567380 0.573905 0.579063
0.456946 0.454751 0.456171
0.358018 0.358466 0.358312
0.396685 0.390163 0.404179
0.477733 0.478748 0.480396
0.459529 0.458652 0.459309
0.482138 0.486967 0.485287
0.414322 0.414321 0.411577
0.436056 0.436594 0.432482
0.405316 0.406360 0.406362
0.422414 0.423079 0.422848
0.331837 0.332761 0.338954
0.390127 0.388879 0.385421
0.344848 0.344536 0.344431
0.636706 0.638549 0.660738
0.504935 0.502537 0.498755
0.896012 0.898547 0.893493
0.692162 0.692512 0.693294
0.483633 0.484851 0.487026
0.503728 0.502601 0.494672
0.497010 0.519158 0.518872
0.442795 0.445791 0.445225
0.428716 0.430100 0.432369
0.575641 0.587392 0.586039
0.435547 0.431483 0.428140
0.433463 0.428078 0.426856
0.456082 0.454155 0.454720
0.778524 0.780495 0.786576
0.709254 0.708069 0.709597
0.405466 0.405640 0.404957
0.690892 0.689870 0.690249
0.546929 0.547567 0.548012
0.488029 0.459747 0.454698
0.564916 0.577602 0.579891
0.618356 0.617318 0.622914
0.706882 0.713595 0.714042
0.274053 0.273396 0.274848
0.625493 0.621635 0.569027
0.438356 0.435851 0.435629
0.283637 0.293157 0.297184
0.387090 0.385783 0.384212
0.597542 0.597763 0.598121
0.581796 0.582331 0.582308
0.311887 0.309205 0.308360
0.321119 0.321075 0.328002
0.657805 0.658525 0.658770
0.484119 0.484772 0.470936
0.380982 0.380341 0.381152
0.388645 0.386739 0.385701
0.444628 0.453704 0.455771
0.285140 0.288567 0.289533
0.718495 0.718670 0.717952
0.461226 0.461303 0.460902
0.291927 0.291232 0.291733
0.288561 0.290599 0.291101
0.436149 0.437005 0.443771
0.415664 0.416157 0.420559
0.291400 0.298172 0.299334
0.434610 0.435625 0.435485
0.547489 0.549146 0.548811
0.406317 0.405652 0.407499
0.309507 0.309807 0.309837
0.441998 0.441011 0.441203
0.555531 0.558638 0.557221
0.377006 0.377484 0.377629
0.577325 0.578863 0.592889
0.571024 0.564228 0.555108
0.391173 0.389672 0.391680
0.432482 0.427783 0.425047
0.332416 0.334521 0.360385
0.440764 0.464103 0.462949
0.670637 0.667068 0.655554
0.394445 0.394830 0.394368
0.619170 0.606811 0.598655
0.266068 0.266879 0.267116
0.519193 0.519397 0.520519
0.578421 0.577863 0.579207
0.910182 0.908868 0.907902
0.462638 0.463414 0.464850
0.546173 0.545781 0.546610
0.395567 0.385983 0.384753
0.406639 0.404386 0.402621
0.533448 0.534306 0.533233
0.421987 0.417648 0.416776
0.560248 0.559311 0.556075
0.678864 0.680091 0.680975
0.895029 0.895098 0.895885
0.399237 0.396747 0.391464
0.374549 0.376906 0.377517
0.628932 0.627983 0.628223
0.335788 0.349708 0.351447
0.474536 0.474526 0.474332
0.646615 0.642390 0.646540
0.571802 0.572199 0.572801
0.907098 0.907755 0.909944
0.374636 0.374629 0.370821
0.426573 0.427723 0.427553
0.735920 0.737314 0.737830
0.662316 0.667635 0.689510
0.412869 0.415590 0.419618
0.311518 0.312176 0.314560
0.720134 0.719080 0.724957
0.314200 0.311137 0.310877
0.272650 0.273144 0.273469
0.516714 0.517104 0.515052
0.356554 0.359477 0.360096
0.768082 0.768530 0.768212
0.424165 0.423309 0.423364
0.339969 0.337892 0.337231
0.319436 0.321915 0.339349
0.508738 0.507578 0.507690
0.678484 0.677149 0.676279
0.405743 0.406663 0.398086
0.894912 0.896599 0.896307
0.706173 0.706507 0.706089
0.431293 0.432216 0.432566
0.395799 0.392242 0.390846
0.689777 0.690740 0.687078
0.684198 0.682741 0.683284
0.838529 0.845821 0.860108
0.678072 0.677518 0.670964
0.351791 0.352519 0.351370
0.358469 0.357906 0.358113
0.317498 0.313392 0.313601
0.310556 0.309622 0.310175
0.426307 0.425806 0.425771
0.409024 0.408381 0.394990
0.549110 0.547606 0.548920
0.787720 0.786322 0.787162
0.243864 0.243557 0.244315
0.325735 0.326249 0.328156
0.311625 0.308079 0.307996
0.301355 0.301183 0.300238
0.397605 0.399026 0.398748
0.392634 0.394878 0.394530
0.376162 0.377410 0.377219
0.514790 0.505656 0.505944
0.248490 0.247138 0.247580
0.572103 0.574709 0.574701
0.439787 0.441898 0.442333
0.248951 0.247861 0.246377
0.775097 0.775119 0.775314
0.726187 0.727439 0.727181
0.907425 0.909444 0.910515
0.542168 0.546047 0.548807
0.680558 0.677529 0.676669
0.330947 0.328999 0.328390
0.416199 0.415785 0.417554
0.361448 0.352549 0.352280
0.643291 0.644014 0.648466
0.536843 0.536062 0.530777
0.615341 0.611396 0.601274
0.586577 0.585891 0.583410
0.563585 0.569385 0.569307
0.604132 0.602697 0.602666
0.654646 0.650963 0.622816
0.704758 0.704600 0.705786
0.752770 0.750682 0.749444
0.697700 0.709178 0.708058
0.549714 0.550176 0.552713
0.349482 0.350691 0.353587
0.543019 0.543708 0.546077
0.371778 0.371802 0.370716
0.513510 0.512269 0.512187
0.559240 0.568789 0.579749
0.510129 0.508580 0.509343
0.457562 0.458177 0.458060
0.658467 0.656224 0.653955
0.432108 0.430119 0.428231
0.666254 0.665312 0.665595
0.399643 0.402627 0.399350
0.374359 0.369837 0.366637
0.329467 0.329158 0.328681
0.443480 0.442518 0.443148
0.446852 0.446965 0.444293
0.576522 0.572879 0.568770
0.548677 0.550508 0.554472
0.578261 0.598637 0.605428
0.361496 0.360726 0.360489
0.425006 0.425573 0.426565
0.578331 0.580262 0.583481
0.322739 0.319518 0.319519
0.555560 0.556335 0.556097
0.273795 0.272625 0.271162
0.675738 0.679192 0.680319
0.458904 0.464390 0.494951
0.275147 0.272494 0.271145
0.410433 0.408985 0.405944
0.438201 0.431845 0.428695
0.600214 0.600436 0.602257
0.530446 0.529160 0.528016
0.264382 0.263717 0.266019
0.365180 0.365209 0.364111
0.511598 0.511070 0.508040
0.406482 0.407339 0.423437
0.423696 0.430853 0.431870
0.686292 0.686549 0.689984
0.555965 0.558124 0.560363
0.719556 0.715894 0.714734
0.287004 0.283208 0.280134
0.434427 0.433031 0.433851
0.502529 0.504281 0.505223
0.409829 0.409889 0.411254
0.315545 0.316287 0.317006
0.285873 0.284144 0.282603
0.538708 0.538541 0.537638
0.257614 0.258033 0.257719
0.943672 0.944986 0.943752
0.654281 0.623189 0.619484
0.807330 0.810889 0.822284
0.277509 0.279519 0.280815
0.407245 0.407373 0.406977
0.782831 0.777207 0.776729
0.701489 0.698558 0.692218
0.448669 0.449180 0.449185
0.353344 0.342484 0.343501
0.355970 0.355175 0.355581
0.668425 0.652974 0.618883
0.408127 0.408594 0.407596
0.545981 0.572822 0.576317
0.557370 0.557713 0.557425
0.525177 0.533237 0.543687
0.667473 0.655508 0.654675
0.567921 0.567181 0.567645
0.479765 0.480164 0.478719
0.531362 0.531739 0.530549
0.486127 0.487126 0.485032
0.542008 0.541004 0.555337
0.291656 0.290537 0.286779
0.672270 0.670574 0.670025
0.921935 0.924803 0.923804
0.401429 0.402412 0.401809
0.561359 0.561628 0.562925
0.578374 0.579599 0.579547
0.966561 0.962312 0.953297
0.660371 0.657153 0.650806
0.309246 0.308871 0.309742
0.667087 0.687795 0.690256
0.487126 0.485032 0.483736
0.691585 0.692162 0.695786
0.513744 0.514912 0.516665
0.851194 0.848551 0.851713
0.287875 0.284029 0.280951
0.715746 0.714108 0.710588
0.518470 0.519584 0.522819
0.334815 0.345834 0.346427
0.341817 0.341169 0.341612
0.374331 0.374498 0.374732
0.877195 0.875710 0.858981
0.304815 0.304815 0.302584
0.389673 0.395680 0.396216
0.383393 0.387313 0.386237
0.479115 0.482730 0.481480
0.420888 0.417930 0.416977
0.739911 0.744704 0.747453
0.317460 0.319326 0.319639
0.390625 0.388064 0.388363
0.412641 0.402978 0.403190
0.902863 0.904019 0.907736
0.758566 0.762187 0.766654
0.546663 0.542472 0.542279
0.533307 0.533430 0.532761
0.441576 0.441486 0.440983
0.250057 0.249350 0.247809
0.550034 0.537185 0.537426
0.319786 0.319978 0.322966
0.816594 0.816515 0.814082
0.658357 0.639488 0.635121
0.505725 0.495470 0.495188
0.717016 0.721486 0.718484
0.673613 0.673298 0.672909
0.504264 0.497591 0.494777
0.583713 0.572872 0.573424
0.263919 0.263619 0.266112
0.315251 0.316633 0.317739
0.276330 0.286498 0.290309
0.880708 0.878579 0.877470
0.673470 0.676374 0.677889
0.691377 0.691228 0.689131
0.347343 0.348010 0.350078
0.750609 0.750243 0.754855
0.457688 0.456037 0.455536
0.489358 0.489644 0.489788
0.697172 0.697688 0.698917
0.573834 0.596277 0.627430
0.417124 0.418727 0.428029
0.346690 0.343653 0.344720
0.632509 0.632172 0.645458
0.358703 0.359691 0.351791
0.619838 0.621899 0.621304
0.272689 0.276918 0.287931
0.473121 0.472454 0.472508
0.297116 0.296256 0.296927
0.480979 0.482644 0.483281
0.573628 0.576073 0.577291
0.498501 0.486922 0.486815
0.681615 0.681115 0.689882
0.498397 0.499066 0.495144
0.697939 0.700164 0.714568
0.668627 0.671309 0.670143
0.371645 0.372140 0.368610
0.644725 0.644759 0.645251
0.798540 0.746540 0.740031
0.895620 0.893867 0.893096
0.644014 0.648466 0.649281
0.411770 0.415846 0.415285
0.632227 0.632839 0.630653
0.298704 0.300304 0.300531
0.795838 0.797666 0.798110
0.694028 0.693490 0.691668
0.504504 0.503996 0.503713
0.638809 0.633642 0.620526
0.386784 0.384457 0.384593
0.642694 0.647254 0.648090
0.385220 0.386063 0.387437
0.744297 0.743984 0.744709
0.245114 0.245080 0.247038
0.370192 0.370744 0.371308
0.750732 0.752879 0.753248
0.534639 0.533289 0.533307
0.404721 0.403937 0.394932
0.352085 0.352689 0.353360
0.412116 0.410964 0.411029
0.581967 0.583978 0.583727
0.324629 0.324184 0.324122
0.405753 0.405619 0.404300
0.295781 0.294921 0.295747
0.711542 0.705570 0.706932
0.752502 0.753698 0.754425
0.841673 0.843903 0.870391
0.414265 0.418593 0.421576
0.331183 0.342983 0.344199
0.421746 0.422091 0.423461
0.467648 0.466744 0.457472
0.323372 0.322495 0.320908
0.372088 0.373393 0.373276
0.429816 0.430487 0.432103
0.293127 0.293210 0.292948
0.825533 0.791463 0.791076
0.536129 0.563405 0.579941
0.470936 0.470348 0.473038
0.579259 0.579022 0.580356
0.592223 0.592868 0.592769
0.548627 0.547940 0.549396
0.617637 0.624966 0.644660
0.338283 0.337716 0.335382
0.710158 0.711314 0.712605
0.711301 0.707729 0.670817
0.268635 0.266868 0.266086
0.427139 0.413487 0.411895
0.371040 0.373080 0.373250
0.551739 0.549777 0.559692
0.324726 0.324352 0.320573
0.388284 0.383843 0.383035
0.942870 0.943140 0.943361
0.240645 0.240839 0.240608
0.249105 0.249032 0.248039
0.349642 0.348703 0.349143
0.372895 0.369748 0.371020
0.516259 0.516294 0.515122
0.296008 0.298973 0.299620
0.747706 0.746509 0.743895
0.414614 0.414050 0.414344
0.800259 0.796431 0.797116
0.344886 0.344459 0.344718
0.289550 0.290203 0.293031
0.636303 0.638993 0.639802
0.423522 0.423367 0.424513
0.450925 0.450188 0.449305
0.689677 0.684287 0.682762
0.446771 0.446026 0.446340
0.376228 0.375747 0.375133
0.784485 0.822564 0.824704
0.359218 0.358465 0.360252
0.247591 0.250482 0.255544
0.554344 0.556403 0.549970
0.562125 0.562359 0.535580
0.453776 0.452566 0.450784
0.591523 0.592064 0.592297
0.749444 0.749535 0.748609
0.406879 0.407593 0.405996
0.707867 0.707242 0.709975
0.547182 0.547933 0.547292
0.590371 0.582812 0.564819
0.879177 0.881108 0.879047
0.483026 0.470451 0.466823
0.879674 0.874853 0.872921
0.281820 0.282724 0.282187
0.519106 0.522135 0.525911
0.563272 0.562169 0.581683
0.564283 0.589355 0.600759
0.700351 0.703980 0.703758
0.935678 0.936030 0.936048
0.468426 0.463109 0.462638
0.489298 0.489761 0.489080
0.531516 0.517593 0.505232
0.797104 0.792489 0.793449
0.463932 0.463446 0.463064
0.547047 0.548677 0.550508
0.278354 0.276053 0.281148
0.411965 0.399083 0.394131
0.351169 0.349976 0.351960
0.344897 0.345392 0.345639
0.544926 0.545314 0.546665
0.263515 0.264717 0.265419
0.502017 0.500169 0.501905
0.456126 0.452843 0.449647
0.291735 0.292428 0.291090
0.279413 0.278790 0.278715
0.744537 0.740544 0.726828
0.454481 0.454896 0.455386
0.617482 0.617495 0.629143
0.406232 0.414904 0.418069
0.681720 0.679834 0.676823
0.545100 0.544058 0.546975
0.403415 0.403785 0.404118
0.283064 0.280072 0.282399
0.544359 0.537673 0.536471
0.532937 0.533764 0.535761
0.573713 0.575434 0.568877
0.305369 0.308318 0.310435
0.460877 0.461001 0.459109
0.462791 0.456701 0.422654
0.456277 0.454284 0.453279
0.575469 0.572514 0.557911
0.644260 0.643786 0.643463
0.302802 0.303891 0.307463
0.455901 0.456207 0.452756
0.535926 0.535217 0.532776
0.423053 0.419895 0.419629
0.783341 0.783747 0.778946
0.377157 0.377707 0.375265
0.419235 0.420595 0.426414
0.616212 0.611767 0.600947
0.566500 0.553018 0.550901
0.690343 0.691911 0.688506
0.422353 0.413464 0.412075
0.416399 0.417148 0.417753
0.393145 0.393036 0.384528
0.606023 0.607645 0.592911
0.398738 0.403393 0.406706
0.368281 0.371161 0.377318
0.533019 0.531707 0.532439
0.664524 0.661655 0.658607
0.546540 0.547267 0.547839
0.438518 0.430803 0.424398
0.541165 0.536279 0.535812
0.667870 0.669177 0.670632
0.414966 0.416263 0.414252
0.510786 0.510006 0.513889
0.408623 0.406610 0.407914
0.326172 0.326347 0.326620
0.571074 0.585124 0.594261
0.723011 0.704865 0.704476
0.328714 0.328693 0.328351
0.611933 0.613453 0.609696
0.431464 0.387101 0.382989
0.298998 0.300374 0.300397
0.464168 0.478613 0.477369
0.321837 0.320825 0.320355
0.729756 0.729844 0.728167
0.569738 0.569777 0.568596
0.545840 0.547169 0.546925
0.529122 0.525977 0.527463
0.615157 0.614247 0.613574
0.367703 0.366125 0.364367
0.380984 0.381815 0.383489
0.386318 0.375381 0.374201
0.235580 0.240999 0.241462
0.404142 0.405718 0.403405
0.299934 0.299732 0.295614
0.900634 0.902683 0.902935
0.678364 0.676867 0.678649
0.407240 0.404059 0.406910
0.373516 0.379535 0.381208
0.483686 0.483880 0.484986
0.764278 0.813873 0.824652
0.292527 0.289893 0.289276
0.500689 0.500470 0.501301
0.541165 0.543742 0.527523
0.366361 0.377621 0.384708
0.595908 0.595176 0.595482
0.684169 0.678792 0.680083
0.669646 0.666976 0.658499
0.294732 0.293552 0.293731
0.581433 0.580943 0.575434
0.706169 0.706492 0.705266
0.599142 0.595166 0.594495
0.667270 0.668853 0.680751
0.474959 0.468764 0.467135
0.315754 0.313630 0.301159
0.684031 0.707239 0.708288
0.756112 0.749849 0.739964
0.283260 0.285841 0.285616
0.504210 0.499931 0.500109
0.440125 0.441016 0.441289
0.586954 0.571261 0.570595
0.523224 0.522685 0.522359
0.622044 0.623056 0.630968
0.521342 0.521815 0.520386
0.373121 0.369231 0.367559
0.415659 0.416349 0.414636
0.670264 0.670292 0.670036
0.541307 0.537933 0.497386
0.943416 0.942176 0.942542
0.464850 0.465242 0.463901
0.624843 0.624622 0.623490
0.673080 0.673012 0.672766
0.595020 0.598561 0.599451
0.410382 0.416666 0.417175
0.507603 0.507069 0.505725
0.234685 0.242957 0.246365
0.614012 0.614882 0.615194
0.650253 0.653277 0.650259
0.400576 0.401078 0.402525
0.494126 0.498798 0.503421
0.480724 0.499597 0.521944
0.402905 0.405719 0.403447
0.661860 0.668089 0.668710
0.383992 0.383739 0.381599
0.677672 0.668791 0.663287
0.642984 0.646746 0.647794
0.669706 0.670243 0.670907
0.537673 0.536471 0.534901
0.788535 0.782567 0.779907
0.353510 0.352374 0.350035
0.345031 0.344863 0.345647
0.727277 0.726868 0.726262
0.907392 0.985239 0.991447
0.595093 0.594642 0.594884
0.259063 0.258233 0.258301
0.596259 0.575530 0.571624
0.427718 0.426669 0.427087
0.666866 0.657789 0.656111
0.367252 0.371779 0.393346
0.344952 0.342459 0.331760
0.290769 0.292449 0.294267
0.461068 0.456009 0.440535
0.800012 0.788535 0.782567
0.496614 0.500666 0.499895
0.384253 0.383924 0.384792
0.705916 0.706052 0.696365
0.951718 0.936181 0.936288
0.282671 0.283145 0.279411
0.802834 0.802214 0.799950
0.297342 0.297203 0.296583
0.663211 0.660941 0.645411
0.399546 0.398374 0.405252
0.544874 0.546048 0.547089
0.679367 0.681354 0.683441
0.516891 0.509814 0.508562
0.323873 0.324062 0.324407
0.599559 0.579244 0.561074
0.367552 0.370135 0.370955
0.441436 0.440397 0.432771
0.371781 0.368768 0.367847
0.596344 0.572895 0.556759
0.517157 0.513891 0.502113
0.568224 0.550073 0.546470
0.569825 0.569166 0.570516
0.402569 0.402035 0.402217
0.537750 0.532326 0.534381
0.550646 0.549481 0.548231
0.792350 0.793030 0.793758
0.329348 0.331270 0.332330
0.620526 0.604751 0.600961
0.597015 0.597267 0.596861
0.316723 0.313237 0.313376
0.290339 0.291691 0.290059
0.685533 0.685551 0.689397
0.300442 0.299947 0.298602
0.632798 0.629635 0.589592
0.361683 0.359969 0.359301
0.591994 0.589094 0.591381
0.825756 0.826338 0.826562
0.915231 0.914304 0.914240
0.293260 0.299531 0.301084
0.407011 0.403848 0.401952
0.570181 0.566950 0.560606
0.558531 0.558384 0.558445
0.480299 0.484860 0.485781
0.679236 0.681481 0.687760
0.563410 0.555646 0.558038
0.698485 0.685217 0.680355
0.569164 0.568871 0.579296
0.251830 0.252041 0.253169
0.518136 0.509415 0.503637
0.247364 0.248341 0.250219
0.432533 0.433913 0.440838
0.751006 0.751525 0.751041
0.360634 0.361479 0.369200
0.448204 0.449018 0.451703
0.369027 0.369600 0.369143
0.246700 0.245805 0.255624
0.571037 0.570756 0.573827
0.349445 0.352118 0.352499
0.413608 0.414072 0.411955
0.356280 0.367702 0.367703
0.668279 0.666778 0.664235
0.527913 0.529050 0.541023
0.555695 0.549397 0.548052
0.537483 0.538564 0.536361
0.351576 0.355946 0.357770
0.564468 0.564470 0.559848
0.325994 0.326170 0.325601
0.767769 0.765962 0.764393
0.652258 0.644333 0.640005
0.563522 0.562512 0.563517
0.420980 0.422081 0.421694
0.677076 0.666184 0.665942
0.438923 0.438050 0.436372
0.939133 0.935152 0.937140
0.439423 0.436099 0.436325
0.731121 0.733553 0.733287
0.582708 0.582075 0.581600
0.311799 0.310522 0.308104
0.542750 0.541990 0.542173
0.571043 0.571411 0.571317
0.425735 0.425779 0.426045
0.368805 0.369357 0.367355
0.261734 0.260366 0.260430
0.442754 0.441403 0.440402
0.415103 0.394587 0.389281
0.298505 0.298445 0.302050
0.294469 0.294229 0.297818
0.400481 0.394665 0.394393
0.657482 0.659580 0.658490
0.578545 0.577190 0.572136
0.396877 0.417552 0.420778
0.685884 0.687135 0.688376
0.429054 0.430961 0.433323
0.373353 0.372112 0.377372
0.340890 0.339222 0.340750
0.485951 0.483793 0.481307
0.673963 0.675482 0.675369
0.446405 0.439797 0.437771
0.387698 0.385592 0.380458
0.416222 0.414843 0.412225
0.389101 0.390207 0.390556
0.289639 0.289630 0.288301
0.423367 0.424513 0.423348
0.404808 0.409719 0.421576
0.488700 0.494828 0.494739
0.359939 0.362438 0.366602
0.411950 0.411463 0.404982
0.372112 0.377372 0.378291
0.532387 0.532319 0.531592
0.485303 0.504189 0.507534
0.467007 0.468391 0.467963
0.307690 0.308155 0.310524
0.781218 0.782722 0.786117
0.598391 0.596412 0.594613
0.388654 0.390039 0.382891
0.466531 0.469785 0.478677
0.328456 0.326872 0.328141
0.514716 0.520678 0.521594
0.534429 0.531901 0.531414
0.708098 0.706821 0.703806
0.730799 0.729513 0.727685
0.892992 0.897106 0.896012
0.477274 0.478988 0.479033
0.345556 0.346905 0.346827
0.269761 0.269268 0.269746
0.719928 0.720261 0.715044
0.435165 0.433515 0.430358
0.289803 0.290414 0.289655
0.537422 0.536644 0.534954
0.365208 0.366858 0.370385
0.469134 0.467862 0.469052
0.650645 0.590282 0.592671
0.382900 0.388679 0.388919
0.445768 0.445282 0.447959
0.408059 0.408428 0.405192
0.663483 0.656319 0.630428
0.505562 0.483886 0.476228
0.384127 0.385621 0.386500
0.549560 0.549769 0.546833
0.490689 0.488548 0.489360
0.568352 0.568051 0.570060
0.407961 0.407876 0.408714
0.687365 0.682286 0.680556
0.550441 0.542925 0.542501
0.276671 0.275663 0.274469
0.863751 0.864544 0.864629
0.620604 0.623960 0.662164
0.327542 0.306886 0.304301
0.272417 0.272949 0.274841
0.688644 0.687938 0.689455
0.294475 0.293329 0.297761
0.896372 0.896141 0.895056
0.677654 0.670802 0.672724
0.456247 0.457930 0.457795
0.489177 0.486705 0.486132
0.512013 0.504255 0.507046
0.352528 0.352882 0.353695
0.566823 0.566512 0.566619
0.465382 0.465360 0.464890
0.413027 0.416086 0.417167
0.903517 0.902799 0.898022
0.523633 0.529340 0.539427
0.369357 0.367355 0.368141
0.498893 0.485946 0.493746
0.478320 0.478518 0.454960
0.279970 0.280278 0.282973
0.411941 0.414229 0.419180
0.634013 0.633163 0.633861
0.353108 0.353114 0.354728
0.583724 0.588518 0.590620
0.426504 0.427252 0.424604
0.506264 0.502538 0.487939
0.467037 0.468616 0.473431
0.342927 0.343919 0.343687
0.284243 0.287387 0.288992
0.478657 0.478598 0.479115
0.711630 0.709848 0.696356
0.866928 0.866550 0.866217
0.227604 0.225895 0.225519
0.567657 0.567460 0.570227
0.616188 0.621238 0.644632
0.519589 0.521545 0.530701
0.349647 0.350684 0.350763
0.881269 0.882114 0.881189
0.506713 0.508486 0.527604
0.436372 0.424716 0.412876
0.333777 0.334186 0.335181
0.512741 0.520599 0.519874
0.682846 0.684828 0.682642
0.346502 0.343783 0.337669
0.297241 0.295620 0.296008
0.426562 0.426573 0.427723
0.311022 0.311332 0.314826
0.549769 0.546833 0.544690
0.401051 0.400905 0.401889
0.820378 0.680786 0.622176
0.490824 0.491245 0.492409
0.799381 0.793815 0.790059
0.294954 0.297136 0.295781
0.585109 0.585955 0.586426
0.401059 0.398468 0.396733
0.352703 0.352444 0.350943
0.344216 0.346058 0.345825
0.770660 0.769111 0.765098
0.389225 0.388576 0.389001
0.895010 0.895738 0.895045
0.636033 0.637125 0.633128
0.783533 0.786655 0.794211
0.405535 0.412553 0.411136
0.771103 0.775539 0.754460
0.341971 0.343671 0.345175
0.437456 0.436186 0.427729
0.565220 0.566239 0.569134
0.664529 0.661779 0.660367
0.445515 0.445674 0.444864
0.774356 0.775388 0.763253
0.282755 0.287355 0.288654
0.532719 0.532606 0.533291
0.531540 0.531276 0.534421
0.686151 0.693995 0.694283
0.539901 0.541920 0.539302
0.355400 0.355444 0.355658
0.587314 0.577672 0.580120
0.401249 0.400345 0.399797
0.440163 0.436365 0.438717
0.322745 0.323490 0.324741
0.692596 0.702886 0.696902
0.498236 0.485999 0.491612
0.622126 0.626065 0.625795
0.606211 0.601631 0.601721
0.477009 0.477355 0.477904
0.345339 0.345672 0.345221
0.413740 0.415231 0.415807
0.538895 0.533712 0.531367
0.640436 0.636928 0.608753
0.673525 0.673445 0.673274
0.405721 0.404621 0.403326
0.407195 0.402135 0.401210
0.342714 0.338336 0.336126
0.380161 0.380312 0.385429
0.796885 0.797567 0.804519
0.669972 0.666709 0.664740
0.506138 0.505876 0.506302
0.246397 0.245411 0.245842
0.473583 0.473554 0.473814
0.358625 0.320432 0.311160
0.724078 0.698385 0.695598
0.374424 0.373130 0.374895
0.622322 0.616830 0.612143
0.726713 0.726903 0.725272
0.882955 0.881950 0.879474
0.865202 0.866579 0.864983
0.713686 0.712820 0.710330
0.673894 0.676116 0.676915
0.783842 0.782577 0.796687
0.677439 0.680830 0.679501
0.272941 0.273544 0.277224
0.872908 0.872401 0.876347
0.700083 0.701845 0.703228
0.446785 0.448502 0.456020
0.465730 0.459950 0.460468
0.906042 0.908732 0.907209
0.569431 0.562681 0.565474
0.495142 0.496281 0.496496
0.635957 0.677798 0.679991
0.268571 0.269399 0.269244
0.549146 0.548811 0.549005
0.310830 0.313391 0.327271
0.666752 0.668008 0.667927
0.416493 0.407956 0.392454
0.709855 0.686582 0.680435
0.795950 0.794685 0.793740
0.415914 0.417301 0.417369
0.433242 0.437757 0.440284
0.299268 0.301735 0.298531
0.333278 0.332622 0.328174
0.769075 0.768270 0.768187
0.486669 0.486896 0.485902
0.610483 0.609401 0.615131
0.381711 0.383531 0.386337
0.466190 0.470015 0.471368
0.550519 0.549777 0.550384
0.325304 0.327152 0.327392
0.573039 0.572856 0.574928
0.251495 0.252573 0.252705
0.437902 0.445304 0.444509
0.459668 0.459788 0.456256
0.893637 0.892937 0.893111
0.527650 0.530067 0.530506
0.835417 0.840241 0.840391
0.765089 0.766106 0.786180
0.405866 0.405940 0.409460
0.577563 0.575235 0.502220
0.578908 0.576310 0.576572
0.356396 0.359939 0.362438
0.615493 0.610762 0.609196
0.508063 0.508349 0.508083
0.462421 0.459314 0.458334
0.893073 0.899805 0.928249
0.439376 0.438518 0.430803
0.426509 0.428032 0.429775
0.690686 0.690004 0.688611
0.511212 0.519106 0.522135
0.537985 0.537948 0.538715
0.733168 0.734700 0.738205
0.586655 0.587134 0.587193
0.672724 0.673205 0.681309
0.396985 0.395906 0.389790
0.245272 0.246170 0.243857
0.266427 0.267436 0.265504
0.403028 0.399391 0.403733
0.438224 0.439800 0.441543
0.690114 0.689941 0.690385
0.474876 0.474144 0.473892
0.604487 0.605243 0.607018
0.230631 0.232026 0.230847
0.431208 0.430905 0.430596
0.667274 0.671822 0.668793
0.453055 0.452289 0.449784
0.393443 0.392236 0.389426
0.452706 0.445771 0.445193
0.405664 0.401444 0.402249
0.746377 0.744034 0.743818
0.628346 0.613832 0.615370
0.342435 0.342131 0.342735
0.479205 0.477738 0.477330
0.867397 0.866189 0.866419
0.549792 0.547047 0.548677
0.469060 0.451748 0.449528
0.540256 0.533347 0.534212
0.751697 0.746598 0.745469
0.388275 0.389044 0.390731
0.488066 0.487933 0.486853
0.656572 0.657852 0.666084
0.685626 0.685173 0.675465
0.686775 0.684123 0.687367
0.668148 0.662608 0.614483
0.674286 0.674564 0.673750
0.293070 0.294643 0.295468
0.309444 0.308211 0.307269
0.225292 0.227608 0.228812
0.452271 0.453600 0.454167
0.608592 0.612871 0.614632
0.656226 0.657167 0.656503
0.505194 0.514283 0.514328
0.683990 0.685719 0.686039
0.537903 0.537754 0.540180
0.245104 0.243910 0.243891
0.331773 0.330333 0.331054
0.819897 0.816947 0.819500
0.713094 0.708182 0.692942
0.871717 0.871317 0.865661
0.867036 0.868432 0.875144
0.761388 0.764278 0.813873
0.436186 0.435953 0.434579
0.358393 0.354307 0.353466
0.551056 0.551595 0.556488
0.602356 0.599819 0.599559
0.491792 0.491113 0.491312
0.714612 0.712138 0.709157
0.634508 0.634082 0.634499
0.611342 0.651334 0.642874
0.504908 0.506869 0.510384
0.462465 0.464059 0.469369
0.407593 0.405996 0.405004
0.300090 0.299786 0.300285
0.957375 0.944486 0.943320
0.360791 0.360961 0.362109
0.926175 0.917896 0.910710
0.462378 0.462237 0.460783
0.312562 0.318089 0.321118
0.802889 0.801559 0.797867
0.435851 0.435629 0.434209
0.437068 0.437100 0.435720
0.437909 0.443172 0.443352
0.380877 0.379116 0.378898
0.737392 0.734749 0.705095
0.564924 0.563922 0.547713
0.898152 0.897127 0.897273
0.408456 0.407245 0.407373
0.322809 0.327091 0.325871
0.621703 0.575032 0.574155
0.453681 0.454850 0.459660
0.666465 0.663320 0.660653
0.577447 0.561693 0.564145
0.555045 0.542655 0.532194
0.672736 0.672597 0.672343
0.464504 0.463123 0.461618
0.340463 0.339413 0.336388
0.691134 0.692478 0.692952
0.463089 0.463097 0.475444
0.389358 0.386293 0.385292
0.442560 0.440374 0.438654
0.353179 0.351840 0.350416
0.580949 0.583001 0.593139
0.244470 0.246715 0.246450
0.639741 0.642863 0.646095
0.523683 0.531674 0.535476
0.341068 0.341050 0.343409
0.401072 0.400342 0.398337
0.311969 0.309664 0.313175
0.248684 0.251362 0.248527
0.871987 0.874723 0.874046
0.692785 0.714728 0.714006
0.433659 0.432293 0.421406
0.278298 0.279659 0.280254
0.324980 0.325748 0.327684
0.482005 0.482004 0.481887
0.543103 0.543030 0.541307
0.406017 0.406232 0.414904
0.364054 0.368331 0.388032
0.234327 0.235801 0.238425
0.290837 0.290195 0.290204
0.340776 0.340933 0.340983
0.544409 0.546720 0.545992
0.478784 0.485540 0.523640
