0.095073 0.094861 0.096008
0.088792 0.095724 0.096162
0.158542 0.155868 0.155252
0.106939 0.107312 0.107310
0.110378 0.111402 0.111727
0.090628 0.088835 0.088993
0.094701 0.094741 0.095725
0.108768 0.108770 0.109042
0.122913 0.123384 0.132557
0.103023 0.103291 0.103876
0.120505 0.119977 0.117732
0.080940 0.080890 0.080639
0.121613 0.121584 0.120505
0.089539 0.089707 0.088852
0.124866 0.125413 0.125318
0.116458 0.116570 0.117101
0.094067 0.093692 0.093245
0.085973 0.087080 0.086745
0.136436 0.136491 0.136064
0.087993 0.088531 0.088445
0.100291 0.100383 0.100522
0.137903 0.137032 0.133624
0.114489 0.114241 0.114920
0.099020 0.099176 0.099128
0.128915 0.128755 0.129039
0.088777 0.088883 0.088809
0.116229 0.114352 0.114269
0.122489 0.128781 0.129136
0.100723 0.100655 0.101130
0.133064 0.132397 0.131315
0.134363 0.134638 0.134841
0.132831 0.132904 0.133310
0.088163 0.088549 0.089198
0.121863 0.121070 0.119111
0.134371 0.134358 0.134628
0.132456 0.131697 0.125430
0.115426 0.115215 0.114974
0.095856 0.094737 0.094574
0.151302 0.150872 0.151723
0.090975 0.090779 0.089270
0.104846 0.106241 0.114724
0.107928 0.107686 0.107234
0.101537 0.101595 0.102194
0.095111 0.095449 0.095804
0.094653 0.090561 0.090957
0.119559 0.120205 0.120615
0.134164 0.131845 0.145090
0.126995 0.127571 0.128927
0.132143 0.135358 0.135292
0.133097 0.132996 0.132694
0.122017 0.122546 0.123301
0.162609 0.161994 0.153855
0.103874 0.104926 0.104518
0.152331 0.152166 0.152046
0.144105 0.144136 0.145151
0.132638 0.132812 0.133434
0.106715 0.107883 0.106656
0.112308 0.111754 0.112159
0.133292 0.132818 0.132852
0.107791 0.108120 0.108371
0.132827 0.132477 0.129833
0.099877 0.099631 0.098972
0.119769 0.120351 0.120292
0.120191 0.119348 0.117811
0.146066 0.147038 0.147586
0.104524 0.104202 0.104271
0.113187 0.113179 0.113931
0.132618 0.133282 0.133823
0.135581 0.134040 0.134479
0.080831 0.080940 0.080890
0.084939 0.085133 0.085224
0.161698 0.160869 0.161077
0.103511 0.103735 0.102596
0.104096 0.104688 0.104296
0.132033 0.132569 0.132216
0.091377 0.091604 0.091619
0.098894 0.098749 0.098704
0.100559 0.100423 0.100485
0.136898 0.139015 0.148639
0.150424 0.151697 0.152254
0.154156 0.152245 0.151901
0.095242 0.096425 0.104380
0.130317 0.130283 0.130040
0.095634 0.095739 0.095820
0.126804 0.128566 0.128680
0.115957 0.116733 0.116937
0.147039 0.139479 0.137824
0.094610 0.094627 0.094670
0.097631 0.097544 0.097651
0.092701 0.092722 0.092559
0.089244 0.088670 0.090634
0.136639 0.138773 0.139246
0.085056 0.085821 0.085469
0.138019 0.141439 0.141980
0.101477 0.102167 0.103508
0.085687 0.085307 0.082591
0.129623 0.129629 0.127367
0.109592 0.109160 0.107462
0.138115 0.135178 0.134380
0.144106 0.144456 0.145485
0.090467 0.090609 0.090946
0.124456 0.124945 0.125571
0.178842 0.174430 0.172787
0.103365 0.102013 0.098069
0.123528 0.123101 0.123080
0.119076 0.118856 0.118749
0.100751 0.100289 0.099421
0.161557 0.162206 0.164085
0.086690 0.086706 0.087721
0.123423 0.124869 0.124345
0.129060 0.135217 0.135803
0.094167 0.093682 0.092946
0.129371 0.128030 0.128032
0.122561 0.122587 0.122561
0.151366 0.151192 0.148154
0.099187 0.098797 0.099047
0.125217 0.125853 0.125645
0.119399 0.119082 0.118467
0.136615 0.136302 0.134973
0.105527 0.105588 0.105116
0.136987 0.137690 0.136831
0.107670 0.106048 0.105467
0.135956 0.135743 0.137015
0.107939 0.107690 0.107636
0.093238 0.092966 0.093274
0.122085 0.122193 0.122205
0.126002 0.126432 0.126306
0.121385 0.121561 0.121720
0.138563 0.139511 0.143487
0.164732 0.164804 0.164696
0.103951 0.104044 0.104390
0.137869 0.138578 0.139877
0.112799 0.113083 0.112858
0.084303 0.083822 0.083215
0.142218 0.142667 0.139190
0.100233 0.100207 0.100331
0.091119 0.091111 0.090557
0.120834 0.121277 0.121722
0.095969 0.095947 0.096734
0.121239 0.121140 0.121166
0.150740 0.150681 0.150755
0.125185 0.125322 0.125495
0.134541 0.134582 0.134502
0.122438 0.122555 0.122150
0.089920 0.089959 0.089326
0.095069 0.095023 0.095705
0.085600 0.085465 0.085216
0.095335 0.095866 0.095484
0.094235 0.092877 0.092508
0.119254 0.121609 0.122271
0.141779 0.141904 0.141971
0.116281 0.116205 0.115689
0.119711 0.120080 0.120278
0.113170 0.112444 0.112864
0.121271 0.120055 0.120108
0.122339 0.121961 0.121961
0.091884 0.091952 0.091658
0.146730 0.146789 0.146931
0.134770 0.134765 0.135371
0.105903 0.105960 0.105582
0.129075 0.127536 0.127226
0.130006 0.130319 0.133183
0.114761 0.114749 0.114196
0.087655 0.087396 0.087992
0.082459 0.083128 0.082384
0.158561 0.158847 0.158811
0.119856 0.119324 0.119770
0.102423 0.103174 0.103117
0.114929 0.113345 0.113635
0.094889 0.098829 0.099583
0.124782 0.123460 0.126125
0.095574 0.097660 0.097981
0.136640 0.136528 0.136020
0.124088 0.117724 0.103592
0.116908 0.122558 0.123939
0.096672 0.097057 0.097313
0.145162 0.145104 0.145157
0.098483 0.099017 0.098041
0.130287 0.130600 0.130480
0.144839 0.142538 0.142383
0.114088 0.113609 0.113163
0.109670 0.108661 0.108575
0.106936 0.107052 0.107135
0.115379 0.115529 0.114652
0.104555 0.104735 0.106301
0.134432 0.133249 0.132886
0.088982 0.089239 0.088233
0.121577 0.119783 0.119787
0.120513 0.121044 0.121360
0.136194 0.137960 0.137551
0.134949 0.134470 0.134002
0.151632 0.155453 0.155605
0.118972 0.119028 0.119403
0.094849 0.096562 0.096775
0.117704 0.117379 0.116931
0.109682 0.110084 0.109845
0.166579 0.167262 0.166968
0.091931 0.091779 0.092466
0.138293 0.141470 0.141664
0.119752 0.119820 0.120076
0.102766 0.100024 0.100037
0.126674 0.126691 0.124447
0.104846 0.104664 0.104877
0.119707 0.119706 0.118180
0.112840 0.116589 0.116736
0.110135 0.109459 0.107815
0.087776 0.087604 0.087873
0.102550 0.102553 0.102529
0.092012 0.091382 0.091134
0.089925 0.089814 0.090644
0.115132 0.114378 0.114436
0.107579 0.107439 0.107878
0.140710 0.141458 0.141316
0.098940 0.098256 0.098277
0.114173 0.113882 0.114018
0.124788 0.124604 0.124605
0.145986 0.145987 0.145285
0.098540 0.098293 0.098464
0.127787 0.127682 0.128361
0.111455 0.111341 0.110627
0.129238 0.130030 0.130404
0.113678 0.113477 0.113284
0.097739 0.097494 0.097713
0.086736 0.086966 0.088137
0.086004 0.086102 0.085982
0.099693 0.100210 0.101031
0.102309 0.103922 0.104566
0.149726 0.149935 0.150559
0.109466 0.109044 0.108909
0.113218 0.114677 0.114908
0.103655 0.103744 0.103598
0.123190 0.120486 0.120136
0.095063 0.094850 0.094625
0.146715 0.146776 0.146939
0.121869 0.121647 0.121495
0.134787 0.134495 0.134618
0.121090 0.121466 0.120576
0.131889 0.131921 0.132095
0.090816 0.091129 0.091413
0.088476 0.088293 0.087896
0.138761 0.138991 0.139354
0.175018 0.173896 0.171371
0.093016 0.091193 0.090113
0.115765 0.116093 0.116145
0.176824 0.176868 0.176717
0.115906 0.114267 0.114216
0.158247 0.157567 0.157455
0.100030 0.099903 0.099773
0.094809 0.094161 0.093864
0.154675 0.153810 0.151717
0.096632 0.092320 0.091388
0.100069 0.099737 0.098618
0.147497 0.146035 0.145661
0.143331 0.143672 0.144425
0.110032 0.110479 0.108827
0.132109 0.132447 0.132842
0.154363 0.154545 0.154088
0.086087 0.085926 0.086095
0.082106 0.082600 0.083504
0.124048 0.124761 0.124547
0.137992 0.134560 0.134561
0.134705 0.134913 0.135147
0.095818 0.096260 0.095921
0.128813 0.128973 0.128639
0.161245 0.160973 0.160926
0.086209 0.086960 0.088474
0.097978 0.098787 0.098696
0.102547 0.102756 0.102917
0.089884 0.089392 0.089430
0.110055 0.109998 0.105965
0.125801 0.127225 0.126739
0.111831 0.112047 0.112384
0.124390 0.125606 0.125422
0.111771 0.109523 0.109060
0.109140 0.108474 0.107875
0.091222 0.090984 0.090630
0.080856 0.081696 0.082199
0.117763 0.118123 0.118710
0.109812 0.108825 0.108795
0.094784 0.094427 0.094297
0.096171 0.096593 0.096766
0.132002 0.132006 0.131792
0.081507 0.083151 0.084484
0.095937 0.096027 0.096196
0.128509 0.128224 0.127909
0.147493 0.147592 0.148094
0.111855 0.112101 0.112981
0.138103 0.136378 0.137252
0.107020 0.107386 0.107715
0.124073 0.123520 0.123497
0.102881 0.102641 0.101359
0.115699 0.111339 0.112669
0.116073 0.116171 0.114813
0.099488 0.099218 0.099991
0.102433 0.102597 0.102682
0.112827 0.112949 0.112413
0.154380 0.154476 0.153531
0.133929 0.133982 0.134790
0.124679 0.124867 0.124995
0.105237 0.105271 0.105335
0.117130 0.116971 0.117116
0.087735 0.087974 0.088280
0.123927 0.124169 0.124640
0.104959 0.104092 0.103755
0.136966 0.135957 0.136047
0.132427 0.132555 0.132169
0.087310 0.087090 0.087199
0.122333 0.122422 0.122126
0.106944 0.107148 0.107300
0.131447 0.130702 0.130820
0.088660 0.088091 0.088667
0.101988 0.101749 0.101595
0.105585 0.105243 0.105816
0.088480 0.088380 0.088401
0.103495 0.103692 0.103880
0.132345 0.132676 0.132617
0.112505 0.118581 0.119276
0.113775 0.114935 0.118574
0.108886 0.106966 0.106712
0.116883 0.118041 0.118168
0.107037 0.106864 0.106725
0.096531 0.096941 0.096765
0.104446 0.103705 0.099601
0.099472 0.099688 0.100018
0.085559 0.085096 0.084500
0.083454 0.081691 0.082442
0.146488 0.146145 0.147494
0.106049 0.106275 0.106374
0.130386 0.130086 0.130090
0.097206 0.097386 0.097799
0.112512 0.112189 0.111915
0.089275 0.089369 0.090340
0.150848 0.150283 0.150266
0.109592 0.109510 0.109090
0.106036 0.106588 0.106393
0.095448 0.095730 0.095592
0.106195 0.108122 0.108398
0.103427 0.102395 0.102437
0.105634 0.105718 0.106311
0.105653 0.105706 0.106124
0.122245 0.122620 0.121719
0.125303 0.125131 0.124323
0.121276 0.121640 0.121721
0.106963 0.107240 0.108712
0.117403 0.117245 0.116778
0.095757 0.094232 0.090605
0.136652 0.136265 0.135606
0.098537 0.099025 0.099898
0.157628 0.159025 0.159751
0.104713 0.106459 0.109651
0.091581 0.091794 0.090526
0.119453 0.116599 0.110127
0.107005 0.107027 0.106945
0.118211 0.117578 0.119938
0.110140 0.108900 0.106986
0.151718 0.151368 0.150914
0.116064 0.116990 0.115083
0.134464 0.135162 0.135748
0.102886 0.103058 0.100444
0.173016 0.171967 0.173624
0.105175 0.105142 0.105394
0.096737 0.094891 0.094928
0.096070 0.094618 0.095074
0.125535 0.125363 0.126838
0.093672 0.093720 0.093287
0.094664 0.095704 0.095855
0.118624 0.118864 0.118121
0.104566 0.105291 0.109270
0.147109 0.146086 0.145305
0.115116 0.115272 0.115190
0.096252 0.096381 0.093214
0.144600 0.145219 0.145031
0.134245 0.134241 0.133846
0.139007 0.135997 0.130564
0.119594 0.117634 0.117523
0.082940 0.082837 0.083017
0.113007 0.113194 0.113248
0.137215 0.136984 0.137039
0.082780 0.083756 0.084886
0.094475 0.094670 0.094667
0.128879 0.130601 0.130749
0.084335 0.086813 0.087290
0.114747 0.115345 0.120265
0.112537 0.112439 0.112381
0.152083 0.152271 0.152749
0.163692 0.163351 0.163200
0.083151 0.084484 0.085575
0.129833 0.130909 0.130985
0.124288 0.121838 0.121930
0.175191 0.174486 0.175136
0.118173 0.107972 0.109354
0.143299 0.144520 0.144780
0.090628 0.090492 0.091234
0.132351 0.132976 0.132832
0.154365 0.159831 0.159895
0.144425 0.144997 0.144389
0.102799 0.107744 0.107801
0.092657 0.093369 0.093220
0.101752 0.100186 0.100381
0.104951 0.110209 0.113792
0.089988 0.086818 0.087458
0.122141 0.122592 0.123065
0.090637 0.091036 0.094299
0.103031 0.103118 0.102429
0.102833 0.106809 0.106591
0.100926 0.101526 0.101498
0.153162 0.153122 0.152865
0.159121 0.158992 0.158342
0.090228 0.090120 0.089655
0.098293 0.099049 0.099392
0.142677 0.140410 0.140301
0.125355 0.125359 0.125068
0.092655 0.092607 0.093593
0.137143 0.137038 0.136031
0.148867 0.149294 0.149092
0.109361 0.109890 0.110506
0.095892 0.095857 0.096145
0.084682 0.085184 0.084667
0.147399 0.146504 0.139134
0.106588 0.105235 0.105054
0.168351 0.168818 0.169796
0.096677 0.094418 0.093929
0.095049 0.094871 0.094868
0.144010 0.144803 0.149212
0.113047 0.112736 0.112986
0.108805 0.109686 0.110345
0.098485 0.098713 0.098255
0.095859 0.096180 0.096178
0.121389 0.120344 0.121105
0.160466 0.160743 0.160727
0.085072 0.083879 0.083419
0.127071 0.127194 0.127523
0.115030 0.114929 0.114753
0.153122 0.152865 0.152864
0.085432 0.085524 0.085205
0.123669 0.124088 0.125573
0.133237 0.133305 0.132364
0.142016 0.141361 0.141232
0.114868 0.115029 0.114754
0.108182 0.109012 0.109997
0.123202 0.123565 0.123618
0.125359 0.125068 0.124951
0.082465 0.082246 0.082236
0.173546 0.174303 0.174745
0.093549 0.093361 0.093722
0.135869 0.136021 0.135625
0.148554 0.148487 0.148663
0.110836 0.110676 0.110538
0.103419 0.103392 0.103353
0.095678 0.096880 0.096598
0.121722 0.121795 0.122168
0.083435 0.083592 0.084147
0.122193 0.122205 0.121969
0.145631 0.145581 0.154249
0.125355 0.125021 0.124964
0.104167 0.104213 0.104259
0.159185 0.158556 0.158573
0.085501 0.085469 0.085242
0.122416 0.122700 0.122447
0.106373 0.106397 0.105902
0.083987 0.084059 0.084389
0.123956 0.123932 0.124794
0.103284 0.102726 0.102560
0.094753 0.094688 0.094913
0.163959 0.164046 0.164152
0.100575 0.102064 0.102491
0.125789 0.125711 0.125797
0.116786 0.116301 0.115637
0.122028 0.121264 0.121508
0.107879 0.103650 0.103912
0.103570 0.104283 0.104249
0.088171 0.088009 0.087882
0.169048 0.169618 0.169460
0.091607 0.091815 0.091761
0.166249 0.166290 0.166070
0.113452 0.111694 0.111378
0.114683 0.115445 0.118399
0.101545 0.101372 0.101430
0.085842 0.085732 0.085787
0.144374 0.146637 0.147391
0.135920 0.135956 0.135743
0.107615 0.111705 0.110653
0.157079 0.157046 0.156196
0.110461 0.110682 0.109320
0.088847 0.088648 0.088416
0.106029 0.105699 0.105348
0.085190 0.085087 0.084769
0.110215 0.110147 0.110701
0.110772 0.109506 0.108884
0.135932 0.133243 0.130083
0.144893 0.145001 0.145606
0.086037 0.085463 0.085022
0.105582 0.105341 0.102700
0.125657 0.125923 0.126244
0.129498 0.129104 0.127660
0.115356 0.115198 0.115454
0.098503 0.098941 0.098979
0.109368 0.108634 0.110959
0.085357 0.085883 0.085127
0.158330 0.157933 0.157822
0.114031 0.113988 0.114044
0.132373 0.131607 0.125035
0.173714 0.173581 0.176288
0.146077 0.146796 0.147089
0.118654 0.118374 0.117584
0.123177 0.123712 0.123332
0.115130 0.116109 0.115612
0.158556 0.158573 0.158936
0.086001 0.086005 0.085535
0.121108 0.122148 0.123111
0.150538 0.152606 0.152961
0.128498 0.129233 0.127390
0.137196 0.136977 0.136202
0.135929 0.131607 0.130477
0.154644 0.155057 0.154760
0.147657 0.147240 0.148045
0.112314 0.111555 0.104887
0.088410 0.089430 0.088468
0.100584 0.101709 0.101463
0.136750 0.135504 0.135895
0.128486 0.128270 0.128293
0.126310 0.126080 0.125302
0.142667 0.139190 0.140513
0.149770 0.149608 0.149664
0.171679 0.171164 0.171139
0.121038 0.120665 0.121331
0.100813 0.100677 0.100823
0.116682 0.116679 0.116569
0.120486 0.120158 0.119963
0.117108 0.114888 0.115724
0.120330 0.120556 0.122371
0.118604 0.116052 0.114681
0.116629 0.112604 0.120297
0.110150 0.109865 0.108844
0.098582 0.098426 0.097596
0.145183 0.145119 0.145359
0.107234 0.107635 0.107728
0.112523 0.112750 0.114563
0.117521 0.116730 0.109519
0.135786 0.136221 0.136780
0.166164 0.166148 0.166658
0.126728 0.127481 0.129414
0.118086 0.115020 0.114638
0.105316 0.105197 0.105852
0.089326 0.089491 0.088662
0.121187 0.123365 0.124283
0.092112 0.092015 0.092296
0.130636 0.129983 0.129718
0.123600 0.123546 0.123200
0.105669 0.106821 0.106949
0.098357 0.099361 0.100595
0.106399 0.105619 0.103351
0.159521 0.159557 0.159121
0.104792 0.104360 0.103826
0.102063 0.102079 0.102316
0.171054 0.171023 0.171655
0.095201 0.095589 0.097829
0.088791 0.088384 0.088098
0.100494 0.099720 0.099989
0.148784 0.148642 0.148532
0.105412 0.105388 0.105568
0.102755 0.103850 0.104122
0.093791 0.093812 0.093265
0.163786 0.163907 0.164910
0.134686 0.134470 0.134930
0.120083 0.121492 0.121207
0.115518 0.114891 0.114886
0.138487 0.138562 0.138623
0.094985 0.095004 0.095318
0.094833 0.095978 0.096109
0.094760 0.094703 0.094757
0.131824 0.129512 0.129848
0.125901 0.125912 0.126603
0.094967 0.094777 0.094574
0.150976 0.148322 0.148569
0.130901 0.130447 0.129457
0.130688 0.130692 0.130597
0.124175 0.124141 0.123102
0.106162 0.105275 0.099797
0.102960 0.102835 0.103575
0.097665 0.097583 0.097430
0.117143 0.116774 0.117124
0.082795 0.082523 0.082307
0.108261 0.108080 0.106425
0.093803 0.095095 0.096040
0.089889 0.091625 0.091796
0.098304 0.098426 0.098273
0.134711 0.134176 0.134007
0.118450 0.119940 0.121668
0.103132 0.103451 0.102896
0.111814 0.111754 0.111074
0.147149 0.148037 0.147633
0.133865 0.131954 0.130973
0.108857 0.108282 0.106825
0.114557 0.114605 0.114496
0.094059 0.093776 0.093809
0.091792 0.091653 0.091792
0.092493 0.092606 0.090202
0.096727 0.096949 0.103964
0.104190 0.104364 0.104182
0.115021 0.115113 0.115134
0.117683 0.118600 0.118841
0.094797 0.095630 0.098315
0.161602 0.161012 0.160752
0.120912 0.121381 0.120749
0.136562 0.137195 0.137183
0.082473 0.083252 0.083934
0.116853 0.122102 0.122153
0.106892 0.107185 0.107150
0.147131 0.146387 0.150753
0.094284 0.094035 0.093414
0.098145 0.097722 0.097980
0.131779 0.131182 0.130629
0.145801 0.145932 0.145990
0.131815 0.131969 0.131978
0.107481 0.107734 0.107807
0.099822 0.104040 0.103046
0.140671 0.140034 0.137459
0.114469 0.114396 0.115058
0.088743 0.088440 0.088692
0.111554 0.111715 0.110972
0.161945 0.162477 0.162605
0.103026 0.102904 0.102771
0.150753 0.150571 0.150612
0.088909 0.088266 0.087355
0.091640 0.091883 0.092430
0.095169 0.094771 0.092781
0.108098 0.108558 0.109604
0.155763 0.156507 0.155415
0.105768 0.105046 0.104916
0.146108 0.146210 0.148243
0.121445 0.121336 0.121271
0.128906 0.128901 0.126691
0.098592 0.098112 0.097681
0.127644 0.127476 0.127492
0.166903 0.166314 0.165966
0.100194 0.100393 0.100838
0.128739 0.128166 0.128157
0.080767 0.081239 0.082606
0.123118 0.123186 0.120153
0.125944 0.126452 0.126068
0.132697 0.132122 0.132124
0.105608 0.105347 0.104724
0.121497 0.121908 0.121686
0.121376 0.121573 0.123084
0.131163 0.130804 0.130987
0.113155 0.113527 0.114011
0.098578 0.099805 0.099741
0.124065 0.123029 0.123701
0.101682 0.102018 0.102364
0.095335 0.095949 0.096139
0.114058 0.113286 0.113360
0.138179 0.136350 0.138033
0.119853 0.120005 0.119697
0.114733 0.115118 0.114737
0.095252 0.095824 0.096087
0.107373 0.107794 0.108493
0.095439 0.095394 0.094979
0.091062 0.091513 0.092036
0.157767 0.157406 0.156335
0.144273 0.138221 0.137630
0.087388 0.088782 0.091864
0.114086 0.123063 0.124631
0.120253 0.119549 0.117045
0.091974 0.091256 0.091427
0.109767 0.109779 0.111830
0.113596 0.113739 0.113677
0.126295 0.125470 0.124876
0.092094 0.093554 0.093648
0.129371 0.129747 0.133530
0.106115 0.106990 0.107207
0.099975 0.100059 0.099980
0.098757 0.100233 0.100207
0.102036 0.102976 0.109454
0.145578 0.147950 0.149864
0.117626 0.117326 0.116650
0.098485 0.098413 0.097644
0.101591 0.101576 0.101639
0.139166 0.139493 0.140270
0.127410 0.127009 0.127249
0.162951 0.153734 0.147896
0.088902 0.088584 0.087972
0.088494 0.088746 0.088937
0.127609 0.127878 0.126512
0.133262 0.132471 0.130916
0.110437 0.111125 0.111580
0.142073 0.142243 0.142512
0.099343 0.099384 0.099062
0.123357 0.123489 0.123565
0.146962 0.146566 0.150822
0.089440 0.089252 0.088369
0.085033 0.085138 0.084717
0.084876 0.086075 0.086095
0.086717 0.085843 0.085546
0.092105 0.091927 0.091930
0.121235 0.121856 0.123593
0.084717 0.084335 0.086813
0.123343 0.123447 0.122367
0.150336 0.149881 0.148077
0.117901 0.118783 0.118850
0.126407 0.125986 0.125261
0.150837 0.151137 0.156015
0.111574 0.108906 0.107918
0.123706 0.121981 0.121311
0.107805 0.107245 0.107117
0.085268 0.085267 0.084894
0.120615 0.120502 0.120084
0.163150 0.163170 0.163376
0.089570 0.089587 0.089018
0.128286 0.127354 0.126876
0.129077 0.122896 0.122293
0.116552 0.116131 0.116527
0.133040 0.132268 0.131599
0.139724 0.139301 0.139910
0.130978 0.133388 0.133357
0.134182 0.134151 0.133775
0.101718 0.101135 0.100068
0.134141 0.129878 0.130267
0.099571 0.100179 0.101351
0.086823 0.086797 0.086515
0.095682 0.090257 0.089313
0.091042 0.090941 0.090977
0.128953 0.129674 0.132417
0.120786 0.120572 0.120683
0.104009 0.103743 0.099418
0.120145 0.119239 0.118491
0.112226 0.113881 0.114079
0.087374 0.087434 0.088134
0.111759 0.111644 0.109920
0.099382 0.099990 0.099701
0.124801 0.125089 0.124820
0.089889 0.091254 0.091862
0.096789 0.097187 0.095654
0.112412 0.112217 0.112159
0.083395 0.083452 0.083906
0.131435 0.131584 0.132900
0.103048 0.102796 0.102782
0.106417 0.108194 0.116303
0.128571 0.128093 0.127920
0.148322 0.148569 0.148751
0.110372 0.110744 0.110936
0.135714 0.137078 0.137104
0.144705 0.144505 0.144266
0.091067 0.090785 0.090435
0.133801 0.133585 0.134164
0.088751 0.088337 0.088006
0.089112 0.089606 0.090046
0.131036 0.131241 0.131057
0.107020 0.107094 0.106875
0.105508 0.104150 0.104904
0.114513 0.115617 0.116687
0.108584 0.108568 0.108689
0.097970 0.097973 0.098417
0.131454 0.131838 0.132457
0.122101 0.122180 0.122585
0.176827 0.176297 0.176119
0.091490 0.091473 0.091150
0.158309 0.157925 0.157169
0.124852 0.125028 0.125899
0.126043 0.126506 0.126597
0.100344 0.100598 0.100758
0.095018 0.095069 0.096528
0.144203 0.144220 0.143708
0.097973 0.098342 0.099680
0.091953 0.091315 0.091280
0.116809 0.118572 0.118519
0.100484 0.100640 0.100281
0.118264 0.117384 0.109817
0.132287 0.133481 0.134036
0.094996 0.094991 0.095315
0.093227 0.093525 0.093417
0.131724 0.131853 0.131973
0.085323 0.085215 0.084889
0.089335 0.089873 0.089771
0.144423 0.145215 0.145478
0.103833 0.103753 0.105839
0.136641 0.132274 0.131994
0.107032 0.106869 0.105982
0.094021 0.094883 0.094623
0.096067 0.094736 0.084369
0.117824 0.118073 0.118419
0.156732 0.157793 0.157852
0.125467 0.125265 0.123949
0.100144 0.098959 0.097702
0.107683 0.107594 0.107649
0.105149 0.107475 0.107334
0.123342 0.123197 0.121795
0.095003 0.095154 0.094977
0.107513 0.107649 0.107595
0.099622 0.099918 0.100002
0.100810 0.100361 0.100375
0.107366 0.107322 0.107550
0.126961 0.126147 0.124049
0.109383 0.109125 0.108691
0.138029 0.137728 0.139010
0.103869 0.104808 0.105015
0.162359 0.163667 0.164574
0.156934 0.156994 0.156866
0.099637 0.099956 0.099063
0.146907 0.146884 0.146544
0.085792 0.088054 0.087751
0.160211 0.159688 0.158420
0.119160 0.118708 0.118045
0.091225 0.090363 0.090264
0.110464 0.110434 0.110854
0.121393 0.121309 0.120255
0.113248 0.113930 0.116015
0.155236 0.155375 0.155711
0.153120 0.152852 0.153265
0.113609 0.113163 0.113598
0.096926 0.096009 0.097275
0.096624 0.096624 0.096967
0.106179 0.108734 0.110606
0.110783 0.110420 0.109306
0.118856 0.118749 0.118903
0.126281 0.125636 0.125854
0.125842 0.127054 0.126873
0.126415 0.123993 0.125175
0.094249 0.094167 0.093899
0.153635 0.153159 0.153100
0.135598 0.137915 0.139337
0.129289 0.128869 0.128418
0.087144 0.088403 0.088635
0.128508 0.128125 0.128643
0.119258 0.119349 0.120602
0.118747 0.118903 0.118983
0.126306 0.125981 0.125828
0.130231 0.129844 0.124717
0.145407 0.145177 0.143226
0.126199 0.131231 0.131468
0.126998 0.128202 0.128150
0.116709 0.117460 0.117376
0.084582 0.083891 0.084941
0.115624 0.115440 0.115477
0.120792 0.121543 0.121934
0.101032 0.101832 0.101832
0.143659 0.142034 0.141891
0.099841 0.099172 0.099038
0.094686 0.094595 0.094667
0.102035 0.101860 0.101709
0.125559 0.124212 0.124205
0.120429 0.121389 0.120344
0.122870 0.126139 0.126794
0.108545 0.108687 0.108923
0.132437 0.131477 0.131297
0.084468 0.084151 0.083795
0.157406 0.156335 0.155192
0.106018 0.106191 0.106158
0.116456 0.116677 0.116456
0.115544 0.115480 0.115478
0.125837 0.127545 0.128284
0.123286 0.122611 0.122146
0.159795 0.159896 0.161389
0.111493 0.111481 0.111177
0.142643 0.142169 0.141741
0.129835 0.130338 0.130530
0.156579 0.156760 0.156564
0.114990 0.114005 0.113881
0.137125 0.136966 0.135957
0.123358 0.123077 0.122551
0.101094 0.100830 0.100640
0.099736 0.100032 0.100088
0.092977 0.091745 0.091178
0.114767 0.114363 0.113991
0.116242 0.114402 0.114041
0.132297 0.131349 0.131381
0.134731 0.135134 0.134666
0.127221 0.127141 0.126405
0.099461 0.099429 0.098798
0.083556 0.082856 0.082784
0.134895 0.134887 0.134686
0.103333 0.103394 0.103344
0.108032 0.107567 0.106998
0.101915 0.106587 0.107461
0.141972 0.142968 0.136464
0.095456 0.095207 0.097900
0.137453 0.137770 0.137902
0.123304 0.122530 0.120847
0.098540 0.098310 0.098870
0.085091 0.085194 0.085257
0.107296 0.106447 0.107178
0.134259 0.134378 0.134475
0.101414 0.102100 0.102759
0.105542 0.105205 0.106043
0.134224 0.134007 0.133182
0.119164 0.119489 0.118450
0.128305 0.125320 0.124936
0.137587 0.137425 0.137105
0.138351 0.136767 0.137169
0.140231 0.140587 0.140540
0.160265 0.160035 0.158125
0.133112 0.132712 0.133716
0.109837 0.110229 0.110296
0.145765 0.145966 0.145991
0.133203 0.132955 0.132810
0.107137 0.107257 0.109062
0.164983 0.164694 0.165087
0.134168 0.134940 0.135269
0.171527 0.171071 0.171088
0.150376 0.150109 0.148611
0.137811 0.145281 0.151915
0.126938 0.126029 0.126401
0.174683 0.170179 0.168747
0.097277 0.097522 0.097978
0.106449 0.107496 0.108061
0.119269 0.119048 0.117045
0.136026 0.135802 0.135708
0.121040 0.121117 0.121607
0.157793 0.157852 0.156081
0.105024 0.108408 0.109229
0.107226 0.111090 0.111227
0.133835 0.134048 0.134261
0.098427 0.098241 0.098272
0.105254 0.104460 0.104477
0.103855 0.104216 0.104627
0.132550 0.132687 0.132706
0.094418 0.093929 0.093661
0.148787 0.149319 0.150046
0.094432 0.094199 0.094762
0.157538 0.155690 0.154180
0.123311 0.124861 0.135166
0.157852 0.156081 0.154617
0.088505 0.087988 0.087447
0.103719 0.103772 0.103419
0.107913 0.107571 0.106775
0.085455 0.085066 0.084729
0.166065 0.166235 0.166579
0.112390 0.113115 0.113303
0.097538 0.097431 0.097769
0.094592 0.094360 0.094569
0.103779 0.103566 0.103911
0.102580 0.102172 0.101458
0.108689 0.108853 0.108811
0.122015 0.121445 0.121201
0.108094 0.106936 0.107052
0.086052 0.086114 0.085803
0.175568 0.175765 0.175730
0.086706 0.086221 0.086369
0.150107 0.150253 0.150824
0.082829 0.082801 0.081977
0.091856 0.092047 0.090797
0.116732 0.115491 0.115022
0.136505 0.136340 0.136010
0.103997 0.104498 0.104016
0.117573 0.107436 0.109359
0.135870 0.135932 0.135792
0.108837 0.110464 0.110434
0.124803 0.125859 0.127917
0.133695 0.134003 0.134153
0.105473 0.102348 0.101634
0.080288 0.080307 0.079778
0.121650 0.122351 0.125595
0.131865 0.131678 0.129640
0.105122 0.105327 0.105386
0.139084 0.139408 0.140354
0.130858 0.132109 0.132447
0.103452 0.103121 0.102824
0.105182 0.104339 0.104173
0.127106 0.125038 0.124766
0.155297 0.158734 0.158799
0.093006 0.092131 0.089110
0.099337 0.098583 0.098475
0.143248 0.144964 0.145059
0.128979 0.126681 0.126597
0.131901 0.132070 0.132257
0.128156 0.128221 0.128357
0.100708 0.101329 0.101274
0.105689 0.104532 0.104226
0.116713 0.115765 0.115507
0.092021 0.092322 0.092906
0.119919 0.119602 0.117990
0.111233 0.110993 0.110968
0.166527 0.166381 0.166056
0.102407 0.101811 0.101637
0.088084 0.087358 0.085283
0.141391 0.142827 0.143811
0.084872 0.086467 0.086736
0.109767 0.109341 0.108892
0.093276 0.093678 0.094165
0.083247 0.083466 0.083703
0.086971 0.086105 0.084926
0.122756 0.121664 0.121449
0.153624 0.153599 0.153473
0.130088 0.130003 0.129873
0.095409 0.094972 0.094633
0.099676 0.099685 0.099813
0.119875 0.120090 0.118017
0.137489 0.142238 0.142699
0.115064 0.114786 0.114550
0.145996 0.145854 0.141175
0.094883 0.094623 0.094375
0.091679 0.091726 0.091842
0.123813 0.123984 0.124181
0.126903 0.124088 0.117724
0.132091 0.132004 0.132534
0.098758 0.099095 0.100055
0.118545 0.116641 0.115412
0.082449 0.085065 0.085304
0.098686 0.099639 0.099919
0.121202 0.121182 0.120472
