0.071686 0.071762 0.072704
0.215050 0.215597 0.220092
0.042830 0.042869 0.042767
0.153017 0.153505 0.154296
0.097874 0.098707 0.099422
0.151714 0.150843 0.150853
0.168988 0.167164 0.165578
0.172509 0.172086 0.171857
0.052200 0.052256 0.052356
0.164387 0.164107 0.163854
0.045157 0.045845 0.045731
0.188152 0.188251 0.184988
0.052745 0.053260 0.053963
0.043155 0.043640 0.044273
0.098888 0.098685 0.098539
0.162264 0.161474 0.162738
0.072729 0.071468 0.069684
0.171793 0.173626 0.172458
0.076454 0.076463 0.076483
0.162974 0.162946 0.160638
0.061914 0.061911 0.061758
0.070592 0.070419 0.070298
0.047268 0.048202 0.048641
0.042672 0.042673 0.042569
0.046522 0.046469 0.046181
0.059728 0.059831 0.059939
0.086503 0.086634 0.086977
0.173321 0.167643 0.165342
0.166359 0.170282 0.172272
0.062725 0.062632 0.061885
0.085120 0.082980 0.083088
0.132502 0.132367 0.132417
0.037267 0.037228 0.037396
0.041780 0.041964 0.041864
0.174028 0.174270 0.174194
0.027680 0.027641 0.028338
0.050648 0.050475 0.050226
0.140465 0.146875 0.148731
0.165007 0.165764 0.166020
0.070158 0.070496 0.070809
0.060815 0.060126 0.056279
0.181793 0.181090 0.180961
0.145318 0.144026 0.143490
0.164807 0.163468 0.166393
0.072021 0.071690 0.071089
0.090235 0.090006 0.089954
0.048298 0.047733 0.047354
0.135453 0.135290 0.134756
0.044210 0.044263 0.044139
0.136527 0.136657 0.135811
0.055317 0.055182 0.054941
0.060918 0.061117 0.061296
0.083385 0.083042 0.083832
0.053448 0.053315 0.052751
0.054988 0.054922 0.054690
0.055627 0.054776 0.054754
0.158975 0.175417 0.191238
0.124688 0.124817 0.124498
0.055602 0.055944 0.058508
0.088750 0.088379 0.088178
0.169810 0.170993 0.171076
0.202768 0.201356 0.203962
0.050669 0.050906 0.051782
0.044999 0.045587 0.047268
0.071918 0.071831 0.071872
0.152694 0.148494 0.148447
0.041304 0.041058 0.040947
0.111386 0.113745 0.124302
0.168320 0.163910 0.163627
0.075896 0.075206 0.076690
0.054922 0.054690 0.054900
0.029944 0.031396 0.031847
0.169698 0.170294 0.171094
0.164115 0.162610 0.162728
0.100969 0.101112 0.101180
0.043629 0.043833 0.043241
0.137151 0.137421 0.137407
0.093848 0.093987 0.094660
0.057648 0.057752 0.057858
0.161070 0.160725 0.161485
0.058093 0.058153 0.058156
0.115261 0.116573 0.118614
0.097801 0.097719 0.097707
0.100618 0.101664 0.102319
0.060966 0.060992 0.060843
0.206370 0.206897 0.207461
0.148839 0.148802 0.148589
0.084621 0.084853 0.084893
0.168445 0.169109 0.168894
0.177650 0.176134 0.175447
0.062538 0.062477 0.062515
0.194805 0.195000 0.194773
0.162321 0.162744 0.170518
0.190806 0.191406 0.191543
0.112951 0.112867 0.112785
0.039053 0.039148 0.039194
0.133882 0.134642 0.135074
0.082928 0.084689 0.084973
0.183002 0.183230 0.183497
0.049046 0.048960 0.047894
0.051645 0.051603 0.051584
0.049146 0.048758 0.048931
0.160817 0.162142 0.162431
0.085090 0.084898 0.084487
0.052317 0.052396 0.051952
0.161840 0.159953 0.159901
0.046327 0.046142 0.044869
0.047567 0.047596 0.047729
0.144944 0.144662 0.144047
0.095910 0.095530 0.095449
0.063549 0.063478 0.063476
0.038314 0.038120 0.038164
0.164513 0.164408 0.164419
0.050382 0.050511 0.050530
0.046362 0.046161 0.045916
0.164885 0.166803 0.167102
0.152503 0.150069 0.149462
0.145195 0.145514 0.142293
0.094739 0.094812 0.094915
0.179563 0.179714 0.179662
0.189226 0.188329 0.187776
0.146947 0.145434 0.147780
0.144505 0.144036 0.140566
0.047350 0.047445 0.047470
0.207840 0.204714 0.204461
0.049751 0.049800 0.049765
0.059618 0.059362 0.059112
0.052465 0.050906 0.050725
0.039160 0.038977 0.038716
0.046406 0.046140 0.046142
0.189362 0.189423 0.189419
0.136884 0.136981 0.137251
0.195740 0.195842 0.195876
0.091563 0.092245 0.092292
0.166566 0.165503 0.165422
0.198569 0.204795 0.203890
0.158350 0.161858 0.159520
0.059544 0.059258 0.056891
0.182491 0.183881 0.186569
0.091387 0.090290 0.085361
0.045064 0.045214 0.045167
0.033285 0.033568 0.033589
0.136722 0.135784 0.135577
0.150069 0.149462 0.148791
0.049994 0.050887 0.051371
0.040086 0.039842 0.039458
0.069371 0.069652 0.070050
0.076843 0.076857 0.076770
0.082205 0.081665 0.081713
0.071089 0.070713 0.070752
0.053960 0.053762 0.053737
0.055990 0.056568 0.055870
0.115511 0.116824 0.116432
0.159456 0.163714 0.169560
0.049941 0.049781 0.051354
0.189720 0.189450 0.190357
0.047467 0.047466 0.047314
0.096868 0.097044 0.097105
0.062523 0.062668 0.063184
0.057983 0.058129 0.058290
0.159531 0.159658 0.159819
0.054519 0.053935 0.055185
0.164100 0.162327 0.162041
0.040615 0.040632 0.040886
0.060352 0.059956 0.060111
0.207461 0.208380 0.207934
0.072511 0.072156 0.072151
0.076615 0.076524 0.076142
0.038547 0.038621 0.038818
0.073611 0.073131 0.072196
0.084713 0.084402 0.084608
0.083471 0.083269 0.083056
0.166087 0.166064 0.166102
0.166893 0.165773 0.166071
0.070374 0.071359 0.072701
0.082160 0.082188 0.081649
0.162580 0.162379 0.161650
0.171647 0.171982 0.171516
0.175263 0.175736 0.175754
0.063115 0.062245 0.061833
0.114621 0.113812 0.113127
0.111722 0.107318 0.106913
0.112562 0.112862 0.113350
0.060958 0.061112 0.061724
0.046541 0.046830 0.047595
0.050063 0.050307 0.050559
0.054998 0.054440 0.054576
0.109537 0.109027 0.107183
0.038477 0.038713 0.038913
0.187196 0.186832 0.187011
0.129902 0.129461 0.128259
0.083947 0.084414 0.085234
0.134879 0.134804 0.134172
0.137162 0.137339 0.137310
0.161993 0.160592 0.160033
0.044460 0.044456 0.044296
0.168102 0.166522 0.166267
0.062555 0.062482 0.062516
0.060536 0.060503 0.060336
0.040124 0.040101 0.039982
0.152987 0.153015 0.153314
0.189837 0.188168 0.187905
0.202328 0.195469 0.195257
0.130921 0.130930 0.130873
0.060366 0.060283 0.060297
0.035740 0.035740 0.035736
0.035533 0.035476 0.035552
0.036028 0.036380 0.036795
0.041042 0.040851 0.040416
0.160207 0.156850 0.155656
0.137986 0.137958 0.137151
0.178539 0.178492 0.179024
0.181463 0.181605 0.180841
0.159707 0.159766 0.160171
0.070279 0.070166 0.070582
0.042653 0.042560 0.042056
0.077228 0.077419 0.077293
0.130517 0.129673 0.132650
0.089535 0.090119 0.090887
0.180610 0.180884 0.181865
0.158958 0.159040 0.159255
0.166658 0.166575 0.167324
0.162586 0.162439 0.161658
0.151524 0.151839 0.152000
0.191419 0.191240 0.191806
0.050875 0.050262 0.048449
0.174558 0.175297 0.175993
0.074163 0.074286 0.074355
0.192592 0.192156 0.192072
0.047225 0.047099 0.046456
0.042491 0.042226 0.041386
0.119826 0.116494 0.110824
0.098537 0.099570 0.098251
0.168874 0.173179 0.173584
0.044470 0.044492 0.044478
0.177437 0.176979 0.176938
0.121098 0.120446 0.120399
0.166371 0.162155 0.162116
0.053030 0.052606 0.052647
0.064342 0.064582 0.064604
0.050360 0.050986 0.051444
0.049723 0.049817 0.049832
0.186665 0.186836 0.186756
0.175482 0.179578 0.183154
0.117103 0.117097 0.117072
0.063457 0.063492 0.064208
0.177575 0.177556 0.180398
0.091133 0.091535 0.093287
0.071159 0.071542 0.072495
0.052313 0.052315 0.052301
0.175665 0.168239 0.166570
0.088478 0.089413 0.089669
0.049068 0.049349 0.049155
0.041881 0.041637 0.041208
0.191933 0.191115 0.189611
0.059253 0.059469 0.061104
0.044331 0.045612 0.045743
0.097721 0.095238 0.094368
0.059452 0.059711 0.059890
0.069932 0.069679 0.069602
0.178079 0.177940 0.177780
0.061911 0.061758 0.061556
0.069477 0.068963 0.069129
0.148984 0.149287 0.149160
0.051563 0.050645 0.050343
0.124862 0.124684 0.124769
0.158352 0.158011 0.157097
0.206881 0.207479 0.208302
0.183401 0.183598 0.183797
0.116837 0.116274 0.116250
0.194346 0.194364 0.194654
0.201111 0.201480 0.200415
0.049848 0.049832 0.050032
0.144878 0.145748 0.144727
0.049584 0.050425 0.050677
0.041325 0.041311 0.041233
0.073063 0.073226 0.074056
0.125035 0.121712 0.120661
0.164253 0.163561 0.162326
0.040740 0.040742 0.040724
0.191062 0.189569 0.188811
0.174855 0.174634 0.174833
0.058884 0.059842 0.060838
0.056579 0.056680 0.057258
0.158068 0.157594 0.158198
0.198465 0.198469 0.197651
0.108227 0.108290 0.107810
0.045764 0.047267 0.048489
0.150992 0.151200 0.150857
0.041804 0.041918 0.042423
0.048950 0.048971 0.048951
0.055556 0.055766 0.056191
0.055303 0.055068 0.054843
0.088594 0.085095 0.086154
0.138455 0.138120 0.137941
0.173260 0.173301 0.173042
0.052040 0.051589 0.051143
0.140694 0.147465 0.149689
0.061657 0.062061 0.063819
0.161187 0.162265 0.162422
0.186502 0.188802 0.188097
0.088618 0.088489 0.088221
0.050181 0.050258 0.050193
0.086579 0.086018 0.085960
0.040884 0.040843 0.040879
0.165523 0.165376 0.165236
0.137016 0.137168 0.137166
0.086816 0.086799 0.086789
0.170972 0.171972 0.172774
0.188144 0.188075 0.188292
0.072124 0.073236 0.073933
0.058228 0.058361 0.058309
0.117635 0.117534 0.117643
0.164554 0.164825 0.165164
0.042773 0.042779 0.042745
0.041248 0.040879 0.040901
0.167401 0.167477 0.171462
0.157150 0.158397 0.159397
0.070669 0.071210 0.071195
0.064558 0.064623 0.063175
0.052775 0.052833 0.052844
0.094615 0.094646 0.094725
0.066278 0.069270 0.070251
0.043418 0.043270 0.043277
0.045931 0.046364 0.046225
0.114739 0.114769 0.115231
0.053307 0.053220 0.053226
0.048960 0.047894 0.048041
0.114376 0.115880 0.115645
0.223282 0.226630 0.227171
0.073501 0.073480 0.073454
0.039947 0.040008 0.040370
0.060797 0.060808 0.060955
0.159617 0.159325 0.158431
0.191491 0.194223 0.195977
0.178475 0.182245 0.185785
0.051652 0.052175 0.052248
0.083071 0.083064 0.083071
0.060401 0.059895 0.059386
0.191488 0.194531 0.193758
0.041417 0.041212 0.041011
0.092603 0.093300 0.095957
0.194439 0.196598 0.197122
0.050106 0.050082 0.050691
0.174317 0.174402 0.177437
0.064647 0.064785 0.064737
0.115537 0.115720 0.115483
0.157427 0.156685 0.155863
0.156747 0.156496 0.156815
0.176350 0.178316 0.177793
0.194913 0.194474 0.192355
0.032568 0.033564 0.034708
0.142899 0.142384 0.142139
0.139474 0.139259 0.138381
0.127537 0.125403 0.121501
0.157383 0.160145 0.165970
0.051741 0.049002 0.048622
0.126931 0.127936 0.128169
0.188755 0.188328 0.188287
0.091085 0.090981 0.088689
0.050598 0.050254 0.050048
0.055915 0.055823 0.055714
0.049001 0.049438 0.050012
0.135074 0.144046 0.150346
0.071919 0.072109 0.072760
0.169145 0.169181 0.169041
0.129695 0.130461 0.130958
0.128543 0.127830 0.125585
0.137028 0.136406 0.134256
0.167651 0.155378 0.154835
0.043494 0.044652 0.044637
0.072000 0.074513 0.075322
0.172801 0.172602 0.173533
0.150619 0.149579 0.149186
0.146526 0.146330 0.147136
0.153230 0.150715 0.150305
0.058996 0.061012 0.061715
0.169139 0.169409 0.170424
0.090446 0.090368 0.090211
0.093113 0.092858 0.092121
0.162026 0.162155 0.159701
0.153235 0.147032 0.146051
0.182103 0.182082 0.182086
0.188892 0.188879 0.188656
0.143522 0.144805 0.146392
0.162458 0.162038 0.161704
0.060133 0.060136 0.059996
0.084140 0.084083 0.083934
0.093978 0.093822 0.093519
0.049609 0.049384 0.049311
0.165632 0.164124 0.159434
0.189199 0.189703 0.189715
0.056924 0.056867 0.056851
0.039820 0.039863 0.040484
0.070002 0.070049 0.069299
0.064623 0.063175 0.062343
0.165190 0.164911 0.164180
0.053250 0.052633 0.052286
0.110688 0.109680 0.109221
0.052071 0.051721 0.051527
0.089413 0.089669 0.090173
0.157819 0.157609 0.158068
0.044443 0.044838 0.050042
0.127370 0.125059 0.126144
0.177030 0.177614 0.178091
0.043836 0.043927 0.044221
0.140814 0.140223 0.138578
0.162592 0.162458 0.162038
0.115651 0.116221 0.116470
0.159177 0.156894 0.158947
0.061891 0.061627 0.061468
0.064397 0.064415 0.064590
0.103543 0.099077 0.100607
0.045880 0.046062 0.046091
0.054998 0.054547 0.052905
0.041017 0.041076 0.040456
0.136997 0.138561 0.138154
0.161024 0.159332 0.157848
0.116573 0.118614 0.120187
0.058865 0.059008 0.059253
0.060090 0.060138 0.060475
0.189629 0.190038 0.186891
0.087465 0.088079 0.088354
0.051551 0.052462 0.052882
0.039525 0.039568 0.040235
0.181909 0.197771 0.200425
0.208594 0.207788 0.207968
0.100385 0.100315 0.099205
0.066947 0.067000 0.067084
0.196945 0.194493 0.192584
0.157899 0.158133 0.158069
0.137050 0.137185 0.137119
0.110857 0.113486 0.122867
0.039192 0.039129 0.038845
0.061683 0.062534 0.064002
0.039455 0.039135 0.040948
0.107298 0.107326 0.107743
0.167869 0.168557 0.169134
0.040081 0.040102 0.040083
0.164340 0.164453 0.166287
0.078561 0.087230 0.088990
0.141243 0.142001 0.144041
0.097572 0.097573 0.097795
0.116444 0.116471 0.116127
0.142760 0.141933 0.142251
0.070673 0.070354 0.070365
0.146150 0.146987 0.148461
0.088388 0.088799 0.089642
0.161246 0.162100 0.162250
0.147153 0.146077 0.145950
0.084981 0.084587 0.084517
0.156814 0.153363 0.152785
0.098431 0.099058 0.099385
0.065494 0.066806 0.066963
0.199696 0.198548 0.197667
0.090446 0.089664 0.089069
0.071617 0.071581 0.071531
0.206897 0.207461 0.208380
0.043871 0.046515 0.047512
0.052806 0.053422 0.053618
0.071200 0.071629 0.071670
0.133119 0.132800 0.132736
0.174946 0.174888 0.175773
0.116740 0.120860 0.122002
0.073540 0.071980 0.071880
0.194350 0.193841 0.192356
0.038595 0.038681 0.040632
0.152322 0.152260 0.152117
0.171179 0.171303 0.169543
0.046225 0.046537 0.046710
0.065989 0.066616 0.068065
0.168818 0.167525 0.168709
0.088572 0.088930 0.088739
0.177492 0.177063 0.176809
0.054030 0.054122 0.054322
0.048990 0.047803 0.046811
0.115594 0.114715 0.114561
0.041822 0.041762 0.041649
0.152062 0.155630 0.155920
0.033449 0.033571 0.033698
0.087660 0.087393 0.087347
0.196496 0.197245 0.196910
0.055295 0.055550 0.056509
0.040898 0.041076 0.041156
0.057693 0.057785 0.057861
0.063991 0.063855 0.060569
0.055091 0.054988 0.055022
0.072407 0.072342 0.072433
0.059563 0.059431 0.059434
0.208848 0.198245 0.196357
0.183399 0.183581 0.183833
0.189864 0.189837 0.188168
0.182098 0.181575 0.181900
0.157619 0.160599 0.158391
0.188473 0.188993 0.194911
0.103172 0.104189 0.105308
0.075228 0.075855 0.078460
0.075114 0.075262 0.075421
0.118709 0.119031 0.119933
0.060858 0.060367 0.060101
0.127639 0.127114 0.126973
0.038855 0.038575 0.038659
0.053725 0.053334 0.053014
0.084050 0.080355 0.075703
0.040380 0.039809 0.040190
0.059525 0.059154 0.059359
0.060631 0.060687 0.060720
0.041654 0.041154 0.041471
0.091108 0.092320 0.095451
0.166353 0.166658 0.166575
0.045065 0.045216 0.045166
0.160612 0.161339 0.161339
0.053487 0.052648 0.050283
0.104816 0.104634 0.104298
0.040821 0.040756 0.040641
0.184261 0.184322 0.184896
0.038514 0.038234 0.035855
0.054943 0.055085 0.055255
0.182159 0.180217 0.180779
0.097448 0.097410 0.097957
0.041286 0.041919 0.042120
0.072369 0.072008 0.071405
0.060822 0.060840 0.060667
0.059942 0.060338 0.061094
0.163431 0.166225 0.165049
0.182165 0.183108 0.183942
0.156744 0.157562 0.158711
0.053502 0.053595 0.053587
0.042739 0.042762 0.043059
0.136196 0.135430 0.134962
0.188839 0.189106 0.188044
0.199388 0.199383 0.199315
0.165631 0.163562 0.161928
0.060232 0.058077 0.057350
0.062967 0.060949 0.060674
0.193469 0.191976 0.189941
0.050467 0.051385 0.052010
0.036103 0.036393 0.036849
0.073944 0.073611 0.073525
0.147266 0.151147 0.158325
0.050075 0.050295 0.050276
0.146392 0.147262 0.147088
0.048556 0.048576 0.048564
0.052088 0.052315 0.052320
0.205593 0.201835 0.203622
0.059802 0.059716 0.059813
0.041232 0.041254 0.041231
0.138510 0.136869 0.136865
0.089905 0.089934 0.090024
0.059442 0.057945 0.058290
0.068940 0.068658 0.068583
0.177393 0.177974 0.178185
0.074105 0.074110 0.073860
0.102023 0.102601 0.102951
0.090042 0.090169 0.090498
0.087583 0.085255 0.083109
0.177814 0.178654 0.179830
0.137405 0.135183 0.135203
0.035760 0.035749 0.035637
0.063241 0.062968 0.062810
0.150893 0.151722 0.152156
0.128379 0.129660 0.130229
0.129984 0.129484 0.128584
0.071731 0.071593 0.071541
0.066195 0.067454 0.071716
0.144073 0.145165 0.144849
0.055295 0.056180 0.056533
0.045870 0.045698 0.046051
0.135199 0.135072 0.133505
0.046638 0.046624 0.046532
0.148296 0.147572 0.148515
0.093650 0.093425 0.093175
0.063350 0.065086 0.065417
0.039301 0.039320 0.039215
0.048947 0.048967 0.048946
0.156945 0.156270 0.155986
0.036827 0.037025 0.037222
0.219119 0.216703 0.216586
0.038957 0.039197 0.039301
0.039642 0.039416 0.039029
0.067164 0.065349 0.064710
0.157222 0.159354 0.160008
0.054770 0.055573 0.055609
0.061595 0.064494 0.064722
0.149576 0.150155 0.149939
0.181101 0.180796 0.181844
0.050970 0.051389 0.051753
0.090981 0.088689 0.085364
0.059732 0.059619 0.059614
0.073938 0.073783 0.073260
0.162318 0.162400 0.160508
0.067294 0.067478 0.068120
0.123312 0.122946 0.122761
0.039780 0.039846 0.040467
0.190764 0.192849 0.194586
0.080624 0.080957 0.081643
0.041273 0.040418 0.040343
0.089243 0.089181 0.089727
0.117440 0.115141 0.116654
0.040851 0.040416 0.040348
0.048041 0.048199 0.048203
0.133696 0.133871 0.133144
0.191564 0.191068 0.192036
0.060802 0.060831 0.060678
0.043337 0.046644 0.047462
0.032123 0.032124 0.031829
0.139487 0.139014 0.139254
0.181212 0.176126 0.175848
0.172908 0.172968 0.173283
0.060813 0.060866 0.061083
0.050556 0.050736 0.050762
0.109181 0.107123 0.106341
0.068677 0.068586 0.068767
0.065913 0.065991 0.065459
0.041206 0.041082 0.041542
0.056654 0.056682 0.056865
0.037225 0.037403 0.038205
0.119587 0.121216 0.118919
0.088475 0.088570 0.088876
0.065933 0.065823 0.065866
0.090360 0.090151 0.088445
0.067180 0.067521 0.067254
0.099498 0.099164 0.098731
0.038593 0.038672 0.038948
0.105256 0.104640 0.104403
0.154545 0.155849 0.160479
0.038623 0.038624 0.038617
0.175709 0.175209 0.175035
0.149251 0.148634 0.148636
0.193679 0.195619 0.196640
0.046194 0.044831 0.044147
0.070325 0.070451 0.070414
0.036140 0.036199 0.036430
0.203095 0.202118 0.202124
0.210536 0.209095 0.210094
0.176672 0.173985 0.170642
0.188714 0.187636 0.183190
0.162873 0.163463 0.165816
0.187554 0.186742 0.183853
0.053328 0.053316 0.052931
0.176825 0.176860 0.177599
0.146336 0.146302 0.147275
0.203858 0.204133 0.204133
0.106748 0.107121 0.107635
0.040661 0.040376 0.040102
0.162944 0.163122 0.163235
0.083997 0.082382 0.082469
0.127429 0.128594 0.130218
0.151793 0.151977 0.152627
0.174650 0.174899 0.175243
0.090139 0.089996 0.089929
0.161797 0.162297 0.158392
0.064621 0.064534 0.064504
0.070269 0.070452 0.070576
0.134542 0.134833 0.134794
0.070441 0.068358 0.070394
0.168669 0.168629 0.168533
0.081282 0.081249 0.081209
0.039674 0.039903 0.039925
0.064268 0.063872 0.064317
0.134614 0.134982 0.135802
0.042594 0.043241 0.043848
0.067497 0.067745 0.067986
0.064815 0.064942 0.064841
0.042676 0.043583 0.043808
0.138559 0.138330 0.137511
0.176645 0.177913 0.181450
0.087284 0.087347 0.086086
0.056243 0.049617 0.048643
0.118737 0.119340 0.119275
0.044162 0.043567 0.043844
0.118734 0.118079 0.116034
0.099744 0.099952 0.100215
0.214351 0.214467 0.214412
0.120017 0.118778 0.114910
0.045909 0.045977 0.046203
0.152340 0.152371 0.152246
0.060171 0.060107 0.060476
0.076610 0.076504 0.076116
0.071879 0.072021 0.072011
0.059854 0.059733 0.059706
0.060198 0.060296 0.059897
0.168872 0.168926 0.169756
0.067098 0.067171 0.066913
0.129684 0.129471 0.129648
0.084775 0.084898 0.084832
0.073772 0.073614 0.073531
0.074730 0.074634 0.074461
0.209219 0.209851 0.206285
0.058195 0.058101 0.058135
0.047504 0.047300 0.047070
0.149656 0.149577 0.151254
0.171381 0.171254 0.178769
0.192183 0.192002 0.191936
0.175813 0.175758 0.175697
0.072151 0.072120 0.072145
0.048441 0.047889 0.047362
0.060365 0.061819 0.061839
0.040031 0.040540 0.041215
0.161705 0.160289 0.160693
0.158163 0.158019 0.158030
0.056573 0.056570 0.056575
0.067004 0.066913 0.066935
0.089204 0.089443 0.089764
0.192190 0.189213 0.189604
0.054741 0.054511 0.054813
0.045879 0.046528 0.046949
0.153043 0.153017 0.153505
0.121494 0.119173 0.118691
0.132230 0.132469 0.132965
0.200874 0.200895 0.201018
0.049832 0.050032 0.050049
0.091218 0.090887 0.090495
0.075689 0.075739 0.075892
0.069135 0.069625 0.069994
0.096449 0.096201 0.096949
0.173118 0.173649 0.175382
0.107476 0.107478 0.107545
0.063425 0.063411 0.065691
0.099804 0.099875 0.099846
0.050962 0.050769 0.050204
0.154842 0.154447 0.153621
0.056920 0.057107 0.057131
0.125108 0.127817 0.128086
0.177963 0.178433 0.179309
0.038384 0.037845 0.037765
0.182451 0.183810 0.184099
0.116102 0.116338 0.115689
0.158509 0.158395 0.158707
0.074065 0.073729 0.073548
0.044979 0.044889 0.044809
0.035614 0.035724 0.036517
0.088312 0.087476 0.087038
0.122132 0.122694 0.123321
0.050887 0.051371 0.052477
0.039237 0.039045 0.038803
0.060275 0.060242 0.060442
0.175348 0.177599 0.178486
0.052073 0.051964 0.051193
0.156835 0.155924 0.155007
0.128469 0.127309 0.121017
0.156912 0.156113 0.155777
0.049475 0.049435 0.050111
0.050725 0.050395 0.049660
0.164521 0.162986 0.162756
0.167036 0.168308 0.168898
0.050673 0.050726 0.051033
0.046447 0.047778 0.049615
0.059764 0.060116 0.059981
0.179376 0.181371 0.183910
0.044024 0.044129 0.044266
0.086079 0.085934 0.085771
0.065050 0.065021 0.064688
0.152486 0.152490 0.152482
0.108165 0.105744 0.104817
0.185224 0.185663 0.186079
0.062167 0.061526 0.060787
0.131886 0.131883 0.131458
0.149024 0.148002 0.148244
0.048801 0.048731 0.048800
0.061717 0.061580 0.061885
0.178127 0.177820 0.177780
0.171251 0.172018 0.176207
0.117076 0.117094 0.117029
0.064542 0.064582 0.064942
0.058400 0.057196 0.057169
0.060952 0.060834 0.060392
0.184586 0.182197 0.182550
0.149274 0.149157 0.149193
0.046101 0.045906 0.047826
0.069824 0.070907 0.071049
0.089389 0.089208 0.089279
0.152855 0.150154 0.150775
0.103241 0.104005 0.107001
0.048198 0.048114 0.048430
0.113105 0.114058 0.114208
0.059610 0.059597 0.059583
0.150150 0.151888 0.153376
0.068798 0.064685 0.062758
0.145076 0.144618 0.144686
0.098978 0.099897 0.100207
0.209022 0.210459 0.210167
0.130566 0.130303 0.130064
0.061589 0.061546 0.061375
0.076490 0.075637 0.075084
0.102012 0.102383 0.102856
0.164612 0.164464 0.164406
0.068697 0.068953 0.071877
0.119450 0.119443 0.120362
0.039104 0.039145 0.039193
0.153976 0.152960 0.152612
0.042709 0.042859 0.042822
0.213390 0.213706 0.214036
0.215092 0.220005 0.220862
0.150396 0.150928 0.151626
0.152057 0.152540 0.153100
0.198891 0.198107 0.197216
0.054543 0.056823 0.057689
0.155924 0.155508 0.155361
0.048680 0.047949 0.047583
0.097093 0.097170 0.096955
0.072993 0.073233 0.073839
0.156931 0.156443 0.156043
0.139823 0.134826 0.127266
0.187592 0.187489 0.187033
0.052980 0.052973 0.052794
0.189601 0.189545 0.189503
0.190283 0.188901 0.188755
0.117076 0.117131 0.117228
0.170913 0.169993 0.169858
0.176615 0.182221 0.175505
0.120399 0.118078 0.115603
0.182524 0.182410 0.182208
0.154687 0.156914 0.160029
0.170053 0.167589 0.168943
0.066114 0.065796 0.064916
0.132344 0.133431 0.134181
0.038990 0.038925 0.038859
0.060685 0.060608 0.060676
0.053304 0.053226 0.053016
0.039559 0.039604 0.039778
0.094815 0.094782 0.094753
0.084284 0.084047 0.083586
0.168914 0.169145 0.169550
0.135195 0.134635 0.134117
0.045039 0.050714 0.050631
0.181926 0.182130 0.181734
0.188944 0.189362 0.189423
0.181966 0.182469 0.182350
0.128751 0.128384 0.129836
0.197733 0.197409 0.196616
0.070451 0.070414 0.070436
0.147715 0.147512 0.146928
0.220618 0.220670 0.220672
0.053243 0.053549 0.054203
0.055310 0.055275 0.054680
0.093493 0.092648 0.092689
0.034687 0.034815 0.035112
0.098597 0.099398 0.098039
0.136054 0.135518 0.135285
0.100195 0.100235 0.100228
0.076615 0.076858 0.076819
0.100915 0.100984 0.101164
0.159466 0.159520 0.159460
0.150486 0.150449 0.150517
0.174186 0.175236 0.175524
0.067680 0.067474 0.067441
0.154609 0.154669 0.153211
0.094458 0.093008 0.092880
0.156531 0.156603 0.156694
0.175256 0.174302 0.174723
0.049975 0.052772 0.053448
0.200077 0.199902 0.199563
0.193758 0.192330 0.191319
0.052026 0.051967 0.051672
0.145687 0.147712 0.149438
0.050148 0.050063 0.050203
0.134050 0.133698 0.133785
0.100429 0.100672 0.101974
0.143756 0.143741 0.144161
0.050969 0.050959 0.051041
0.056323 0.054725 0.052114
0.071542 0.071839 0.071683
0.047597 0.047275 0.047298
0.115903 0.115967 0.116130
0.037848 0.037791 0.037197
0.035637 0.035506 0.035536
0.088451 0.087810 0.087248
0.042742 0.042750 0.042736
0.162439 0.161658 0.161388
0.117072 0.117070 0.117307
0.050158 0.050048 0.049974
0.059638 0.059340 0.059616
0.177242 0.178149 0.178552
0.133477 0.136077 0.136809
0.117749 0.116992 0.116567
0.066970 0.065745 0.064722
0.114105 0.114228 0.114243
0.160415 0.161671 0.161893
0.180527 0.190440 0.191439
0.143379 0.151994 0.150977
0.050035 0.050957 0.051205
0.047655 0.047722 0.047632
0.049051 0.049114 0.049371
0.059595 0.058072 0.057952
0.198024 0.197257 0.197280
0.142766 0.139685 0.135126
0.153993 0.155607 0.155630
0.068246 0.068528 0.068927
0.156564 0.156212 0.156048
0.075684 0.078440 0.081320
0.182208 0.181992 0.181791
0.152808 0.153212 0.153372
0.047417 0.047207 0.046255
0.147900 0.147859 0.146135
0.201039 0.200873 0.201151
0.057185 0.057456 0.057926
0.148453 0.148050 0.147992
0.135459 0.133755 0.132995
0.116624 0.116929 0.118382
0.031557 0.032150 0.031918
0.157023 0.156544 0.156014
0.162608 0.161717 0.162428
0.061863 0.062104 0.061999
0.043274 0.043629 0.043833
0.089526 0.091108 0.092320
0.114918 0.115444 0.115586
0.184070 0.184583 0.186031
0.186999 0.187148 0.187363
0.184100 0.184238 0.184390
0.210097 0.209899 0.208832
0.099579 0.100733 0.104657
0.039238 0.039417 0.039188
0.158404 0.158664 0.158323
0.153177 0.150794 0.149545
0.162998 0.163136 0.163323
0.220449 0.220444 0.220511
0.051797 0.051937 0.052081
0.046537 0.046710 0.047516
0.049020 0.048950 0.049744
0.049390 0.048809 0.048441
0.074705 0.074574 0.073258
0.103291 0.104353 0.107559
0.163224 0.165063 0.168138
0.200161 0.199986 0.199804
0.030759 0.029605 0.029470
0.046117 0.046090 0.046118
0.065475 0.066587 0.068041
0.066459 0.067411 0.067263
0.048463 0.047479 0.046248
0.040652 0.040529 0.040485
0.198412 0.193157 0.192172
0.171303 0.169543 0.169525
0.162394 0.158918 0.154759
0.064909 0.062746 0.062641
0.054690 0.054900 0.055107
0.132369 0.132403 0.132379
0.160338 0.160657 0.160966
0.051795 0.051897 0.052083
0.198776 0.199854 0.201131
0.050290 0.050103 0.049901
0.148129 0.149211 0.151229
0.176979 0.176938 0.176917
0.198424 0.198526 0.197790
0.070022 0.070214 0.071035
0.050231 0.050043 0.050707
0.184070 0.184263 0.184111
0.099395 0.099854 0.100471
0.088619 0.088388 0.088799
0.132388 0.132403 0.131987
0.069373 0.069405 0.069424
0.110064 0.109972 0.110499
0.071723 0.071732 0.071669
0.128193 0.125156 0.126931
0.209673 0.208916 0.207882
0.046129 0.046147 0.046226
0.149364 0.151690 0.153638
0.059569 0.059521 0.059191
0.159921 0.160734 0.161686
0.137895 0.138762 0.136298
0.152159 0.146947 0.145434
0.058393 0.058241 0.058218
0.099647 0.099078 0.098842
0.042854 0.042850 0.043063
0.069980 0.069943 0.069841
0.095814 0.096187 0.096399
0.041522 0.041522 0.042143
0.083202 0.083040 0.083009
0.049995 0.050013 0.050341
0.042798 0.043257 0.043017
0.074066 0.074091 0.074106
0.105463 0.105494 0.105275
0.050196 0.050088 0.049015
0.197777 0.197443 0.197367
0.158120 0.156699 0.155614
0.153460 0.151801 0.151895
0.042677 0.042575 0.042105
0.184050 0.191806 0.197068
0.090419 0.090427 0.090541
0.046521 0.046498 0.046254
0.187011 0.182491 0.182451
0.040609 0.040377 0.040369
0.148766 0.147077 0.144605
0.046454 0.046545 0.046500
0.055449 0.055384 0.055370
0.193627 0.193025 0.191674
0.137394 0.137028 0.136406
0.165183 0.169978 0.172480
0.050565 0.050530 0.050568
0.102036 0.102036 0.102023
0.172267 0.172340 0.173212
0.091269 0.088151 0.087819
0.101991 0.102015 0.101992
0.062441 0.063375 0.063188
0.093865 0.090036 0.089628
0.146579 0.146441 0.146289
0.130385 0.130025 0.129936
0.198135 0.190881 0.190529
0.061803 0.061829 0.061796
0.041762 0.041649 0.041697
