0.125315 0.125218 0.124428
0.073214 0.073475 0.074082
0.167100 0.167200 0.168362
0.120286 0.119765 0.119134
0.134429 0.134541 0.135351
0.083969 0.083976 0.083777
0.147998 0.148212 0.148348
0.109468 0.109493 0.109442
0.253470 0.253652 0.253755
0.141299 0.133686 0.132475
0.086866 0.086595 0.086846
0.131872 0.131143 0.131560
0.070699 0.070608 0.070595
0.105731 0.105417 0.106913
0.302454 0.302937 0.302966
0.118396 0.118594 0.118768
0.145952 0.146927 0.147648
0.162360 0.162556 0.162537
0.135951 0.135417 0.135404
0.123718 0.122627 0.123680
0.147863 0.148005 0.147935
0.228534 0.229083 0.233186
0.075541 0.075239 0.074912
0.207030 0.205407 0.203639
0.117715 0.115318 0.114879
0.164860 0.164907 0.165761
0.127701 0.127420 0.127284
0.178344 0.178357 0.179037
0.126412 0.126647 0.126243
0.102037 0.101744 0.101261
0.108878 0.110145 0.112268
0.139546 0.141220 0.142309
0.154475 0.151817 0.135216
0.132860 0.133548 0.135739
0.106590 0.103908 0.103996
0.215451 0.216164 0.216048
0.214433 0.216183 0.197341
0.112942 0.113169 0.113514
0.130731 0.130483 0.130702
0.224572 0.224578 0.224352
0.145814 0.145802 0.146810
0.198127 0.197968 0.198135
0.162217 0.161715 0.162162
0.094277 0.094060 0.094022
0.155598 0.158167 0.158090
0.170275 0.169542 0.168251
0.115880 0.113799 0.113663
0.138225 0.138167 0.138522
0.132942 0.132480 0.131762
0.159945 0.160490 0.160448
0.143939 0.143793 0.143660
0.130752 0.131598 0.132087
0.122610 0.121136 0.121202
0.164463 0.159942 0.159812
0.155106 0.159582 0.159827
0.121067 0.121146 0.122199
0.152095 0.151889 0.152392
0.137848 0.136937 0.135563
0.128711 0.131868 0.132128
0.151218 0.151204 0.150828
0.111993 0.109075 0.109550
0.134754 0.135037 0.135895
0.100416 0.100136 0.099300
0.102520 0.102821 0.102698
0.114698 0.114590 0.114037
0.133688 0.133279 0.134249
0.150245 0.150633 0.151452
0.241899 0.242158 0.242303
0.227794 0.227047 0.226389
0.144751 0.142674 0.142698
0.229075 0.228298 0.228250
0.141844 0.139497 0.138019
0.177425 0.176801 0.176388
0.095090 0.094188 0.094453
0.186788 0.186530 0.183222
0.126695 0.126864 0.126317
0.148871 0.149003 0.145939
0.107391 0.107940 0.107845
0.265584 0.264551 0.263404
0.131882 0.128749 0.131231
0.154678 0.155762 0.157191
0.138460 0.138207 0.137244
0.186238 0.185811 0.186065
0.127994 0.127106 0.127536
0.108958 0.109183 0.108387
0.144832 0.143567 0.143318
0.181592 0.180875 0.181319
0.104273 0.104668 0.104614
0.169037 0.159626 0.158974
0.167589 0.166686 0.167831
0.119259 0.119274 0.119529
0.182572 0.182995 0.180025
0.165593 0.163846 0.153039
0.127848 0.128213 0.128819
0.123384 0.118681 0.118915
0.105653 0.105798 0.105789
0.125867 0.117154 0.101550
0.136684 0.137703 0.138235
0.158090 0.156462 0.156563
0.154641 0.156039 0.155771
0.147306 0.147369 0.147591
0.127476 0.132934 0.133418
0.145494 0.144964 0.138140
0.127266 0.128054 0.146637
0.133807 0.133301 0.132912
0.161507 0.161120 0.159802
0.119669 0.119539 0.119079
0.115960 0.117570 0.117937
0.087762 0.088153 0.088615
0.135763 0.136082 0.137323
0.112210 0.114338 0.113809
0.106229 0.107063 0.107600
0.143268 0.142841 0.142010
0.203656 0.203603 0.203601
0.143247 0.143041 0.145228
0.225396 0.224912 0.214722
0.096385 0.097239 0.098925
0.112516 0.113323 0.113811
0.166597 0.166820 0.166892
0.168427 0.159428 0.159097
0.129804 0.130104 0.130178
0.111375 0.108777 0.108792
0.253288 0.253979 0.254873
0.137218 0.137975 0.137833
0.131412 0.129894 0.127110
0.212685 0.211055 0.210715
0.086085 0.085849 0.085691
0.163623 0.167133 0.165121
0.191763 0.189340 0.187031
0.156443 0.156362 0.156204
0.126196 0.126208 0.123318
0.081668 0.076705 0.077063
0.136287 0.136101 0.135699
0.123923 0.123855 0.123780
0.170088 0.170630 0.173524
0.116936 0.117245 0.117399
0.121630 0.121657 0.116970
0.077000 0.076459 0.076760
0.146606 0.146689 0.145306
0.191540 0.190895 0.190919
0.131673 0.126896 0.126453
0.163787 0.164106 0.162725
0.252613 0.252403 0.250936
0.112550 0.114883 0.114765
0.134935 0.134705 0.134555
0.139971 0.140358 0.140154
0.116747 0.116988 0.121897
0.124447 0.124306 0.122159
0.224616 0.225031 0.230162
0.143732 0.144210 0.144832
0.150958 0.152682 0.153443
0.170841 0.170728 0.170625
0.135362 0.134465 0.133127
0.241318 0.242183 0.238772
0.132819 0.131782 0.130899
0.118996 0.118990 0.119233
0.086555 0.085926 0.085423
0.218274 0.218590 0.220917
0.152628 0.152894 0.153026
0.138378 0.138867 0.140325
0.132163 0.132038 0.131806
0.097938 0.097688 0.098239
0.144357 0.144587 0.144982
0.122228 0.122480 0.122453
0.121742 0.120888 0.120389
0.141100 0.140575 0.140328
0.140684 0.143398 0.142702
0.123684 0.123405 0.122750
0.132431 0.132313 0.133135
0.125592 0.124894 0.124466
0.116363 0.116681 0.117755
0.145936 0.146022 0.145417
0.152079 0.152995 0.154076
0.155519 0.157168 0.156971
0.227601 0.228835 0.228161
0.211174 0.210852 0.210716
0.142724 0.143522 0.143541
0.146145 0.144614 0.144954
0.111168 0.111218 0.114200
0.119022 0.118749 0.117922
0.128553 0.128301 0.127525
0.097621 0.098056 0.098171
0.137700 0.142245 0.142495
0.114622 0.114833 0.114728
0.175257 0.175870 0.175978
0.105306 0.104877 0.105284
0.114081 0.113769 0.113632
0.138595 0.138870 0.139043
0.132062 0.131712 0.131220
0.108810 0.108297 0.108510
0.225126 0.224977 0.225424
0.179363 0.179485 0.180966
0.120955 0.120979 0.121056
0.145742 0.142400 0.143897
0.114510 0.114527 0.114343
0.232086 0.232295 0.232573
0.225745 0.225245 0.226220
0.129786 0.129245 0.129910
0.107482 0.108080 0.108232
0.186788 0.186602 0.186045
0.134730 0.134394 0.134268
0.114505 0.114221 0.113862
0.130619 0.121155 0.119740
0.188950 0.188295 0.186843
0.079368 0.078971 0.079174
0.106575 0.106211 0.106087
0.149434 0.149252 0.149109
0.131681 0.130146 0.130448
0.122083 0.122640 0.122582
0.151474 0.151789 0.151755
0.178117 0.175499 0.175448
0.119381 0.117949 0.118848
0.118244 0.118208 0.117538
0.121007 0.121013 0.120992
0.119737 0.120018 0.120743
0.114059 0.115115 0.121182
0.084240 0.084024 0.083986
0.136000 0.136855 0.136894
0.128350 0.128793 0.128930
0.157191 0.157445 0.157229
0.102139 0.102196 0.102213
0.098292 0.098927 0.098535
0.126801 0.126914 0.126206
0.178032 0.177894 0.178062
0.130300 0.131827 0.132092
0.155001 0.155356 0.156654
0.292952 0.293106 0.295632
0.145370 0.144718 0.145014
0.098681 0.098185 0.096046
0.140710 0.140386 0.140300
0.094129 0.093850 0.093637
0.100983 0.099745 0.099923
0.077600 0.077792 0.077674
0.170723 0.169417 0.165587
0.177791 0.178662 0.180429
0.118829 0.119153 0.118417
0.096141 0.096833 0.097253
0.149713 0.145724 0.143762
0.210475 0.210640 0.210895
0.165482 0.165600 0.165729
0.253909 0.266088 0.267063
0.125991 0.125249 0.123217
0.084231 0.084044 0.083574
0.290756 0.294479 0.294268
0.121354 0.121454 0.120887
0.080203 0.083539 0.083710
0.177794 0.177708 0.177823
0.098415 0.097947 0.097696
0.170485 0.170570 0.170840
0.121032 0.121125 0.120893
0.142780 0.143907 0.144159
0.203293 0.203706 0.202411
0.102866 0.102739 0.102926
0.129490 0.129309 0.129271
0.139403 0.139516 0.139810
0.123902 0.124441 0.124671
0.207465 0.206485 0.206689
0.248566 0.233438 0.229482
0.143276 0.143873 0.143499
0.208219 0.207726 0.206701
0.151659 0.151590 0.149105
0.157275 0.158784 0.162207
0.085186 0.085136 0.084958
0.148381 0.149016 0.148990
0.141208 0.140503 0.138583
0.178767 0.178179 0.178210
0.183800 0.178989 0.178029
0.152966 0.153133 0.153212
0.080513 0.080502 0.080689
0.148937 0.149352 0.152731
0.208871 0.208364 0.207887
0.125544 0.125037 0.125226
0.134178 0.134128 0.132161
0.143044 0.139825 0.140270
0.137116 0.137491 0.137654
0.093759 0.093415 0.093619
0.125437 0.121505 0.121136
0.112381 0.112904 0.112906
0.132480 0.131762 0.130583
0.119207 0.120734 0.126894
0.147091 0.147662 0.147834
0.138903 0.139457 0.139429
0.142281 0.141687 0.140548
0.112264 0.108864 0.108730
0.215009 0.214904 0.213631
0.095947 0.096257 0.096004
0.076822 0.076820 0.076994
0.114553 0.114779 0.114302
0.252917 0.252939 0.252659
0.113452 0.113476 0.113669
0.100031 0.099357 0.097398
0.085388 0.085283 0.085234
0.146818 0.146231 0.143509
0.080413 0.080482 0.080770
0.174629 0.172249 0.175188
0.100292 0.104945 0.105332
0.142031 0.141840 0.140181
0.228281 0.229233 0.227007
0.141837 0.137129 0.137469
0.150593 0.149736 0.149658
0.226548 0.229477 0.229861
0.199517 0.199793 0.200241
0.118789 0.118993 0.118963
0.089568 0.090423 0.090714
0.131676 0.132660 0.131263
0.167628 0.167708 0.167929
0.155970 0.155334 0.170692
0.148055 0.148223 0.148407
0.076768 0.077261 0.077645
0.109159 0.106232 0.104653
0.132432 0.132365 0.132809
0.118541 0.118625 0.118832
0.149322 0.136300 0.135376
0.129739 0.129966 0.130374
0.175722 0.175606 0.175892
0.125977 0.125910 0.127681
0.072492 0.073312 0.075634
0.140210 0.140722 0.146600
0.123107 0.122288 0.122221
0.154667 0.154501 0.153896
0.126924 0.126240 0.126628
0.136898 0.135992 0.135628
0.117510 0.116872 0.116280
0.151793 0.151691 0.151411
0.110938 0.110637 0.110581
0.127105 0.128559 0.128811
0.253317 0.253644 0.254596
0.125078 0.125175 0.125200
0.138885 0.141699 0.145444
0.129161 0.129152 0.128873
0.091450 0.091661 0.096075
0.149535 0.150193 0.150529
0.139335 0.139029 0.138617
0.075616 0.075577 0.075331
0.105086 0.104381 0.107456
0.103220 0.103205 0.102897
0.125901 0.126137 0.125332
0.121106 0.121147 0.121106
0.192819 0.193394 0.196880
0.121748 0.121784 0.122066
0.076311 0.075919 0.072138
0.136457 0.174240 0.195175
0.225893 0.225990 0.226018
0.140562 0.141081 0.140736
0.162902 0.162519 0.163173
0.108091 0.108523 0.108666
0.157821 0.160887 0.160930
0.122876 0.122911 0.123398
0.139814 0.139784 0.139743
0.145071 0.144993 0.138754
0.166054 0.165737 0.165536
0.069346 0.069424 0.069266
0.160489 0.162875 0.163479
0.081580 0.081619 0.081847
0.097626 0.098184 0.106112
0.132761 0.132693 0.132659
0.149317 0.149357 0.150666
0.077781 0.077999 0.077918
0.131721 0.131945 0.131987
0.142815 0.142313 0.142264
0.143797 0.144720 0.144366
0.118558 0.118700 0.118163
0.146216 0.145842 0.147905
0.077766 0.077146 0.077253
0.140447 0.140588 0.143385
0.114664 0.114689 0.114187
0.096212 0.101461 0.101746
0.133193 0.133981 0.135027
0.138387 0.138329 0.137731
0.106176 0.107087 0.101872
0.158361 0.157410 0.157912
0.139981 0.139169 0.139462
0.131720 0.131885 0.131953
0.135602 0.139314 0.139009
0.219465 0.219818 0.219936
0.123359 0.123723 0.123530
0.141807 0.141264 0.139913
0.110886 0.111049 0.115880
0.227222 0.227342 0.227168
0.100897 0.100479 0.100580
0.153362 0.158761 0.159226
0.162667 0.162538 0.162412
0.096694 0.097441 0.097609
0.126486 0.128116 0.128007
0.234045 0.233976 0.234512
0.163998 0.166302 0.165921
0.360705 0.360596 0.360189
0.138340 0.138415 0.139733
0.126605 0.126924 0.128347
0.096460 0.096411 0.096273
0.136627 0.135945 0.134730
0.185218 0.184093 0.182815
0.173092 0.172227 0.171016
0.169315 0.169501 0.172040
0.207050 0.207218 0.207404
0.170431 0.170682 0.173410
0.131843 0.131697 0.130619
0.210511 0.213961 0.218676
0.136762 0.136511 0.136317
0.136391 0.139502 0.139794
0.133110 0.133446 0.133193
0.143086 0.142267 0.140337
0.083471 0.083917 0.085170
0.148521 0.149855 0.150872
0.150402 0.151079 0.151427
0.149924 0.149714 0.150400
0.175217 0.175781 0.175687
0.194167 0.190610 0.191483
0.156997 0.155733 0.156069
0.161274 0.160886 0.157561
0.228682 0.233131 0.233422
0.170715 0.170472 0.170705
0.223833 0.250799 0.255371
0.247956 0.250160 0.250304
0.146290 0.146068 0.144898
0.186169 0.186375 0.186741
0.132669 0.134581 0.135728
0.171401 0.173674 0.174552
0.259965 0.257365 0.247330
0.185792 0.184233 0.184187
0.096588 0.095619 0.095074
0.123528 0.124641 0.125491
0.113230 0.113113 0.112590
0.131639 0.131433 0.131068
0.119861 0.119617 0.129580
0.107372 0.106945 0.107100
0.118147 0.118285 0.118304
0.073928 0.074194 0.076270
0.154061 0.154070 0.156232
0.070923 0.071071 0.071598
0.233179 0.233575 0.234045
0.158761 0.158266 0.158954
0.168619 0.170414 0.170185
0.077150 0.077314 0.077826
0.103616 0.102444 0.104185
0.121922 0.124808 0.124881
0.149163 0.148950 0.147447
0.121618 0.121859 0.121786
0.122315 0.119609 0.120876
0.124638 0.119498 0.119143
0.118192 0.117149 0.117287
0.135945 0.134730 0.133876
0.093734 0.093589 0.092628
0.081820 0.084863 0.086230
0.162735 0.162469 0.162220
0.248653 0.248645 0.248845
0.127820 0.128245 0.128949
0.143320 0.141264 0.143894
0.180409 0.180667 0.181393
0.263359 0.252976 0.260578
0.145297 0.145157 0.145337
0.181253 0.182572 0.182995
0.266225 0.264703 0.263330
0.075653 0.073431 0.070755
0.124153 0.123795 0.124923
0.148731 0.148220 0.142220
0.228254 0.228527 0.228281
0.227654 0.227203 0.227391
0.257113 0.257061 0.257491
0.084933 0.084841 0.085672
0.139963 0.140004 0.139910
0.080446 0.080696 0.080060
0.144678 0.144112 0.140976
0.139950 0.138440 0.137479
0.115474 0.113049 0.112723
0.126881 0.124816 0.119309
0.194095 0.193874 0.193888
0.069974 0.070217 0.070203
0.149232 0.149315 0.149532
0.141117 0.141130 0.139809
0.114583 0.113755 0.113439
0.159698 0.159528 0.157660
0.132086 0.130247 0.130404
0.089987 0.089985 0.086266
0.080220 0.080251 0.080102
0.150049 0.149047 0.147169
0.217483 0.217957 0.220038
0.261179 0.262524 0.262565
0.146300 0.146004 0.145861
0.158238 0.157664 0.148075
0.127186 0.125226 0.125731
0.224746 0.224312 0.225858
0.091193 0.091644 0.091654
0.132974 0.132161 0.131949
0.107311 0.121366 0.121945
0.134422 0.132296 0.131833
0.169848 0.169556 0.168605
0.151941 0.144508 0.147049
0.109507 0.109634 0.109167
0.241464 0.241947 0.242045
0.155447 0.155156 0.155314
0.076309 0.076392 0.076660
0.130340 0.131876 0.130953
0.178179 0.178210 0.178837
0.135614 0.139453 0.140320
0.251735 0.251527 0.252383
0.237147 0.234161 0.233309
0.143348 0.143232 0.144017
0.127816 0.127764 0.127630
0.127932 0.128112 0.128617
0.125771 0.125264 0.125310
0.126882 0.126771 0.130415
0.105466 0.104361 0.105071
0.086678 0.086603 0.085875
0.161178 0.159626 0.159253
0.102400 0.102643 0.101754
0.170714 0.170446 0.166971
0.140089 0.136326 0.136230
0.108842 0.108260 0.108683
0.114712 0.114823 0.114693
0.119616 0.118780 0.121888
0.131579 0.128478 0.127961
0.161772 0.163647 0.164180
0.186234 0.185543 0.183796
0.145262 0.145439 0.145801
0.163127 0.161021 0.157439
0.102321 0.102022 0.101695
0.237270 0.237589 0.244040
0.129754 0.129636 0.126911
0.130565 0.130588 0.131159
0.083290 0.083512 0.086555
0.204864 0.204830 0.204227
0.172087 0.172276 0.171454
0.161837 0.162286 0.162217
0.206120 0.206727 0.205988
0.080960 0.085331 0.085683
0.168071 0.166067 0.166044
0.220542 0.220781 0.220795
0.159097 0.158956 0.159070
0.204822 0.204900 0.207552
0.231130 0.228785 0.227445
0.102451 0.101676 0.102374
0.117616 0.117622 0.117526
0.141865 0.141487 0.141004
0.115261 0.115536 0.116243
0.172741 0.173269 0.173314
0.143772 0.143043 0.142767
0.152308 0.153302 0.153723
0.155715 0.155460 0.152658
0.175244 0.175664 0.177998
0.152823 0.152675 0.152246
0.196562 0.188531 0.187370
0.165970 0.165700 0.165575
0.213700 0.210785 0.209504
0.078105 0.078142 0.078140
0.124046 0.123758 0.123454
0.114973 0.114427 0.115021
0.119442 0.119212 0.117076
0.086061 0.086221 0.086161
0.163664 0.163218 0.162995
0.077471 0.077399 0.077305
0.150455 0.150563 0.150131
0.122436 0.122592 0.123120
0.143600 0.141353 0.140566
0.105654 0.106149 0.107389
0.080898 0.080956 0.082221
0.233130 0.233147 0.233799
0.125357 0.124472 0.124538
0.138801 0.140285 0.141281
0.128592 0.123434 0.124755
0.144720 0.144366 0.145266
0.121111 0.121815 0.125303
0.161432 0.146122 0.147819
0.116163 0.115490 0.114858
0.126006 0.126785 0.126928
0.147101 0.147049 0.147194
0.122725 0.122894 0.122815
0.181934 0.181043 0.182142
0.071447 0.071581 0.071782
0.119431 0.117772 0.118196
0.145917 0.145720 0.147310
0.191431 0.255372 0.260131
0.141056 0.141050 0.141972
0.112368 0.116186 0.115915
0.073288 0.072768 0.072842
0.106857 0.107507 0.107411
0.258221 0.259102 0.256942
0.124769 0.124650 0.124989
0.101825 0.101874 0.101920
0.107762 0.108042 0.107420
0.169761 0.169807 0.169894
0.127949 0.127546 0.125977
0.269389 0.269757 0.269324
0.155266 0.155084 0.154744
0.160094 0.159750 0.159401
0.075027 0.075612 0.077819
0.213472 0.213790 0.214259
0.121550 0.121824 0.121325
0.194264 0.194058 0.192798
0.078296 0.078427 0.079306
0.115973 0.118494 0.118558
0.084114 0.084802 0.085064
0.110768 0.111100 0.115978
0.206713 0.206541 0.206796
0.162742 0.162272 0.162308
0.110975 0.110885 0.109809
0.118881 0.117015 0.116369
0.094224 0.093989 0.094002
0.149618 0.152404 0.151812
0.121888 0.121957 0.121912
0.125480 0.125249 0.124487
0.128750 0.128782 0.128913
0.161120 0.159802 0.157246
0.248669 0.248715 0.248981
0.143106 0.143154 0.142847
0.150478 0.151351 0.153975
0.108886 0.108816 0.108861
0.087599 0.087762 0.088153
0.133276 0.130166 0.129785
0.158020 0.152128 0.151610
0.218973 0.219721 0.219705
0.135982 0.136615 0.138752
0.154095 0.152716 0.152876
0.117732 0.111439 0.109342
0.254596 0.254993 0.255342
0.185527 0.185196 0.185387
0.150975 0.150705 0.150647
0.142553 0.143234 0.142713
0.111429 0.110728 0.110707
0.155306 0.155292 0.155180
0.106414 0.106207 0.106380
0.097351 0.098173 0.099405
0.085093 0.085271 0.085336
0.133338 0.132828 0.132459
0.094042 0.093654 0.089677
0.171501 0.172847 0.172710
0.112730 0.113036 0.112502
0.115493 0.115335 0.115126
0.192932 0.193251 0.192761
0.117838 0.121262 0.122195
0.220828 0.220227 0.220016
0.140291 0.137796 0.137658
0.128814 0.128658 0.130367
0.136016 0.131332 0.131462
0.128713 0.127292 0.127201
0.132389 0.131589 0.131953
0.091322 0.091198 0.091985
0.127289 0.127371 0.129722
0.165869 0.166174 0.166466
0.251265 0.251716 0.252477
0.258307 0.259210 0.259115
0.232929 0.234765 0.233028
0.118196 0.117534 0.117459
0.140565 0.141733 0.147703
0.152033 0.152162 0.151781
0.222467 0.225589 0.226301
0.110879 0.110985 0.110594
0.113962 0.112589 0.112350
0.102134 0.102222 0.102041
0.146017 0.146689 0.145249
0.130326 0.130381 0.131806
0.113686 0.113331 0.113772
0.170169 0.169392 0.169412
0.106505 0.106969 0.107007
0.193575 0.193751 0.195825
0.121169 0.122678 0.122046
0.129125 0.129029 0.128340
0.150422 0.152012 0.152488
0.150090 0.153818 0.153623
0.107543 0.106050 0.106101
0.137901 0.138293 0.138348
0.109090 0.109159 0.106232
0.169151 0.163562 0.162276
0.125888 0.128016 0.128646
0.139170 0.141846 0.141967
0.124656 0.124541 0.124242
0.143602 0.143109 0.142959
0.127292 0.127201 0.127304
0.149802 0.149780 0.149243
0.156902 0.157013 0.157869
0.085373 0.085340 0.085004
0.064286 0.065292 0.068918
0.145072 0.144861 0.142895
0.120403 0.120579 0.118615
0.169894 0.169845 0.169947
0.100511 0.100416 0.100136
0.157459 0.157059 0.145855
0.085457 0.085422 0.083258
0.135620 0.135422 0.132817
0.077071 0.080319 0.080253
0.148512 0.150560 0.155389
0.266449 0.267318 0.267365
0.112765 0.112339 0.111501
0.169426 0.173160 0.173920
0.227810 0.228190 0.228943
0.070876 0.070879 0.070691
0.219696 0.219778 0.220100
0.119808 0.120359 0.124494
0.118546 0.116914 0.115267
0.102756 0.102955 0.102988
0.197580 0.198256 0.199293
0.151099 0.151229 0.152004
0.213838 0.214083 0.214213
0.167408 0.166924 0.166315
0.208276 0.207844 0.207743
0.082707 0.082347 0.076404
0.164092 0.163332 0.162832
0.150512 0.150641 0.150507
0.151411 0.150685 0.147683
0.137919 0.137777 0.137928
0.075769 0.076245 0.075374
0.136606 0.138729 0.138732
0.138407 0.138292 0.138048
0.147631 0.147575 0.146853
0.229824 0.229837 0.228488
0.157841 0.151086 0.150857
0.145707 0.146100 0.146101
0.160983 0.160862 0.160014
0.118834 0.122079 0.122214
0.208938 0.208512 0.208652
0.128746 0.127289 0.127371
0.138127 0.138346 0.138456
0.087013 0.087311 0.087135
0.102356 0.102332 0.103454
0.127059 0.128871 0.129093
0.109522 0.109589 0.107010
0.125177 0.126776 0.126973
0.134614 0.133972 0.133418
0.150371 0.149778 0.150788
0.161344 0.161416 0.161486
0.095671 0.096167 0.095940
0.129635 0.129849 0.129682
0.117843 0.119108 0.120245
0.124442 0.124540 0.124222
0.123380 0.122766 0.122121
0.073157 0.072008 0.071745
0.156878 0.156194 0.155418
0.117297 0.113699 0.114844
0.081015 0.080228 0.075934
0.118218 0.117445 0.110237
0.120753 0.120326 0.119146
0.142961 0.143281 0.144407
0.124891 0.124960 0.124866
0.116183 0.116171 0.115766
0.192748 0.192360 0.190901
0.206358 0.206645 0.205896
0.096458 0.096367 0.096227
0.115547 0.115626 0.115931
0.211359 0.211861 0.210967
0.131700 0.132132 0.131191
0.118538 0.118509 0.118277
0.119928 0.121800 0.119656
0.149640 0.153807 0.153605
0.128106 0.127564 0.128375
0.230584 0.230375 0.229720
0.099358 0.099324 0.099900
0.257611 0.258642 0.257648
0.138758 0.138598 0.135143
0.116912 0.115744 0.109768
0.152661 0.152288 0.151901
0.083982 0.082401 0.082165
0.161997 0.160154 0.160307
0.159964 0.160646 0.160868
0.087432 0.087684 0.087915
0.172497 0.173857 0.172469
0.221812 0.221782 0.221347
0.151408 0.153724 0.153686
0.189899 0.193571 0.194243
0.126326 0.129189 0.134938
0.124319 0.124777 0.123984
0.135301 0.135124 0.137523
0.122863 0.122863 0.122761
0.117018 0.116865 0.115777
0.074420 0.074604 0.073740
0.096296 0.096593 0.097395
0.174563 0.174394 0.173384
0.201609 0.198596 0.198403
0.092869 0.093202 0.095689
0.122731 0.122456 0.122622
0.153330 0.153030 0.154776
0.135726 0.136016 0.131332
0.121365 0.121376 0.120915
0.136698 0.137224 0.138504
0.217336 0.216982 0.214625
0.206000 0.207376 0.212157
0.120980 0.121058 0.120994
0.125617 0.126670 0.126930
0.178329 0.178249 0.178378
0.131570 0.131072 0.130475
0.119276 0.118849 0.119066
0.257106 0.257059 0.257248
0.128666 0.128950 0.128718
0.162171 0.147102 0.147868
0.103221 0.102985 0.102868
0.173757 0.191172 0.192146
0.127010 0.127266 0.128054
0.109480 0.107052 0.107399
0.357601 0.357175 0.356556
0.122946 0.122400 0.121876
0.208818 0.208827 0.209251
0.139590 0.138639 0.125361
0.118319 0.118575 0.118761
0.143419 0.142126 0.140687
0.106677 0.106330 0.105512
0.076177 0.076486 0.076751
0.143664 0.139879 0.138963
0.203016 0.203302 0.202766
0.206675 0.207388 0.208105
0.167070 0.166762 0.166854
0.162770 0.165289 0.166602
0.107448 0.112076 0.112496
0.079781 0.079290 0.079133
0.095402 0.095172 0.093821
0.157248 0.148542 0.146878
0.110670 0.110582 0.102818
0.128637 0.128754 0.129309
0.235367 0.237124 0.238713
0.124103 0.124412 0.124658
0.118084 0.118224 0.117968
0.104395 0.104279 0.103531
0.088431 0.088406 0.087782
0.130122 0.130096 0.127902
0.147552 0.147821 0.147097
0.266370 0.265178 0.263342
0.226148 0.226308 0.222468
0.115162 0.118134 0.118195
0.144378 0.144520 0.143419
0.146262 0.144386 0.143476
0.075561 0.076007 0.075916
0.167896 0.168132 0.168133
0.150647 0.150470 0.151127
0.167957 0.170303 0.167347
0.081896 0.081982 0.081728
0.085102 0.088150 0.088400
0.146169 0.146183 0.145192
0.126060 0.125488 0.124093
0.124003 0.124097 0.124247
0.129260 0.135846 0.141432
0.125770 0.122080 0.120315
0.134906 0.135813 0.136861
0.151599 0.151426 0.151640
0.082062 0.080298 0.077994
0.220103 0.219888 0.218674
0.117260 0.116678 0.112179
0.128213 0.128819 0.131940
0.097500 0.100643 0.100380
0.121897 0.119558 0.116549
0.162058 0.162467 0.162365
0.162834 0.161715 0.161423
0.141211 0.141893 0.142620
0.249364 0.251187 0.252529
0.157445 0.157680 0.157865
0.181133 0.179750 0.178716
0.115434 0.115690 0.116500
0.114828 0.115119 0.116239
0.096694 0.097950 0.098640
0.151534 0.155956 0.153188
0.123846 0.126076 0.126967
0.107032 0.107466 0.107425
0.125140 0.124944 0.124663
0.150016 0.150410 0.153914
0.202766 0.202760 0.202901
0.136740 0.136136 0.135590
0.096478 0.097177 0.096422
0.080073 0.079969 0.080117
0.228285 0.228950 0.228490
0.077317 0.076772 0.076411
0.133094 0.132981 0.138110
0.222348 0.221495 0.221373
0.150856 0.150629 0.152205
0.126119 0.127128 0.127115
0.095809 0.095911 0.096617
0.152184 0.165312 0.164301
0.124610 0.124041 0.123273
0.257391 0.254872 0.237436
0.162363 0.163883 0.167268
0.137459 0.137801 0.138736
0.102022 0.101695 0.098281
0.213388 0.213555 0.213619
0.122821 0.122861 0.122573
0.226541 0.227710 0.227804
0.112649 0.113091 0.114016
0.091214 0.091619 0.094887
0.196001 0.194854 0.194130
0.247256 0.247166 0.247396
0.151995 0.152010 0.152037
0.076133 0.076352 0.076562
0.117629 0.116269 0.115676
0.138408 0.138268 0.137844
0.069390 0.069069 0.068946
0.117319 0.117109 0.117200
0.067437 0.067302 0.065868
0.079730 0.079807 0.079851
0.204512 0.205387 0.205382
0.149859 0.150293 0.150269
0.172012 0.172078 0.171582
0.131300 0.131183 0.131310
0.147118 0.146175 0.144658
0.081634 0.082156 0.082122
0.133761 0.124672 0.125113
0.120842 0.121698 0.122046
0.159452 0.159670 0.160276
0.135947 0.136117 0.136103
0.119154 0.119056 0.119218
0.131566 0.131884 0.131934
0.174641 0.174379 0.173874
0.142284 0.141747 0.137172
0.115633 0.116756 0.115035
0.263756 0.252077 0.260845
0.083846 0.084144 0.084024
0.106187 0.105912 0.105964
0.111162 0.113699 0.115169
0.133936 0.133846 0.137994
0.099422 0.100175 0.104954
0.073059 0.073364 0.073344
0.125881 0.125311 0.125227
0.142306 0.141611 0.141186
0.109882 0.109081 0.106641
0.116457 0.116883 0.119155
0.147102 0.147868 0.148006
0.142944 0.142318 0.142808
0.203454 0.201293 0.201109
0.076792 0.076871 0.076913
0.151658 0.151745 0.151077
0.096832 0.096630 0.097556
0.080829 0.075329 0.075109
0.159185 0.159415 0.159502
0.078147 0.078138 0.078136
0.115395 0.114996 0.115189
0.090280 0.090349 0.090547
0.087553 0.086945 0.087668
0.077791 0.077937 0.078009
0.224943 0.225883 0.226093
0.178631 0.180600 0.180242
0.163047 0.149965 0.151034
0.084841 0.085672 0.084817
0.119237 0.119612 0.122228
0.131737 0.131720 0.130076
0.080668 0.080804 0.085294
0.076846 0.076374 0.076804
0.134639 0.134046 0.134105
0.121608 0.117533 0.117320
0.140221 0.137544 0.136920
0.171909 0.171929 0.171998
0.123081 0.123065 0.122519
0.149207 0.148511 0.148028
0.207170 0.203014 0.201871
0.235420 0.237587 0.238717
0.229594 0.228513 0.225835
0.186701 0.187155 0.187507
0.124985 0.125114 0.125255
0.210908 0.210548 0.210586
0.223633 0.220296 0.223448
0.131643 0.129941 0.130146
0.146062 0.138940 0.137919
0.133014 0.138181 0.138657
0.126708 0.127980 0.126881
0.251558 0.251513 0.251724
0.103266 0.103158 0.102106
0.172832 0.173532 0.175085
0.076422 0.076372 0.076820
0.206173 0.206087 0.207317
0.148544 0.146146 0.145178
0.078516 0.076388 0.076463
0.164007 0.153292 0.151305
0.157767 0.157340 0.147441
0.118258 0.118180 0.118639
0.130044 0.130918 0.130885
0.254598 0.254439 0.252758
0.247378 0.246261 0.244870
0.109443 0.110186 0.110548
0.097394 0.097544 0.097584
0.126106 0.125703 0.125475
0.137544 0.137566 0.137619
0.102487 0.104955 0.105653
0.124813 0.126562 0.126813
0.183203 0.183635 0.183705
0.135380 0.135914 0.133490
0.234263 0.234064 0.233971
0.226439 0.226366 0.225795
0.102361 0.102428 0.102338
0.132622 0.134685 0.134984
0.106767 0.110290 0.109689
0.120438 0.120334 0.120499
0.197083 0.197067 0.197344
0.129146 0.121146 0.119692
0.164029 0.165227 0.165776
0.083329 0.083782 0.083739
0.173241 0.173803 0.175666
0.215827 0.216499 0.224707
0.108398 0.110454 0.110407
0.187031 0.184867 0.185979
0.128686 0.128716 0.128789
0.082953 0.081945 0.082224
0.154979 0.155027 0.154326
0.146459 0.146774 0.149164
0.120561 0.120469 0.120572
0.138734 0.140142 0.140180
0.079456 0.074708 0.074781
0.137374 0.137904 0.137470
0.136499 0.139454 0.139074
0.145171 0.149188 0.149861
0.128721 0.128837 0.128800
0.164182 0.162639 0.165194
0.178554 0.179034 0.186298
0.151635 0.153104 0.154357
0.137254 0.137919 0.138139
0.116299 0.117839 0.118617
0.144242 0.144746 0.144732
0.142939 0.142821 0.142755
