0.278986 0.278130 0.278711
0.178944 0.178950 0.179159
0.202343 0.202328 0.200622
0.236212 0.236369 0.236712
0.193454 0.191788 0.191856
0.174867 0.172321 0.173529
0.209578 0.209281 0.211736
0.227991 0.228291 0.228039
0.257400 0.257612 0.260231
0.203085 0.203123 0.204126
0.190204 0.192254 0.192409
0.297429 0.295523 0.295852
0.256542 0.257375 0.262884
0.185786 0.191038 0.192162
0.204029 0.203459 0.204018
0.211884 0.212311 0.212907
0.179474 0.181445 0.182040
0.191716 0.192091 0.194068
0.178249 0.179492 0.180010
0.189314 0.189577 0.189022
0.265032 0.264632 0.265483
0.195608 0.195845 0.195852
0.289088 0.290110 0.289597
0.146814 0.146642 0.146716
0.278814 0.278745 0.278871
0.186490 0.186591 0.186387
0.277948 0.277159 0.276103
0.161960 0.162035 0.161881
0.137419 0.134624 0.132138
0.154318 0.154186 0.153558
0.232537 0.232128 0.232276
0.223899 0.235357 0.235301
0.256691 0.255474 0.254310
0.217022 0.219358 0.220357
0.163278 0.160951 0.157733
0.187395 0.186575 0.186460
0.177833 0.177599 0.178616
0.238283 0.238387 0.238751
0.144828 0.145701 0.145014
0.125173 0.125118 0.126375
0.244577 0.243987 0.241229
0.216779 0.217360 0.212335
0.196016 0.195368 0.194798
0.267359 0.261606 0.260450
0.207980 0.207762 0.207950
0.224308 0.224186 0.225177
0.208630 0.208601 0.208891
0.163131 0.164738 0.164354
0.209467 0.209567 0.211049
0.175592 0.176653 0.177124
0.161976 0.161731 0.161703
0.185988 0.185458 0.184995
0.121837 0.120500 0.119990
0.240554 0.225741 0.213207
0.261325 0.261254 0.260700
0.198871 0.194495 0.194006
0.120899 0.120996 0.121269
0.166284 0.166387 0.165864
0.222972 0.222536 0.222590
0.163856 0.163899 0.164724
0.233265 0.232315 0.231981
0.243860 0.242274 0.240335
0.236968 0.237412 0.242078
0.202941 0.203596 0.203883
0.121107 0.120899 0.120996
0.219190 0.219715 0.220209
0.237917 0.229627 0.221703
0.213710 0.206019 0.200156
0.239677 0.239584 0.239766
0.174638 0.171909 0.171592
0.182851 0.181332 0.180157
0.313369 0.314554 0.314272
0.196174 0.196394 0.198438
0.240096 0.238437 0.238403
0.251081 0.250589 0.250491
0.185993 0.185371 0.184685
0.337783 0.339997 0.340539
0.193539 0.193892 0.194051
0.156259 0.154579 0.153605
0.221329 0.219832 0.217322
0.201084 0.201880 0.202236
0.189160 0.189003 0.188515
0.118984 0.119850 0.120476
0.186975 0.188602 0.189014
0.232588 0.232157 0.231229
0.181677 0.181315 0.180650
0.196953 0.196373 0.190416
0.226361 0.227187 0.227799
0.204086 0.204372 0.207685
0.166794 0.169773 0.170500
0.224330 0.223899 0.235357
0.203648 0.207399 0.207875
0.167250 0.167494 0.168619
0.208957 0.209008 0.208475
0.205506 0.204164 0.200321
0.570129 0.565662 0.566473
0.278023 0.277995 0.277660
0.218875 0.218617 0.218450
0.139601 0.139824 0.140027
0.203560 0.202607 0.202592
0.190352 0.189754 0.193108
0.232605 0.233820 0.233806
0.214762 0.216118 0.217028
0.181574 0.181857 0.184714
0.295211 0.299138 0.299853
0.200568 0.197124 0.196900
0.170155 0.170713 0.171099
0.229466 0.229564 0.229881
0.141016 0.141036 0.141176
0.209890 0.210610 0.215520
0.121035 0.120852 0.120677
0.278020 0.276897 0.276415
0.223602 0.233352 0.233632
0.193528 0.192927 0.191880
0.203788 0.202711 0.207232
0.244871 0.244835 0.243964
0.162770 0.163878 0.165379
0.159615 0.158754 0.159136
0.222858 0.223479 0.224211
0.212386 0.215148 0.215563
0.210842 0.210356 0.210529
0.197885 0.198366 0.211119
0.151464 0.150387 0.150710
0.163937 0.156259 0.154579
0.261371 0.261243 0.260415
0.196675 0.198920 0.201517
0.195288 0.175148 0.172020
0.221010 0.221024 0.220915
0.205527 0.204986 0.204856
0.170706 0.170617 0.170027
0.197316 0.196070 0.196742
0.219359 0.219687 0.219453
0.190127 0.194257 0.200727
0.208964 0.208923 0.209539
0.216961 0.217354 0.217174
0.202232 0.202208 0.202963
0.165606 0.165432 0.167632
0.210800 0.210535 0.206973
0.182825 0.182396 0.181848
0.234008 0.232029 0.224179
0.206264 0.205970 0.206082
0.270375 0.270359 0.269501
0.202131 0.196266 0.194949
0.176736 0.176493 0.175852
0.215562 0.215517 0.215572
0.300719 0.300480 0.293862
0.182932 0.183902 0.183576
0.152406 0.152122 0.152620
0.267825 0.267938 0.268188
0.250205 0.253367 0.264053
0.243321 0.242065 0.241289
0.235550 0.235752 0.235946
0.168351 0.167041 0.159485
0.136276 0.136167 0.137461
0.484071 0.482325 0.517653
0.242910 0.243435 0.243740
0.532712 0.532989 0.532748
0.302354 0.283913 0.281823
0.203951 0.203923 0.202403
0.183531 0.184090 0.184922
0.206199 0.206556 0.207986
0.130943 0.130846 0.129798
0.219801 0.218706 0.217531
0.200473 0.199687 0.193293
0.210165 0.202280 0.200815
0.177681 0.176231 0.177265
0.174679 0.175105 0.175116
0.260235 0.260764 0.260402
0.189001 0.189521 0.190742
0.144222 0.144855 0.146089
0.242870 0.240591 0.240025
0.216579 0.220416 0.220043
0.219256 0.219193 0.218633
0.179888 0.180765 0.179735
0.242724 0.250149 0.250474
0.240132 0.240303 0.240960
0.249228 0.237429 0.236135
0.200891 0.185929 0.185277
0.184335 0.185775 0.184564
0.284739 0.281916 0.266546
0.181000 0.181028 0.181296
0.211810 0.211274 0.210593
0.201799 0.200410 0.199706
0.181758 0.182379 0.182696
0.149428 0.149133 0.148524
0.176282 0.177244 0.177534
0.279280 0.279713 0.279693
0.213053 0.212247 0.212185
0.207667 0.209197 0.209661
0.288205 0.287876 0.288179
0.149673 0.149629 0.149645
0.203845 0.204036 0.204778
0.174449 0.175475 0.175206
0.183746 0.182689 0.183170
0.238495 0.237811 0.238247
0.261079 0.259312 0.264912
0.291322 0.291466 0.294059
0.180131 0.180171 0.179927
0.216772 0.218188 0.220516
0.180320 0.178058 0.178751
0.208092 0.207339 0.206758
0.193982 0.189569 0.189632
0.234334 0.244009 0.244480
0.205929 0.205700 0.205766
0.177298 0.185196 0.186356
0.165432 0.167632 0.168051
0.145592 0.145327 0.144766
0.232887 0.233076 0.233604
0.349939 0.354721 0.356652
0.221693 0.221841 0.222070
0.225954 0.225837 0.223786
0.211539 0.211235 0.210590
0.185814 0.185951 0.187147
0.258414 0.259395 0.259775
0.144004 0.141754 0.141387
0.256978 0.256488 0.250212
0.252634 0.252304 0.251369
0.302433 0.302842 0.303358
0.218971 0.207548 0.206108
0.228312 0.227737 0.227070
0.176823 0.176164 0.175577
0.206301 0.205841 0.205997
0.235714 0.241904 0.241716
0.235773 0.234608 0.234012
0.262106 0.263639 0.262571
0.181118 0.181064 0.186283
0.219548 0.219438 0.215081
0.198389 0.198558 0.198610
0.245854 0.249712 0.251679
0.200763 0.199725 0.198864
0.200834 0.201058 0.200515
0.206620 0.208855 0.227863
0.226425 0.226247 0.225026
0.248966 0.247535 0.223354
0.221474 0.223284 0.223997
0.171424 0.172349 0.172782
0.191761 0.189456 0.191621
0.186493 0.186626 0.187034
0.211582 0.210133 0.209525
0.193225 0.193811 0.194032
0.187512 0.187646 0.187460
0.270874 0.271286 0.266428
0.223081 0.224425 0.223994
0.172090 0.171967 0.171528
0.244035 0.244602 0.243960
0.171222 0.168996 0.169237
0.200402 0.200920 0.201411
0.186715 0.185519 0.185153
0.122325 0.121879 0.121440
0.222581 0.219220 0.219410
0.181486 0.179129 0.179427
0.176290 0.170056 0.170167
0.216695 0.216642 0.215920
0.199914 0.206503 0.205969
0.202064 0.195609 0.194909
0.159899 0.162264 0.162588
0.187209 0.189094 0.190491
0.194898 0.193778 0.189008
0.170050 0.170810 0.170261
0.229344 0.229466 0.229564
0.187631 0.186066 0.185939
0.172415 0.172031 0.172791
0.240768 0.239964 0.238547
0.227282 0.226795 0.227040
0.265735 0.265638 0.261059
0.184381 0.184659 0.185092
0.244074 0.243952 0.243813
0.151580 0.152073 0.152315
0.187412 0.188334 0.188979
0.259331 0.259157 0.259039
0.153576 0.153111 0.152090
0.194295 0.194238 0.192574
0.198779 0.197957 0.198541
0.165703 0.165032 0.165099
0.143030 0.142252 0.142191
0.151841 0.151749 0.153113
0.220516 0.219787 0.221616
0.199827 0.201270 0.201201
0.207553 0.212348 0.212920
0.202215 0.202413 0.207375
0.229754 0.223682 0.227680
0.260058 0.260104 0.258589
0.196227 0.195784 0.195250
0.193424 0.193920 0.195016
0.201325 0.202204 0.203398
0.254451 0.256761 0.256606
0.226137 0.226312 0.226378
0.179671 0.179817 0.180580
0.202483 0.202813 0.203064
0.158398 0.158189 0.157905
0.231727 0.233074 0.231918
0.186090 0.186478 0.185439
0.188956 0.190608 0.191250
0.265870 0.266130 0.265966
0.209974 0.210832 0.211486
0.283676 0.282988 0.280881
0.218053 0.218671 0.221050
0.122425 0.122013 0.122476
0.206250 0.205833 0.202172
0.174128 0.174543 0.173822
0.211868 0.211460 0.211051
0.166623 0.166860 0.165122
0.185583 0.188952 0.189441
0.155499 0.156428 0.156021
0.186573 0.189308 0.188735
0.164764 0.165677 0.165976
0.140229 0.140211 0.140302
0.236320 0.236284 0.236491
0.132458 0.132737 0.132212
0.206181 0.206474 0.206721
0.204797 0.219308 0.219935
0.212722 0.212622 0.212300
0.258293 0.258963 0.256954
0.257899 0.259017 0.259737
0.389824 0.389855 0.389858
0.153059 0.152797 0.152895
0.208487 0.207896 0.206430
0.206560 0.206874 0.207385
0.268815 0.259203 0.255780
0.133572 0.133322 0.133969
0.194051 0.191994 0.192186
0.182038 0.182316 0.182076
0.258995 0.258524 0.257434
0.214740 0.215338 0.215419
0.196954 0.196210 0.195308
0.243056 0.242674 0.242258
0.206916 0.202216 0.202041
0.244940 0.243662 0.243288
0.178979 0.179463 0.179838
0.121672 0.121338 0.120819
0.207887 0.208212 0.206525
0.181703 0.181532 0.181836
0.227622 0.227797 0.226939
0.255747 0.259609 0.260708
0.208593 0.208501 0.208127
0.235471 0.236188 0.235995
0.236121 0.236113 0.236554
0.186756 0.221492 0.222732
0.198482 0.198882 0.200271
0.222912 0.223050 0.224347
0.214045 0.212890 0.212769
0.212837 0.215473 0.208562
0.204857 0.205034 0.204975
0.178031 0.178755 0.178798
0.248292 0.248729 0.249119
0.212449 0.209080 0.208658
0.209035 0.208866 0.209513
0.184255 0.184362 0.182056
0.216108 0.211695 0.211010
0.198697 0.197906 0.198057
0.223705 0.223780 0.230029
0.209957 0.209189 0.209539
0.178425 0.177912 0.176573
0.180191 0.182833 0.184100
0.240788 0.240782 0.240910
0.269714 0.270713 0.272296
0.185932 0.186635 0.187138
0.190566 0.190218 0.191692
0.183054 0.183039 0.178820
0.208852 0.208559 0.208665
0.176505 0.176734 0.176687
0.218876 0.221406 0.223553
0.136329 0.136455 0.135995
0.191736 0.190412 0.191672
0.269176 0.268839 0.268959
0.191969 0.190278 0.189825
0.183400 0.183519 0.183620
0.259417 0.258671 0.258757
0.246863 0.248066 0.250021
0.210480 0.210255 0.209615
0.161613 0.161682 0.161838
0.187434 0.185496 0.185516
0.131072 0.130738 0.130979
0.209512 0.218611 0.212822
0.255362 0.255477 0.257378
0.231189 0.231420 0.232755
0.211770 0.210187 0.210580
0.219190 0.223584 0.223353
0.227827 0.227671 0.227069
0.142258 0.141893 0.143049
0.247617 0.247885 0.242989
0.233513 0.233330 0.233036
0.175165 0.175301 0.175447
0.250754 0.251153 0.253280
0.242750 0.238694 0.238004
0.143502 0.143506 0.143658
0.197080 0.197880 0.198329
0.178901 0.179098 0.178632
0.207598 0.207413 0.207207
0.170457 0.170966 0.181639
0.236824 0.235825 0.233882
0.259132 0.260250 0.260231
0.218656 0.219752 0.220842
0.193494 0.197361 0.199968
0.193241 0.193610 0.194171
0.220378 0.220654 0.226962
0.206415 0.206466 0.206502
0.221790 0.221849 0.221523
0.304400 0.303883 0.304453
0.178567 0.178835 0.179083
0.278541 0.279453 0.282706
0.154814 0.154071 0.152394
0.179386 0.182715 0.183290
0.198073 0.198236 0.198362
0.233079 0.231080 0.208231
0.174317 0.174505 0.174612
0.248156 0.249591 0.250450
0.265321 0.264762 0.260732
0.195555 0.197541 0.194392
0.183626 0.184401 0.184193
0.264759 0.265966 0.266847
0.183207 0.183023 0.182377
0.189008 0.188775 0.190366
0.189967 0.189465 0.192034
0.178737 0.178826 0.179237
0.285511 0.285537 0.285789
0.178936 0.179644 0.179845
0.189295 0.184925 0.186807
0.275078 0.276939 0.275689
0.168397 0.164703 0.164238
0.121015 0.120990 0.122104
0.191542 0.184243 0.183191
0.193043 0.193340 0.191753
0.188162 0.187400 0.187380
0.236643 0.236193 0.236091
0.248499 0.249381 0.248963
0.171787 0.172167 0.172115
0.256035 0.254689 0.254572
0.133831 0.133438 0.133025
0.229742 0.233265 0.232315
0.226022 0.221220 0.221769
0.177757 0.178128 0.178411
0.126354 0.126207 0.126833
0.203123 0.204126 0.211275
0.177119 0.176567 0.176597
0.189690 0.168939 0.163911
0.276707 0.278719 0.279794
0.189443 0.189315 0.188893
0.165550 0.165313 0.165657
0.258572 0.257734 0.257147
0.140013 0.139728 0.140096
0.173377 0.181833 0.187240
0.205283 0.200177 0.193879
0.170485 0.175659 0.177205
0.283508 0.274488 0.271588
0.170312 0.169698 0.169769
0.146077 0.148092 0.159345
0.164180 0.166159 0.180720
0.256279 0.256897 0.257820
0.214968 0.214527 0.211872
0.202942 0.203561 0.203765
0.207796 0.208813 0.213381
0.269395 0.270690 0.270770
0.187033 0.187292 0.187121
0.500732 0.511471 0.513509
0.198334 0.198021 0.197933
0.259808 0.266331 0.266052
0.303215 0.303517 0.304436
0.152330 0.151613 0.150817
0.231945 0.232756 0.235305
0.200045 0.199595 0.193304
0.315754 0.315713 0.316064
0.240173 0.239616 0.239462
0.208914 0.209211 0.207568
0.184480 0.185001 0.185496
0.190371 0.193509 0.196434
0.207340 0.215289 0.217354
0.192402 0.191035 0.190661
0.214822 0.214095 0.211859
0.217729 0.216696 0.216187
0.128943 0.128909 0.128485
0.226646 0.226892 0.227561
0.150363 0.150542 0.150164
0.204217 0.202973 0.201946
0.225711 0.210603 0.209909
0.216940 0.216812 0.216369
0.243243 0.246439 0.244416
0.172561 0.172323 0.178997
0.202562 0.201853 0.202391
0.188774 0.188524 0.186530
0.164175 0.166509 0.167338
0.121601 0.121360 0.120436
0.219143 0.221232 0.221639
0.238796 0.239164 0.239163
0.219223 0.218382 0.218245
0.200183 0.200327 0.200116
0.263535 0.265423 0.268370
0.211937 0.213608 0.214590
0.225260 0.221190 0.221152
0.179690 0.179939 0.179883
0.228819 0.228197 0.227570
0.199163 0.204509 0.205327
0.200599 0.195608 0.193977
0.196764 0.196656 0.197242
0.204779 0.204787 0.218024
0.185898 0.185194 0.184806
0.214079 0.214343 0.221434
0.236246 0.234181 0.219995
0.226254 0.234369 0.235398
0.263486 0.265160 0.265886
0.207913 0.207755 0.207752
0.201445 0.200937 0.200586
0.230731 0.233031 0.232831
0.254304 0.255480 0.254819
0.133727 0.135110 0.151651
0.300633 0.300719 0.300480
0.231757 0.231718 0.232684
0.164860 0.171907 0.175807
0.177772 0.176747 0.175640
0.268616 0.267608 0.267415
0.225312 0.224816 0.224179
0.157678 0.156581 0.157297
0.146695 0.146623 0.146868
0.188862 0.188744 0.187780
0.175744 0.174717 0.175015
0.213273 0.221443 0.220932
0.209594 0.218165 0.216569
0.171713 0.171827 0.173155
0.256291 0.257042 0.257600
0.202154 0.202406 0.204943
0.145651 0.147326 0.148816
0.177631 0.178448 0.176949
0.202603 0.202710 0.202098
0.283706 0.283071 0.281794
0.184102 0.184021 0.184160
0.202626 0.203491 0.218778
0.232362 0.231931 0.230845
0.208420 0.206747 0.206421
0.191250 0.190236 0.188106
0.290265 0.289845 0.288153
0.205826 0.205288 0.200327
0.195640 0.194956 0.194238
0.231654 0.231301 0.225788
0.136650 0.136237 0.136492
0.136358 0.136166 0.136232
0.190865 0.190788 0.190985
0.184356 0.183228 0.184241
0.210469 0.203642 0.203411
0.200196 0.195017 0.194158
0.257243 0.257413 0.257970
0.194437 0.193554 0.193030
0.170971 0.167096 0.167871
0.277718 0.277746 0.277941
0.149050 0.148652 0.147608
0.206183 0.206410 0.206184
0.145164 0.146501 0.145240
0.185205 0.186158 0.186177
0.206021 0.206897 0.207839
0.242618 0.243827 0.244217
0.154360 0.155517 0.156047
0.254080 0.253955 0.252755
0.169783 0.169300 0.168709
0.145136 0.144983 0.144838
0.218245 0.219891 0.219689
0.193353 0.193558 0.193526
0.286226 0.286408 0.287857
0.205502 0.205407 0.205474
0.191822 0.192459 0.192382
0.184794 0.185214 0.185170
0.222682 0.223147 0.225926
0.227078 0.227165 0.227872
0.265708 0.265741 0.266083
0.291790 0.290696 0.290936
0.214119 0.215928 0.216225
0.299696 0.300720 0.300449
0.124079 0.126275 0.125909
0.255041 0.255297 0.254722
0.235464 0.235301 0.235500
0.266306 0.263743 0.267751
0.198585 0.198366 0.198337
0.166110 0.165137 0.164923
0.209512 0.209071 0.214467
0.179934 0.180160 0.179506
0.157311 0.157286 0.156815
0.185331 0.184539 0.184902
0.185674 0.186200 0.186846
0.187301 0.184519 0.184496
0.219010 0.219301 0.220933
0.221097 0.223615 0.222959
0.528962 0.531753 0.536496
0.230225 0.226772 0.226486
0.204039 0.206949 0.207027
0.212955 0.212745 0.209969
0.235029 0.232085 0.219978
0.143669 0.143996 0.144038
0.247974 0.251325 0.250592
0.176270 0.176254 0.176677
0.199208 0.204438 0.203409
0.208207 0.207401 0.202524
0.234930 0.235005 0.236618
0.223632 0.219164 0.219357
0.238395 0.237979 0.240592
0.131252 0.131564 0.133202
0.154117 0.153656 0.151948
0.212995 0.220653 0.221550
0.282404 0.282014 0.282959
0.190451 0.190050 0.196934
0.205809 0.197346 0.197744
0.151438 0.152025 0.152299
0.163696 0.163937 0.156259
0.180701 0.179477 0.179774
0.164788 0.167301 0.167072
0.263316 0.295891 0.299654
0.150817 0.153621 0.150606
0.188702 0.189686 0.188621
0.258757 0.258617 0.260940
0.202559 0.203355 0.208308
0.162093 0.162318 0.164187
0.162882 0.166928 0.166047
0.125064 0.125543 0.125570
0.203239 0.198742 0.197574
0.282370 0.282275 0.282852
0.116791 0.117762 0.117247
0.220090 0.219460 0.216791
0.270155 0.270393 0.270241
0.244341 0.244326 0.243604
0.212504 0.212763 0.215299
0.292081 0.294239 0.298787
0.515567 0.515940 0.516357
0.218492 0.218744 0.218729
0.181154 0.180075 0.180050
0.194238 0.192727 0.192126
0.183032 0.184842 0.183520
0.162976 0.163965 0.163729
0.219480 0.219044 0.221040
0.236760 0.237415 0.238735
0.207558 0.202729 0.202274
0.180522 0.179606 0.179503
0.190820 0.191913 0.192208
0.278296 0.277834 0.276933
0.229270 0.229624 0.229572
0.213541 0.212358 0.213451
0.212838 0.212697 0.212117
0.178305 0.179493 0.180152
0.147696 0.149159 0.148815
0.131973 0.131736 0.131393
0.189533 0.190732 0.191236
0.249209 0.248875 0.248016
0.170781 0.170886 0.171364
0.221111 0.220395 0.226686
0.142510 0.142326 0.142017
0.251388 0.251664 0.246876
0.514963 0.512921 0.514872
0.174842 0.178040 0.178308
0.162290 0.161979 0.162595
0.163846 0.164119 0.164060
0.242296 0.244849 0.244805
0.221657 0.220630 0.220338
0.181321 0.180888 0.179535
0.220298 0.219183 0.219498
0.239993 0.238166 0.236216
0.183396 0.182655 0.182447
0.176673 0.176520 0.177808
0.178014 0.178453 0.178415
0.140160 0.140013 0.139728
0.264752 0.260762 0.260313
0.258890 0.259565 0.260597
0.204859 0.204029 0.204258
0.182362 0.182269 0.182713
0.129099 0.129188 0.131214
0.205649 0.206097 0.206289
0.204272 0.197347 0.197817
0.203899 0.204697 0.204754
0.219745 0.221008 0.220812
0.209225 0.209238 0.209303
0.182048 0.182780 0.182570
0.137445 0.137005 0.136455
0.208558 0.208247 0.207331
0.273061 0.273143 0.273416
0.171961 0.172311 0.172014
0.139103 0.138929 0.139061
0.219372 0.219605 0.220776
0.134281 0.134044 0.132714
0.254138 0.254525 0.254930
0.179034 0.177549 0.177486
0.172663 0.175102 0.189521
0.221212 0.217749 0.212786
0.181765 0.181643 0.180150
0.226924 0.227652 0.227039
0.188814 0.203157 0.204324
0.170167 0.170277 0.170483
0.176646 0.176668 0.178115
0.205595 0.204799 0.204018
0.182789 0.183015 0.183654
0.216452 0.223470 0.224078
0.175386 0.189111 0.188267
0.204400 0.203304 0.204940
0.227628 0.227384 0.226674
0.142775 0.143567 0.145565
0.506342 0.506963 0.506678
0.293367 0.292426 0.291810
0.180794 0.181020 0.180144
0.174289 0.171854 0.171533
0.236499 0.236352 0.235764
0.187674 0.189069 0.189825
0.178357 0.174974 0.175648
0.246185 0.246439 0.246049
0.269093 0.269300 0.268962
0.215600 0.215794 0.217290
0.252310 0.253734 0.256474
0.245554 0.247356 0.250905
0.232111 0.232257 0.233495
0.217720 0.216329 0.213695
0.166806 0.166678 0.165361
0.168876 0.167647 0.167246
0.235727 0.236543 0.237014
0.289609 0.289075 0.290128
0.212002 0.212243 0.212244
0.257125 0.222335 0.219230
0.188020 0.187224 0.186235
0.231378 0.231177 0.224332
0.224250 0.227321 0.226154
0.270101 0.269761 0.269353
0.154230 0.151580 0.150656
0.209459 0.204459 0.207346
0.192279 0.192357 0.181296
0.179794 0.180031 0.183398
0.183838 0.184350 0.186448
0.205501 0.205630 0.206339
0.135605 0.135919 0.136197
0.198717 0.198990 0.199436
0.261212 0.261590 0.267324
0.258581 0.258245 0.257176
0.255724 0.263718 0.263976
0.291016 0.291054 0.291349
0.226559 0.227957 0.227289
0.133232 0.132723 0.130920
0.240061 0.242985 0.242514
0.260997 0.261609 0.263755
0.185751 0.187514 0.187770
0.175474 0.175249 0.175204
0.231509 0.231509 0.231889
0.250870 0.253146 0.253480
0.171752 0.172318 0.172116
0.195293 0.195161 0.195404
0.284926 0.284782 0.283007
0.219043 0.219351 0.219184
0.257282 0.262790 0.263435
0.206877 0.206311 0.206687
0.220340 0.219226 0.219433
0.178603 0.179078 0.180381
0.141219 0.141020 0.141463
0.167515 0.167567 0.171283
0.124120 0.125640 0.132256
0.190813 0.189710 0.185092
0.186649 0.186517 0.186973
0.158390 0.158241 0.158100
0.169482 0.169303 0.170766
0.212930 0.213698 0.213122
0.183797 0.176028 0.175904
0.190010 0.189434 0.189194
0.236577 0.237127 0.237387
0.126283 0.123900 0.124406
0.219144 0.219265 0.220416
0.286927 0.287114 0.287632
0.238502 0.239634 0.242270
0.261211 0.260775 0.261254
0.182920 0.183102 0.183779
0.235377 0.234351 0.234123
0.226593 0.223778 0.222325
0.279846 0.275586 0.275500
0.163759 0.163601 0.163600
0.244808 0.245870 0.248626
0.236112 0.238732 0.238176
0.244847 0.245190 0.245409
0.203672 0.210242 0.210946
0.203864 0.204122 0.202835
0.213448 0.213767 0.213427
0.265604 0.265397 0.266939
0.277508 0.277463 0.277730
0.232991 0.233074 0.232605
0.151446 0.150418 0.150239
0.218941 0.210089 0.191777
0.184373 0.184921 0.185072
0.271817 0.271333 0.270705
0.186135 0.185153 0.184358
0.207266 0.207451 0.207247
0.238418 0.238928 0.238940
0.293318 0.292562 0.290532
0.263637 0.265947 0.259322
0.251364 0.251500 0.254095
0.271126 0.272033 0.272182
0.200726 0.199030 0.198669
0.216056 0.217417 0.218438
0.190622 0.190653 0.188476
0.226386 0.226171 0.225605
0.183346 0.182025 0.179523
0.130159 0.131409 0.131298
0.495653 0.486372 0.482643
0.208955 0.203113 0.201144
0.210404 0.208860 0.208425
0.227434 0.227587 0.227434
0.199059 0.198724 0.198697
0.212027 0.211889 0.211469
0.300500 0.300122 0.298786
0.276121 0.276924 0.276375
0.250595 0.250257 0.248921
0.184001 0.184179 0.184183
0.290957 0.290769 0.290332
0.181410 0.179201 0.179783
0.188888 0.190013 0.208663
0.253556 0.253850 0.254266
0.200815 0.201112 0.201283
0.175024 0.175367 0.175682
0.181884 0.181358 0.182207
0.167853 0.168326 0.176646
0.187363 0.189659 0.189689
0.193475 0.193627 0.196127
0.212842 0.212787 0.209639
0.189929 0.190481 0.184188
0.265719 0.265719 0.266511
0.208573 0.205826 0.204398
0.216301 0.225227 0.225521
0.261848 0.261497 0.261801
0.176640 0.172853 0.172459
0.177245 0.176473 0.176054
0.250832 0.246936 0.246199
0.200961 0.200009 0.199979
0.171580 0.172037 0.173617
0.220015 0.220174 0.220271
0.246764 0.248121 0.253881
0.207152 0.208339 0.216011
0.275898 0.275889 0.275620
0.246979 0.247323 0.244303
0.220892 0.220906 0.218880
0.182167 0.181267 0.180961
0.140834 0.140722 0.140025
0.277794 0.277037 0.276969
0.208659 0.208157 0.207895
0.234067 0.235088 0.238307
0.179991 0.180436 0.180186
0.242183 0.252063 0.252652
0.169654 0.168351 0.167372
0.174028 0.174238 0.174386
0.276727 0.278210 0.278473
0.246845 0.247752 0.248042
0.248651 0.249642 0.249855
0.185919 0.185273 0.185124
0.191940 0.190566 0.190218
0.240799 0.234493 0.241850
0.207842 0.208569 0.216727
0.210068 0.210157 0.209956
0.182483 0.176106 0.175553
0.232419 0.233821 0.233840
0.226052 0.226166 0.226293
0.220539 0.220876 0.221463
0.273212 0.273262 0.278256
0.237816 0.236940 0.236944
0.205560 0.209475 0.209396
0.211666 0.211453 0.210569
0.121230 0.121825 0.121952
0.203176 0.203294 0.203595
0.224694 0.221557 0.221330
0.299764 0.299755 0.300276
0.135401 0.134920 0.134377
0.210212 0.209780 0.209334
0.209523 0.209551 0.209422
0.253850 0.254266 0.254427
0.300185 0.302671 0.302649
0.175037 0.175138 0.175255
0.167278 0.167604 0.167158
0.185749 0.185118 0.185399
0.247080 0.247453 0.247255
0.212212 0.212155 0.212225
0.229151 0.228843 0.228482
0.177896 0.178979 0.178869
0.172905 0.173390 0.173245
0.261461 0.269268 0.269503
0.169800 0.171905 0.171630
0.132769 0.131796 0.131476
0.209045 0.208932 0.212976
0.182821 0.182471 0.182133
0.209562 0.209834 0.208400
0.158865 0.157003 0.159922
0.220239 0.221005 0.220154
0.290157 0.290366 0.290823
0.226855 0.225587 0.221045
0.136035 0.136354 0.137130
0.184030 0.185915 0.186190
0.154186 0.153558 0.153954
0.253902 0.253974 0.252692
0.146299 0.145638 0.148919
0.162409 0.167124 0.174343
0.269017 0.270155 0.270393
0.288164 0.287401 0.287463
0.209840 0.207567 0.206301
0.180025 0.180195 0.180235
0.236973 0.251775 0.253380
0.238513 0.241497 0.241238
0.209315 0.208897 0.209132
0.221872 0.227797 0.228403
0.233689 0.234385 0.233442
0.198459 0.197921 0.197473
0.208529 0.205417 0.205441
0.134331 0.134875 0.134376
0.212275 0.212199 0.212061
0.245019 0.251779 0.252429
0.178205 0.178541 0.179583
0.185119 0.186805 0.185387
0.157210 0.155668 0.163335
0.139370 0.139767 0.139842
0.149327 0.149701 0.149191
0.206528 0.204977 0.204757
0.229490 0.229691 0.229704
0.154142 0.154094 0.154143
0.240148 0.240077 0.240257
0.166215 0.166355 0.166810
0.177764 0.177761 0.178127
0.223540 0.223343 0.219302
0.267693 0.268653 0.272708
0.209118 0.208946 0.209262
0.156395 0.156719 0.156549
0.138580 0.136977 0.136322
0.256688 0.256833 0.257394
0.179135 0.179158 0.179233
0.197312 0.200087 0.199327
0.149247 0.149255 0.148802
0.130901 0.131094 0.132161
0.254733 0.249622 0.250215
0.192946 0.190843 0.176749
0.209105 0.208994 0.209484
0.244200 0.245640 0.247387
0.209472 0.209628 0.211458
0.162517 0.162314 0.163839
0.284191 0.284654 0.284877
0.120318 0.118951 0.120215
0.214359 0.213300 0.211742
0.536591 0.534338 0.524657
0.216642 0.218438 0.222730
0.155272 0.156158 0.155943
0.274775 0.271257 0.271841
0.132317 0.132455 0.133360
0.252960 0.253073 0.252484
0.214339 0.216561 0.228183
0.145327 0.144766 0.146161
0.221982 0.220852 0.217517
0.163202 0.163544 0.164370
0.262265 0.263053 0.262629
0.256574 0.257423 0.256889
0.163493 0.163674 0.163696
0.226393 0.226313 0.227528
0.184460 0.187138 0.188309
0.241929 0.243611 0.245086
0.177156 0.172446 0.172428
0.222867 0.218418 0.218540
0.234456 0.235231 0.242389
0.207942 0.209061 0.209977
0.226853 0.226516 0.223248
0.188168 0.190651 0.190512
0.202368 0.219544 0.220127
0.175593 0.173964 0.174831
0.236589 0.237034 0.238506
0.271203 0.270914 0.270506
0.181795 0.181657 0.181330
0.189531 0.188390 0.188947
0.217013 0.216596 0.208796
0.241939 0.241807 0.240183
0.258597 0.260239 0.261011
0.216158 0.213060 0.213165
0.233473 0.233424 0.233426
0.182257 0.178549 0.175593
0.183814 0.182862 0.182977
0.265091 0.259768 0.258504
0.133826 0.134065 0.134340
0.269140 0.268946 0.269224
0.135447 0.134536 0.134566
0.126760 0.127981 0.129468
0.246645 0.232924 0.231310
0.207379 0.207313 0.208108
0.177120 0.178103 0.178522
0.211413 0.211792 0.210816
0.237151 0.236945 0.236826
0.134631 0.134590 0.135286
0.222390 0.222980 0.222857
0.179340 0.178654 0.178972
0.242982 0.241856 0.240923
0.279693 0.278901 0.278306
0.192229 0.192555 0.185170
0.176495 0.178001 0.178208
0.214363 0.214698 0.227955
0.234815 0.236320 0.236284
0.285000 0.285472 0.285474
0.240988 0.239322 0.239343
0.232986 0.233207 0.228819
0.154061 0.153605 0.154717
0.164977 0.165318 0.164441
0.228332 0.229098 0.229468
0.217776 0.216439 0.213048
0.245259 0.246766 0.247304
0.127834 0.127246 0.127176
0.152769 0.152277 0.152009
0.161863 0.159705 0.158609
0.247052 0.246099 0.245940
0.270970 0.266642 0.266603
0.116715 0.117765 0.117356
0.141219 0.140680 0.140563
0.135109 0.135031 0.134286
0.226250 0.226998 0.226166
0.278621 0.277794 0.277037
0.276748 0.276835 0.278192
