0.180845 0.180950 0.181333
0.186249 0.186137 0.184519
0.177074 0.177178 0.177611
0.178173 0.178804 0.178415
0.160651 0.161494 0.161365
0.174052 0.173916 0.178631
0.202834 0.204284 0.203346
0.181313 0.180936 0.181176
0.182019 0.182643 0.183659
0.146143 0.146128 0.145054
0.182262 0.182088 0.182194
0.274278 0.274330 0.274354
0.139198 0.139631 0.140223
0.156113 0.156110 0.153134
0.291536 0.291808 0.292097
0.188916 0.185647 0.184326
0.133050 0.134161 0.134116
0.193285 0.192557 0.193068
0.251110 0.251651 0.252036
0.233418 0.232669 0.233037
0.169672 0.169453 0.169443
0.174517 0.174605 0.173093
0.182960 0.183388 0.183153
0.161585 0.160745 0.161253
0.180216 0.178605 0.178484
0.171384 0.171681 0.165450
0.146429 0.149525 0.150696
0.183248 0.183976 0.183839
0.149988 0.151555 0.150886
0.150063 0.152926 0.152898
0.199578 0.200408 0.201455
0.144175 0.144741 0.145208
0.153219 0.152610 0.152097
0.197521 0.197228 0.198582
0.164120 0.163989 0.167930
0.167874 0.167851 0.167355
0.161084 0.162546 0.163161
0.187255 0.187394 0.188379
0.258729 0.260640 0.260735
0.177235 0.172944 0.177765
0.167361 0.166671 0.168231
0.149273 0.149136 0.148957
0.177459 0.179120 0.179193
0.163761 0.164989 0.166050
0.163550 0.163082 0.162495
0.166406 0.166588 0.167469
0.209695 0.209368 0.208953
0.146615 0.146981 0.147684
0.231019 0.231840 0.233426
0.211002 0.211335 0.210702
0.133342 0.133419 0.134077
0.221525 0.221438 0.221664
0.192493 0.191532 0.190554
0.189769 0.190667 0.190337
0.154177 0.155083 0.153396
0.149803 0.149964 0.150857
0.158211 0.156911 0.157138
0.160663 0.160465 0.160234
0.187860 0.189466 0.190689
0.211607 0.211525 0.208701
0.299020 0.302302 0.303491
0.178249 0.178499 0.179723
0.200822 0.200458 0.201603
0.177615 0.176433 0.174975
0.190287 0.192662 0.193389
0.190307 0.190586 0.190687
0.160645 0.160849 0.161041
0.134824 0.136541 0.142305
0.158991 0.164772 0.165121
0.167599 0.169672 0.170017
0.169246 0.168667 0.167109
0.221550 0.221580 0.221316
0.171163 0.177819 0.180708
0.184867 0.185143 0.184681
0.180170 0.180134 0.177599
0.166912 0.164857 0.165161
0.145748 0.146397 0.148765
0.162358 0.162341 0.162216
0.205768 0.206573 0.207869
0.164690 0.165433 0.164982
0.214705 0.213486 0.212178
0.161994 0.163574 0.163873
0.181926 0.183445 0.205514
0.163018 0.164435 0.164198
0.169493 0.171416 0.172840
0.145257 0.146438 0.146991
0.161570 0.162414 0.161874
0.162618 0.164871 0.162366
0.157660 0.157690 0.156636
0.194985 0.194075 0.192455
0.161909 0.164690 0.165433
0.202680 0.199267 0.199981
0.161516 0.159850 0.160321
0.189259 0.188904 0.189171
0.197357 0.198045 0.195905
0.215458 0.215238 0.214358
0.134841 0.135755 0.135747
0.138629 0.138437 0.138662
0.175835 0.176565 0.177363
0.219334 0.219282 0.218024
0.148678 0.149886 0.151348
0.195279 0.193985 0.192098
0.163844 0.163564 0.163943
0.177265 0.177636 0.177664
0.193791 0.193902 0.193981
0.206427 0.205185 0.204110
0.150890 0.150182 0.151080
0.198073 0.198628 0.197873
0.164979 0.161514 0.162144
0.152825 0.151867 0.152223
0.214059 0.214878 0.216311
0.178720 0.177855 0.178218
0.190532 0.183787 0.184045
0.166317 0.167427 0.185687
0.194022 0.192315 0.191027
0.198625 0.198495 0.198566
0.206016 0.207060 0.206232
0.177163 0.178783 0.179116
0.159071 0.159959 0.161237
0.144233 0.144115 0.144101
0.167688 0.169406 0.170353
0.190936 0.189764 0.190019
0.150759 0.149739 0.147394
0.204349 0.204131 0.199530
0.183431 0.183472 0.184092
0.166274 0.166252 0.163674
0.150415 0.148853 0.149390
0.189610 0.189692 0.189811
0.154895 0.154596 0.154666
0.151287 0.159191 0.159352
0.150685 0.153544 0.155422
0.163871 0.163098 0.165178
0.147138 0.147427 0.148357
0.179618 0.179923 0.179029
0.212228 0.212192 0.211770
0.167360 0.168071 0.168323
0.209717 0.209783 0.208769
0.146302 0.147944 0.148144
0.145714 0.144974 0.145003
0.215353 0.216155 0.216488
0.203904 0.202565 0.202725
0.153447 0.154193 0.156683
0.192509 0.192012 0.191540
0.207899 0.208150 0.208843
0.129965 0.127970 0.127852
0.225981 0.226499 0.223113
0.137583 0.136540 0.134224
0.217113 0.216793 0.210873
0.143269 0.143483 0.142689
0.201497 0.202405 0.202462
0.184300 0.185057 0.185945
0.182874 0.182826 0.182503
0.199467 0.199784 0.199601
0.152049 0.154264 0.153959
0.178732 0.179504 0.178996
0.157487 0.157763 0.157126
0.309764 0.309550 0.309514
0.159767 0.158903 0.159779
0.314286 0.313451 0.313115
0.192879 0.193382 0.196913
0.148634 0.149332 0.148392
0.201886 0.202801 0.203426
0.155650 0.154183 0.150349
0.156637 0.156917 0.157348
0.208023 0.206448 0.205682
0.177673 0.177125 0.182285
0.184063 0.179555 0.176801
0.206706 0.210561 0.209374
0.177082 0.178921 0.178319
0.174965 0.179038 0.180873
0.200482 0.196371 0.195672
0.152048 0.154382 0.157037
0.158448 0.159078 0.159245
0.142795 0.140479 0.139167
0.161801 0.161728 0.162418
0.218394 0.217163 0.190550
0.196940 0.197355 0.198169
0.208156 0.208349 0.209521
0.188279 0.187111 0.188909
0.216220 0.216732 0.217406
0.156129 0.156139 0.156267
0.132109 0.132743 0.134649
0.193975 0.192372 0.191770
0.188010 0.187909 0.187628
0.174561 0.174761 0.171061
0.140510 0.138851 0.138908
0.220116 0.220521 0.221050
0.146565 0.146450 0.146615
0.171358 0.171452 0.171376
0.159159 0.158380 0.158032
0.205030 0.205536 0.212320
0.140329 0.141195 0.140293
0.181602 0.182739 0.182355
0.157705 0.157994 0.159129
0.140044 0.139963 0.140310
0.151871 0.151387 0.149044
0.138950 0.139574 0.139935
0.158288 0.158886 0.158428
0.225214 0.224482 0.225231
0.146739 0.147337 0.148387
0.166841 0.173639 0.170885
0.146274 0.146286 0.144828
0.208275 0.208291 0.208309
0.160614 0.161562 0.161650
0.167296 0.167362 0.166638
0.212228 0.212148 0.211436
0.165061 0.165083 0.165737
0.156141 0.156367 0.155761
0.154376 0.154117 0.153547
0.175335 0.175288 0.176149
0.194999 0.195643 0.195785
0.194144 0.195670 0.196276
0.137292 0.137968 0.138150
0.159265 0.157486 0.156986
0.208522 0.207623 0.207460
0.160291 0.159473 0.160023
0.214349 0.214537 0.214993
0.204772 0.204485 0.204190
0.182354 0.183729 0.183740
0.174359 0.174337 0.175402
0.190753 0.190742 0.190772
0.143100 0.143373 0.143561
0.140668 0.140349 0.139864
0.204050 0.199272 0.194172
0.169445 0.169295 0.169910
0.154344 0.153344 0.153631
0.161450 0.162302 0.162179
0.154767 0.154879 0.154647
0.162270 0.162184 0.162431
0.147215 0.149689 0.149828
0.170018 0.169313 0.168247
0.182664 0.181217 0.180853
0.161585 0.160507 0.160873
0.149828 0.149686 0.149181
0.148753 0.148300 0.148780
0.194514 0.193809 0.194254
0.155552 0.154871 0.154967
0.210630 0.210174 0.210284
0.162905 0.163997 0.164876
0.166907 0.167928 0.167818
0.188933 0.199251 0.199008
0.188911 0.188994 0.198746
0.270461 0.270438 0.270474
0.206880 0.205716 0.204883
0.165152 0.165206 0.165284
0.161885 0.159996 0.159500
0.165147 0.164879 0.165727
0.159230 0.159195 0.160199
0.179655 0.180476 0.182991
0.184652 0.185202 0.185925
0.170236 0.170964 0.171124
0.223767 0.223463 0.223490
0.202476 0.200477 0.200029
0.192931 0.193019 0.192982
0.171115 0.172329 0.173266
0.198288 0.200992 0.192280
0.208839 0.207734 0.206445
0.167190 0.167322 0.167296
0.140372 0.140733 0.140672
0.184500 0.173377 0.172376
0.199053 0.201023 0.201741
0.178484 0.177986 0.178185
0.199651 0.199824 0.199977
0.178305 0.178199 0.178126
0.164968 0.162798 0.162239
0.196316 0.194850 0.193816
0.193836 0.193378 0.192387
0.163726 0.161890 0.160400
0.188483 0.188378 0.188189
0.176901 0.174710 0.167948
0.197686 0.196428 0.195390
0.195224 0.195607 0.196254
0.168214 0.167806 0.167491
0.143284 0.142953 0.144805
0.154883 0.152725 0.152160
0.181091 0.181280 0.180355
0.172072 0.171701 0.172060
0.264613 0.265023 0.264885
0.180328 0.181187 0.180133
0.181947 0.182266 0.184266
0.164147 0.166323 0.165091
0.188070 0.193875 0.195522
0.195324 0.192645 0.194064
0.314578 0.314392 0.312830
0.167837 0.167957 0.167841
0.152389 0.151834 0.150443
0.203278 0.203943 0.204064
0.173795 0.173464 0.173615
0.167799 0.167916 0.167673
0.199818 0.201451 0.201388
0.128104 0.130119 0.132107
0.172972 0.172928 0.173625
0.206312 0.206461 0.206183
0.182585 0.181376 0.181009
0.219856 0.219166 0.218627
0.202253 0.201665 0.202345
0.199308 0.198459 0.198376
0.189722 0.190210 0.189769
0.159601 0.158836 0.160303
0.145134 0.144888 0.144988
0.149752 0.150487 0.150949
0.292130 0.289972 0.286211
0.183198 0.183667 0.187101
0.165789 0.166299 0.165549
0.189137 0.185873 0.183368
0.140513 0.143255 0.143398
0.202842 0.202399 0.202225
0.176250 0.176190 0.175727
0.203904 0.204299 0.207472
0.281250 0.282101 0.284597
0.143613 0.143283 0.141600
0.203636 0.203254 0.203767
0.179233 0.176992 0.177459
0.177221 0.177568 0.178240
0.174747 0.179947 0.180628
0.151016 0.151145 0.150015
0.173592 0.173354 0.178070
0.141564 0.141917 0.140991
0.170686 0.170622 0.169421
0.152365 0.154357 0.153706
0.146376 0.146245 0.148316
0.167342 0.168033 0.167661
0.118730 0.120592 0.126821
0.194512 0.193192 0.196875
0.136790 0.139339 0.135688
0.269041 0.269466 0.269502
0.294554 0.294602 0.297752
0.289972 0.286211 0.278495
0.198663 0.197852 0.199104
0.223139 0.221879 0.221898
0.186454 0.185929 0.184520
0.157236 0.157178 0.157981
0.144817 0.144887 0.145199
0.178563 0.174929 0.175504
0.191349 0.190840 0.190123
0.200010 0.203019 0.201849
0.146179 0.145061 0.145930
0.182758 0.182292 0.182074
0.277725 0.278135 0.278272
0.252014 0.252340 0.252063
0.138207 0.138805 0.136534
0.127966 0.127450 0.127492
0.174820 0.173646 0.173413
0.196566 0.196501 0.196164
0.164698 0.164295 0.164116
0.202286 0.203020 0.202085
0.212285 0.211228 0.211255
0.195936 0.194404 0.194737
0.168346 0.168689 0.169895
0.233484 0.233790 0.233644
0.155940 0.155628 0.154393
0.145157 0.143164 0.142927
0.148851 0.150317 0.154010
0.163970 0.161918 0.161928
0.156475 0.156708 0.166276
0.198045 0.197137 0.195077
0.150999 0.150825 0.150736
0.154735 0.156638 0.157081
0.260716 0.260507 0.261516
0.298806 0.301383 0.302299
0.139222 0.139316 0.139882
0.199362 0.199512 0.199419
0.155645 0.154761 0.153833
0.151414 0.149685 0.151701
0.162688 0.163018 0.164435
0.198876 0.197007 0.197625
0.172944 0.173347 0.174646
0.203342 0.204284 0.202628
0.169994 0.170504 0.171847
0.153377 0.152571 0.151993
0.133715 0.134308 0.133982
0.157184 0.156408 0.156385
0.195949 0.196314 0.196310
0.157615 0.156468 0.156332
0.164940 0.165406 0.168147
0.204417 0.204615 0.202967
0.180485 0.181306 0.181028
0.134377 0.134952 0.134761
0.165611 0.165677 0.163609
0.155966 0.156556 0.156217
0.149546 0.146343 0.143013
0.149955 0.148445 0.144638
0.144898 0.144792 0.143766
0.212302 0.213508 0.216089
0.188131 0.187544 0.186777
0.154426 0.153951 0.153413
0.188165 0.188209 0.188761
0.210094 0.209659 0.209025
0.148627 0.148260 0.148533
0.170327 0.169145 0.169234
0.241261 0.239288 0.241304
0.272650 0.267738 0.264929
0.142329 0.142392 0.143691
0.188722 0.189160 0.190845
0.155848 0.150745 0.148228
0.169989 0.170569 0.170967
0.161262 0.157138 0.155554
0.171821 0.171553 0.171561
0.187847 0.191249 0.186671
0.174455 0.175071 0.175382
0.168447 0.161630 0.161562
0.148086 0.148385 0.148116
0.183315 0.183303 0.184784
0.180012 0.176872 0.176446
0.203563 0.203829 0.204050
0.197827 0.196960 0.196221
0.158625 0.157842 0.164691
0.212417 0.213112 0.212852
0.165184 0.165524 0.164888
0.151650 0.152717 0.153049
0.145926 0.144898 0.144792
0.155988 0.156049 0.156370
0.167329 0.169433 0.169372
0.225578 0.225008 0.223299
0.172258 0.172600 0.172135
0.195283 0.194702 0.194830
0.120320 0.120805 0.119892
0.163178 0.162084 0.160145
0.183375 0.183267 0.182511
0.212739 0.213867 0.213533
0.221650 0.221432 0.222053
0.158621 0.158989 0.159339
0.203720 0.205072 0.208248
0.177379 0.177447 0.177844
0.197242 0.204116 0.205359
0.168800 0.168691 0.169556
0.165024 0.165425 0.167227
0.213001 0.214135 0.213482
0.145995 0.145817 0.145363
0.184368 0.178946 0.179127
0.146469 0.147124 0.147426
0.203271 0.203554 0.211781
0.169635 0.169878 0.169627
0.155751 0.155702 0.154899
0.128825 0.127552 0.127813
0.232343 0.230421 0.230548
0.192871 0.192361 0.193032
0.154924 0.154935 0.155055
0.166070 0.166737 0.166935
0.216225 0.215003 0.214418
0.204299 0.205671 0.206123
0.263044 0.264164 0.266941
0.215112 0.214293 0.213404
0.195379 0.194934 0.200197
0.209944 0.210579 0.210469
0.198998 0.197764 0.198040
0.150218 0.150003 0.149273
0.198658 0.198789 0.198491
0.140944 0.140377 0.140096
0.179622 0.179861 0.179759
0.155214 0.154559 0.154382
0.225971 0.225757 0.222144
0.160032 0.159757 0.158892
0.217542 0.217599 0.216625
0.132604 0.131889 0.130890
0.149779 0.150004 0.151054
0.139498 0.136938 0.136758
0.193679 0.194757 0.194702
0.155052 0.154974 0.153727
0.176867 0.177742 0.180122
0.206190 0.205296 0.203090
0.143023 0.141268 0.140279
0.149703 0.149836 0.150025
0.193810 0.194172 0.195315
0.189740 0.190347 0.190302
0.208752 0.206940 0.206400
0.189879 0.190352 0.190333
0.150801 0.149207 0.148443
0.193656 0.195268 0.196642
0.209816 0.209615 0.209142
0.151901 0.152970 0.152550
0.173105 0.173338 0.173965
0.173451 0.172764 0.173810
0.205713 0.206232 0.205179
0.253387 0.253371 0.252914
0.205670 0.206122 0.205875
0.151750 0.153028 0.153747
0.184467 0.184676 0.184300
0.135199 0.135275 0.134350
0.175756 0.174479 0.176983
0.166101 0.166656 0.167675
0.201430 0.200903 0.198889
0.164350 0.163211 0.163542
0.145028 0.143201 0.142837
0.194533 0.195029 0.195596
0.181197 0.180949 0.181020
0.167848 0.167762 0.166510
0.164825 0.159290 0.160309
0.137832 0.138272 0.138083
0.155617 0.155756 0.155773
0.201949 0.201857 0.203544
0.154589 0.156006 0.155595
0.291302 0.290379 0.289773
0.161353 0.161289 0.158046
0.172946 0.173779 0.176748
0.204783 0.205227 0.204063
0.179595 0.180185 0.180194
0.174204 0.173887 0.174395
0.172747 0.173969 0.173645
0.171250 0.172013 0.171368
0.205994 0.198199 0.195703
0.195671 0.196003 0.196263
0.165098 0.165177 0.165806
0.165553 0.166245 0.166668
0.206684 0.207161 0.207115
0.170392 0.169274 0.169445
0.162520 0.161493 0.161363
0.189497 0.189182 0.188236
0.310202 0.310284 0.310558
0.148684 0.148138 0.148682
0.204288 0.204939 0.204814
0.153291 0.153515 0.153781
0.187141 0.187847 0.191249
0.198704 0.197449 0.197261
0.193289 0.193683 0.192239
0.167608 0.169807 0.170503
0.153893 0.156478 0.159380
0.146245 0.148316 0.152409
0.170611 0.171143 0.170018
0.192964 0.195102 0.196001
0.138956 0.139532 0.139278
0.163161 0.162315 0.161508
0.158702 0.158469 0.157985
0.162422 0.162552 0.163155
0.178042 0.179483 0.179514
0.177594 0.178429 0.178653
0.181503 0.181927 0.181266
0.166855 0.166573 0.167580
0.291031 0.289272 0.281867
0.215468 0.216192 0.215717
0.165936 0.165779 0.166233
0.152735 0.154011 0.156283
0.172628 0.172232 0.171618
0.140625 0.140236 0.139672
0.155047 0.157384 0.158666
0.215801 0.217058 0.217827
0.232061 0.231938 0.231882
0.132972 0.132837 0.132709
0.192271 0.193458 0.194461
0.158740 0.158663 0.158158
0.142975 0.142550 0.142300
0.188188 0.188134 0.188209
0.164502 0.164753 0.163835
0.193578 0.195855 0.196139
0.203743 0.201765 0.194233
0.209948 0.210311 0.208240
0.182542 0.181903 0.181897
0.152961 0.153244 0.151967
0.168796 0.168955 0.168038
0.211157 0.220218 0.229308
0.173225 0.172976 0.174709
0.218547 0.220935 0.224242
0.152483 0.152605 0.152561
0.204840 0.204876 0.204013
0.189538 0.188822 0.192313
0.167968 0.165310 0.165011
0.157080 0.157445 0.157776
0.194219 0.197155 0.197462
0.184205 0.183755 0.178148
0.165091 0.166173 0.165507
0.159930 0.159918 0.159783
0.219314 0.214262 0.215301
0.171129 0.170749 0.170161
0.149704 0.149549 0.150513
0.148031 0.146952 0.147214
0.201573 0.198267 0.199884
0.206503 0.206698 0.206804
0.160839 0.160971 0.160496
0.164060 0.163855 0.163802
0.143476 0.143036 0.141138
0.156224 0.156037 0.156959
0.197747 0.195964 0.194329
0.216249 0.215458 0.215238
0.168186 0.167432 0.164372
0.152872 0.152312 0.153454
0.182808 0.181903 0.181685
0.163736 0.163868 0.164721
0.206518 0.206860 0.205852
0.163272 0.163945 0.163529
0.159983 0.162420 0.163998
0.198789 0.198196 0.198919
0.153987 0.154376 0.154117
0.237118 0.238628 0.239894
0.150239 0.148965 0.148909
0.182734 0.183537 0.180674
0.180844 0.181183 0.181816
0.199885 0.199457 0.199049
0.202193 0.204957 0.205054
0.145099 0.146037 0.145562
0.160309 0.160344 0.163153
0.150551 0.150703 0.151532
0.222732 0.220537 0.219596
0.147586 0.144078 0.144043
0.148231 0.147820 0.148576
0.150871 0.151207 0.151756
0.168979 0.167782 0.166445
0.152355 0.152934 0.153104
0.172443 0.174034 0.170943
0.163561 0.163667 0.165780
0.166821 0.166194 0.165572
0.168431 0.167790 0.169842
0.211189 0.211680 0.211715
0.162556 0.162750 0.162655
0.162452 0.162881 0.164019
0.174449 0.171797 0.172194
0.223463 0.223490 0.221364
0.166032 0.168227 0.167714
0.269475 0.268952 0.268942
0.210885 0.211030 0.210799
0.176831 0.172582 0.170458
0.180022 0.179519 0.170552
0.208314 0.209965 0.209992
0.191462 0.191823 0.191355
0.161868 0.161518 0.161737
0.173621 0.179573 0.183741
0.142576 0.142338 0.142506
0.150811 0.150239 0.150005
0.171801 0.171466 0.171637
0.202933 0.204953 0.227545
0.172730 0.169755 0.169347
0.152641 0.147380 0.149629
0.243588 0.243710 0.244001
0.154974 0.154205 0.154538
0.164504 0.165166 0.167796
0.178482 0.175396 0.174390
0.162185 0.161953 0.161024
0.191698 0.190800 0.187925
0.194023 0.193933 0.195865
0.179247 0.185381 0.185594
0.244098 0.244618 0.245225
0.183084 0.184658 0.185070
0.145952 0.147181 0.148166
0.149698 0.149437 0.146279
0.168008 0.166810 0.166779
0.168248 0.167127 0.166810
0.185227 0.181180 0.178707
0.227399 0.227488 0.227002
0.172181 0.173510 0.174150
0.145162 0.146302 0.145693
0.120164 0.120320 0.120805
0.152012 0.151850 0.151155
0.249467 0.249848 0.248156
0.192188 0.195702 0.195016
0.134724 0.134185 0.133310
0.137577 0.137811 0.137689
0.151107 0.150683 0.151614
0.143982 0.143924 0.144903
0.206908 0.206380 0.198163
0.206941 0.206632 0.204869
0.150996 0.149912 0.148522
0.195942 0.195734 0.195286
0.178104 0.178158 0.181697
0.273710 0.272461 0.265989
0.266124 0.265857 0.244415
0.268990 0.269117 0.269068
0.148599 0.151688 0.152249
0.213100 0.213128 0.212567
0.156644 0.155491 0.156332
0.209095 0.209113 0.208747
0.151266 0.150894 0.150767
0.188098 0.187233 0.186310
0.160950 0.161252 0.160981
0.207112 0.206686 0.205885
0.167377 0.166385 0.164388
0.204288 0.201037 0.196228
0.176698 0.177272 0.177197
0.152731 0.152085 0.152451
0.169366 0.169540 0.169371
0.166050 0.169985 0.170556
0.150290 0.152085 0.152380
0.201921 0.201707 0.203768
0.144288 0.144065 0.141606
0.198432 0.198398 0.197742
0.191727 0.191418 0.187610
0.176538 0.176001 0.175651
0.178644 0.177794 0.177171
0.170597 0.171535 0.172094
0.157842 0.164691 0.165475
0.148279 0.149472 0.149220
0.289090 0.288967 0.288956
0.167431 0.168237 0.166292
0.134554 0.134549 0.135515
0.140399 0.140145 0.139380
0.181784 0.182155 0.185516
0.172660 0.171888 0.171398
0.162592 0.163155 0.161630
0.187428 0.187423 0.186944
0.156673 0.158039 0.158092
0.167173 0.167338 0.166685
0.188218 0.190351 0.190556
0.167655 0.167761 0.168120
0.263390 0.263790 0.263522
0.163299 0.164498 0.164145
0.156235 0.158002 0.157375
0.150436 0.150632 0.150759
0.164587 0.164118 0.161279
0.153696 0.153775 0.152911
0.148903 0.148869 0.148628
0.149817 0.148902 0.148835
0.136193 0.136664 0.139150
0.210479 0.210382 0.210867
0.153457 0.153167 0.154460
0.146798 0.146976 0.147744
0.165496 0.166299 0.167060
0.143065 0.140504 0.139883
0.216655 0.189166 0.186977
0.176041 0.174059 0.174306
0.198334 0.196298 0.195008
0.244127 0.243940 0.243950
0.207902 0.208836 0.208515
0.167498 0.167969 0.167443
0.190444 0.189782 0.186418
0.155696 0.156384 0.156949
0.178120 0.178059 0.179179
0.217115 0.217097 0.216171
0.205265 0.200450 0.201518
0.158304 0.158506 0.159558
0.158708 0.159929 0.159894
0.151618 0.151647 0.151928
0.209521 0.209666 0.209982
0.224242 0.223923 0.223501
0.127779 0.128186 0.128408
0.136566 0.135551 0.131959
0.150875 0.150666 0.150901
0.179785 0.177803 0.177075
0.165603 0.165182 0.164440
0.199314 0.200186 0.199641
0.190521 0.190593 0.190288
0.214166 0.214996 0.212543
0.153150 0.152464 0.152228
0.191406 0.190822 0.189416
0.201261 0.201235 0.201490
0.150568 0.150867 0.151370
0.159927 0.159433 0.156804
0.179338 0.179934 0.180220
0.171241 0.171785 0.172234
0.153228 0.152136 0.153462
0.216050 0.217444 0.218065
0.188129 0.187962 0.190563
0.133269 0.133365 0.134660
0.158852 0.158578 0.158664
0.157099 0.155052 0.154750
0.178642 0.175002 0.174340
0.209580 0.209517 0.212058
0.145022 0.143947 0.144420
0.180758 0.181024 0.181218
0.168666 0.169257 0.169515
0.152650 0.152273 0.152376
0.195468 0.198897 0.199022
0.173223 0.173491 0.172947
0.204904 0.204825 0.204795
0.138289 0.141115 0.141401
0.176034 0.176156 0.178176
0.181452 0.176636 0.177852
0.183317 0.182327 0.180609
0.159725 0.160007 0.160629
0.169873 0.170948 0.172001
0.148705 0.148556 0.148455
0.190806 0.190401 0.190933
0.150331 0.150852 0.151078
0.144811 0.144123 0.142910
0.143144 0.145667 0.148470
0.188249 0.193592 0.193473
0.141066 0.139616 0.138854
0.204105 0.203495 0.201566
0.164572 0.164006 0.164899
0.171339 0.171344 0.172729
0.161670 0.162247 0.163193
0.139473 0.139719 0.140406
0.202512 0.200969 0.200169
0.159523 0.160344 0.160334
0.164803 0.163180 0.162345
0.178516 0.177975 0.177359
0.155277 0.152389 0.151834
0.220511 0.220086 0.219708
0.180248 0.179720 0.178727
0.151278 0.149866 0.149165
0.270068 0.270095 0.270451
0.189798 0.191249 0.190166
0.172268 0.170008 0.168554
0.127088 0.127154 0.126586
0.252453 0.251484 0.250376
0.154033 0.154073 0.154843
0.178578 0.179559 0.179142
0.291924 0.292235 0.291928
0.209521 0.209773 0.208693
0.200095 0.205760 0.206485
0.200928 0.200872 0.199681
0.172629 0.171025 0.170901
0.184006 0.182402 0.182539
0.182831 0.182704 0.182023
0.168511 0.168017 0.168767
0.147824 0.147778 0.147502
0.161810 0.161972 0.161205
0.273513 0.273939 0.274350
0.214097 0.214043 0.213874
0.165790 0.164025 0.164135
0.196378 0.195911 0.195767
0.178652 0.182843 0.182834
0.194476 0.195015 0.195537
0.199852 0.199995 0.198758
0.191787 0.188297 0.188360
0.155116 0.156730 0.158362
0.143542 0.143695 0.144068
0.163498 0.162701 0.162787
0.150181 0.150236 0.149581
0.163592 0.161302 0.160966
0.190175 0.193217 0.193503
0.204485 0.204190 0.204505
0.175014 0.174361 0.174027
0.203098 0.203306 0.203746
0.167104 0.167608 0.169807
0.166676 0.166708 0.166545
0.250112 0.250744 0.251227
0.177894 0.177784 0.174283
0.172158 0.171720 0.171150
0.267738 0.264929 0.262938
0.208035 0.208330 0.208183
0.177494 0.180489 0.180451
0.143664 0.143035 0.142613
0.158952 0.157911 0.159226
0.199521 0.199736 0.199484
0.209859 0.209841 0.208371
0.192496 0.191173 0.191020
0.164998 0.167253 0.166106
0.182921 0.183199 0.183090
0.154747 0.156206 0.156622
0.144224 0.143014 0.138630
0.167634 0.166820 0.166715
0.274261 0.274101 0.271161
0.167389 0.191845 0.198496
0.163184 0.163097 0.162577
0.201569 0.200104 0.199855
0.183830 0.181643 0.179366
0.167691 0.167647 0.166679
0.239311 0.238275 0.238035
0.173339 0.173805 0.174225
0.194130 0.196578 0.196061
0.165900 0.166303 0.166778
0.202584 0.201405 0.202264
0.221480 0.222115 0.222583
0.147964 0.142861 0.143571
0.191778 0.191079 0.218558
0.189343 0.189099 0.188371
0.304624 0.304585 0.304655
0.167392 0.166991 0.167066
0.214622 0.214654 0.213603
0.163593 0.162476 0.162266
0.146827 0.146851 0.147267
0.284203 0.292647 0.293363
0.177820 0.179008 0.180017
0.145788 0.145677 0.145911
0.162667 0.162847 0.163167
0.215239 0.215691 0.215809
0.211617 0.208864 0.203049
0.141242 0.139589 0.139166
0.167294 0.169952 0.170002
0.204595 0.205655 0.205566
0.155487 0.155789 0.155863
0.159414 0.162242 0.162796
0.205721 0.205380 0.206586
0.281612 0.282652 0.283213
0.148112 0.148162 0.148143
0.151777 0.151955 0.152012
0.158268 0.157749 0.157708
0.169038 0.172694 0.172736
0.198291 0.197196 0.197552
0.151613 0.150607 0.149169
0.137529 0.137672 0.136693
0.132608 0.135203 0.136490
0.178199 0.177760 0.178074
0.183624 0.184020 0.182359
0.160325 0.159425 0.159237
0.142655 0.140715 0.141190
0.213984 0.213197 0.214059
0.160411 0.160851 0.160567
0.140102 0.140024 0.139889
0.151892 0.151871 0.151387
0.174319 0.174557 0.174414
0.158280 0.158501 0.158957
0.147148 0.148402 0.153188
0.134171 0.133834 0.134014
0.177333 0.178142 0.180191
0.217491 0.220176 0.203926
0.185035 0.184759 0.183591
0.186325 0.186445 0.182252
0.227449 0.227813 0.228361
0.158805 0.158211 0.157327
0.166984 0.165706 0.165843
0.178988 0.178931 0.179195
0.186083 0.186748 0.185055
0.162176 0.163620 0.163822
0.149392 0.149962 0.147897
0.150493 0.153774 0.153759
0.167234 0.167045 0.169188
0.174659 0.174541 0.174518
0.176663 0.172977 0.184916
0.168621 0.168887 0.167382
0.151905 0.151527 0.150186
0.152111 0.152383 0.152133
0.147063 0.146787 0.145993
0.166192 0.165308 0.162656
0.175586 0.174820 0.173646
0.161413 0.165432 0.166008
0.204310 0.204352 0.205851
0.152219 0.153941 0.154092
0.203445 0.206185 0.206518
0.185181 0.184180 0.184449
0.205173 0.206530 0.207476
0.176972 0.176472 0.176748
0.167918 0.167874 0.167717
0.173162 0.172845 0.173159
0.145168 0.143807 0.140531
0.206678 0.206967 0.208267
0.167227 0.167374 0.171669
0.199267 0.199981 0.200565
0.192661 0.197958 0.198245
0.161934 0.161482 0.160787
0.238111 0.237385 0.237037
0.162167 0.163567 0.162721
0.156353 0.156213 0.155881
0.151462 0.152618 0.153138
0.152234 0.153958 0.153454
0.149763 0.149040 0.148227
0.286124 0.286573 0.287108
0.180441 0.180064 0.180104
0.208937 0.208237 0.206373
0.140698 0.140355 0.140245
0.144502 0.145503 0.145079
0.179976 0.179339 0.179532
0.225851 0.224960 0.213740
0.152131 0.153042 0.153168
0.182548 0.182812 0.183725
0.187416 0.186457 0.184707
0.176591 0.176754 0.176610
0.153175 0.152947 0.154315
0.294793 0.300125 0.302273
0.224544 0.225137 0.227424
0.210366 0.210484 0.210060
0.162366 0.164219 0.166901
0.178119 0.177878 0.177429
0.151623 0.151336 0.151672
0.203838 0.200604 0.199638
0.169185 0.167684 0.167655
0.165161 0.164723 0.164874
0.247504 0.246765 0.245997
0.171165 0.167524 0.167186
0.167029 0.165765 0.165983
0.138512 0.138061 0.138576
0.170261 0.170502 0.167958
0.193475 0.193036 0.192918
0.187246 0.187428 0.187423
0.155460 0.155164 0.155376
0.153278 0.152839 0.151853
0.222404 0.222497 0.221978
0.145175 0.144270 0.145144
0.146021 0.144714 0.143995
0.208795 0.210262 0.209962
0.169731 0.170883 0.172259
0.281394 0.283925 0.288002
0.202892 0.202174 0.200280
0.198447 0.199013 0.199033
0.198036 0.196913 0.197272
0.196592 0.195520 0.195725
0.137551 0.144497 0.146355
0.199143 0.200749 0.201134
0.194885 0.194561 0.194046
0.161603 0.161477 0.161449
0.166303 0.166778 0.167451
0.133059 0.132676 0.132594
0.198152 0.196247 0.196573
0.159000 0.158304 0.158506
0.154725 0.154626 0.153537
0.194053 0.194853 0.196012
0.190389 0.189786 0.185417
0.152756 0.152033 0.151535
0.181821 0.182076 0.181073
0.255753 0.255891 0.255929
0.194557 0.191503 0.190986
0.203160 0.203563 0.203829
0.151316 0.150760 0.150151
0.193870 0.193508 0.193370
0.140266 0.140448 0.138604
0.173319 0.173340 0.173002
0.172428 0.171889 0.172005
0.204367 0.203641 0.204364
0.156139 0.156267 0.155992
0.230530 0.230800 0.231038
0.174261 0.168568 0.161908
0.146735 0.145737 0.144894
0.160987 0.164170 0.164023
0.163924 0.163332 0.164562
0.147906 0.147284 0.147106
0.190211 0.191978 0.195375
0.140534 0.140233 0.140372
0.126959 0.127362 0.128123
0.133075 0.132444 0.133352
0.155420 0.156455 0.156373
0.140446 0.140215 0.140137
0.165710 0.165881 0.165530
