0.355975 0.352607 0.353093
0.291804 0.291728 0.290964
0.264092 0.260688 0.260577
0.265392 0.247292 0.246057
0.097456 0.098197 0.098983
0.254553 0.255540 0.257391
0.175100 0.174504 0.173313
0.237562 0.235728 0.234984
0.177522 0.177520 0.176557
0.225154 0.225049 0.219921
0.164115 0.162706 0.162694
0.169940 0.171152 0.170680
0.210025 0.209880 0.209872
0.156060 0.158513 0.158676
0.169293 0.169189 0.168777
0.401342 0.400855 0.401522
0.170604 0.171031 0.175809
0.171814 0.170243 0.170721
0.355143 0.346945 0.331721
0.175874 0.174675 0.175563
0.280145 0.280961 0.284430
0.159430 0.159341 0.159247
0.258946 0.255155 0.253561
0.244063 0.243844 0.242890
0.219948 0.221643 0.222295
0.209598 0.208976 0.208406
0.161946 0.162034 0.162511
0.185498 0.186170 0.186848
0.516941 0.512130 0.510436
0.246440 0.254544 0.254822
0.181336 0.181483 0.186126
0.205924 0.205442 0.207406
0.291794 0.291773 0.292178
0.245494 0.243948 0.243244
0.207198 0.206781 0.206664
0.284064 0.284208 0.285511
0.176885 0.176916 0.176798
0.235286 0.235060 0.231362
0.522379 0.525035 0.527017
0.261666 0.260396 0.259384
0.210552 0.207571 0.206968
0.262770 0.262729 0.264987
0.202918 0.208568 0.208640
0.242439 0.243456 0.241300
0.171813 0.171502 0.171227
0.267558 0.271398 0.271223
0.204807 0.204821 0.207372
0.349856 0.349878 0.350048
0.557610 0.559230 0.559815
0.289613 0.289564 0.289387
0.146963 0.148208 0.150544
0.373906 0.375421 0.398156
0.371040 0.362056 0.359389
0.235703 0.236047 0.235799
0.293200 0.289216 0.289479
0.203891 0.186368 0.182625
0.602200 0.603704 0.602882
0.256112 0.260196 0.268287
0.287730 0.278267 0.278248
0.450165 0.446931 0.455756
0.415013 0.420056 0.428300
0.196120 0.193315 0.190918
0.324375 0.323996 0.323725
0.325188 0.326224 0.325685
0.226833 0.226775 0.226476
0.455481 0.450721 0.437083
0.170927 0.170980 0.169341
0.147898 0.148083 0.148134
0.242255 0.243388 0.243767
0.182407 0.181283 0.181069
0.169668 0.168433 0.168195
0.185599 0.185881 0.187700
0.565676 0.585107 0.587753
0.225010 0.215200 0.214492
0.471041 0.500470 0.505831
0.150989 0.151869 0.162194
0.210417 0.210076 0.209892
0.210837 0.235881 0.237402
0.207808 0.207587 0.207741
0.213130 0.214046 0.214818
0.209594 0.211477 0.215544
0.150884 0.151467 0.152536
0.215861 0.212911 0.212703
0.155187 0.154862 0.154083
0.268785 0.268442 0.264527
0.207354 0.208904 0.210423
0.235843 0.237070 0.236741
0.614412 0.617614 0.624249
0.198497 0.197917 0.197570
0.222298 0.225197 0.226338
0.170839 0.170463 0.175035
0.256747 0.256957 0.257003
0.177716 0.177274 0.177032
0.201704 0.201485 0.201693
0.193242 0.196046 0.198462
0.249179 0.233783 0.230320
0.159272 0.159704 0.159720
0.487073 0.487963 0.488387
0.161791 0.161445 0.161155
0.378311 0.377333 0.391838
0.147576 0.143698 0.145043
0.284804 0.282564 0.281356
0.187941 0.185529 0.184082
0.296626 0.291790 0.292023
0.254777 0.254971 0.257213
0.174785 0.174456 0.173855
0.186456 0.186725 0.185865
0.501154 0.501481 0.502198
0.251250 0.252260 0.252255
0.260400 0.260329 0.260836
0.262179 0.262647 0.262314
0.391899 0.391795 0.391096
0.626312 0.624442 0.615091
0.225478 0.222696 0.221898
0.176872 0.176529 0.176427
0.176360 0.176700 0.176437
0.271243 0.271046 0.271256
0.281029 0.280724 0.279744
0.355678 0.358278 0.356957
0.251882 0.251980 0.251996
0.234766 0.233589 0.234548
0.153756 0.154694 0.155058
0.123954 0.124132 0.123912
0.250545 0.251930 0.252766
0.219279 0.219304 0.218187
0.326857 0.320936 0.326659
0.240717 0.240133 0.239753
0.176394 0.176166 0.176443
0.158250 0.157830 0.157721
0.235569 0.237212 0.239073
0.535646 0.535744 0.534382
0.190886 0.190193 0.188049
0.243731 0.236814 0.233317
0.525959 0.497332 0.495502
0.218438 0.219097 0.219766
0.193466 0.192735 0.192730
0.555441 0.554757 0.552478
0.162993 0.163315 0.166826
0.228826 0.228744 0.228282
0.271518 0.270314 0.270233
0.236168 0.234263 0.235400
0.201935 0.202044 0.200012
0.267738 0.267851 0.268462
0.248145 0.247396 0.246784
0.266785 0.265984 0.265060
0.188004 0.195401 0.195911
0.225339 0.222390 0.221956
0.186265 0.186744 0.186879
0.374232 0.373798 0.374550
0.375193 0.375285 0.375272
0.231468 0.232871 0.235983
0.333334 0.329142 0.328240
0.215840 0.215595 0.215429
0.174281 0.174522 0.174473
0.183884 0.183615 0.183782
0.269564 0.270129 0.268287
0.183373 0.183722 0.184439
0.162389 0.162565 0.162677
0.216704 0.218569 0.217265
0.196521 0.197088 0.197224
0.198825 0.199491 0.197805
0.207815 0.207956 0.206578
0.205258 0.206393 0.210149
0.176885 0.177543 0.177330
0.128684 0.128154 0.127914
0.218175 0.218851 0.219162
0.282954 0.283001 0.283051
0.156029 0.158501 0.158571
0.229612 0.230070 0.230735
0.174280 0.173544 0.172870
0.203234 0.203450 0.203247
0.200005 0.199513 0.199464
0.164033 0.164098 0.164026
0.174658 0.175213 0.174093
0.303276 0.303676 0.303572
0.201649 0.201639 0.201428
0.168429 0.168597 0.174318
0.218331 0.216190 0.213936
0.171938 0.171950 0.172136
0.258537 0.257402 0.260335
0.215990 0.215748 0.215617
0.178212 0.178171 0.178790
0.221717 0.221329 0.221104
0.333848 0.328292 0.314445
0.179131 0.178835 0.178652
0.305931 0.305870 0.304589
0.552478 0.542252 0.540485
0.279625 0.281442 0.280950
0.170083 0.163633 0.163866
0.261486 0.262326 0.261953
0.170701 0.175759 0.189461
0.257424 0.268352 0.277905
0.221715 0.222278 0.222943
0.562306 0.561588 0.561412
0.160567 0.160717 0.160482
0.238460 0.240192 0.240579
0.210928 0.210912 0.209813
0.185545 0.184234 0.183989
0.450033 0.429034 0.427653
0.249932 0.250124 0.241875
0.378912 0.380311 0.381151
0.193488 0.190979 0.190057
0.238437 0.236442 0.233344
0.289213 0.289613 0.289564
0.186721 0.186265 0.185326
0.210311 0.209681 0.209932
0.191516 0.190136 0.189995
0.129463 0.126789 0.133171
0.145549 0.143784 0.139209
0.449054 0.448745 0.449442
0.256667 0.257710 0.257488
0.350387 0.352341 0.355136
0.178698 0.176696 0.175532
0.171033 0.170786 0.170598
0.256048 0.256394 0.256377
0.199284 0.199364 0.199855
0.186670 0.187732 0.187794
0.205093 0.206410 0.207030
0.161771 0.159577 0.158649
0.247657 0.244255 0.237359
0.457324 0.456862 0.465252
0.547494 0.548610 0.550240
0.250335 0.248428 0.247638
0.212082 0.211092 0.208940
0.157687 0.158131 0.158529
0.255585 0.254773 0.255057
0.324864 0.321178 0.316989
0.234647 0.234478 0.234856
0.640055 0.644995 0.649715
0.301364 0.300161 0.300450
0.253616 0.255936 0.256283
0.260836 0.259999 0.261360
0.203639 0.203605 0.203739
0.290185 0.289796 0.290636
0.346518 0.372019 0.378637
0.173179 0.172667 0.161797
0.215631 0.216228 0.216672
0.488153 0.496780 0.495807
0.399744 0.401080 0.401389
0.198566 0.202640 0.203285
0.165837 0.164629 0.157172
0.274712 0.275369 0.279227
0.275674 0.276271 0.283005
0.233323 0.234577 0.236144
0.385623 0.380899 0.379058
0.581312 0.581019 0.581887
0.206141 0.210174 0.210900
0.206938 0.211156 0.212328
0.204926 0.204825 0.204807
0.164849 0.165626 0.166751
0.204400 0.203907 0.204025
0.122171 0.122243 0.122104
0.262257 0.261614 0.256837
0.159586 0.159657 0.159761
0.356090 0.318471 0.316088
0.187476 0.185695 0.185593
0.215829 0.205799 0.211240
0.186039 0.187496 0.187908
0.144922 0.145218 0.145196
0.185740 0.188135 0.194835
0.242153 0.241078 0.239581
0.291499 0.293093 0.292957
0.209889 0.210162 0.209990
0.164314 0.164564 0.164095
0.254592 0.255524 0.257393
0.199333 0.204446 0.204082
0.126620 0.125388 0.125586
0.376076 0.364233 0.368165
0.172261 0.173614 0.174336
0.206071 0.205741 0.206141
0.203785 0.204017 0.207815
0.215494 0.215622 0.216217
0.207136 0.208988 0.209110
0.649996 0.651497 0.656106
0.127502 0.128272 0.128108
0.292411 0.292939 0.294214
0.197527 0.196338 0.196298
0.126525 0.126083 0.126186
0.341524 0.340029 0.339967
0.218842 0.215598 0.216100
0.226805 0.224424 0.226285
0.235186 0.234852 0.236093
0.303655 0.303748 0.303731
0.380104 0.360913 0.354928
0.409671 0.405537 0.409077
0.390586 0.389924 0.389090
0.148126 0.148666 0.152160
0.153266 0.153582 0.153551
0.314868 0.316040 0.313740
0.178638 0.185231 0.185911
0.155482 0.154491 0.147820
0.369735 0.368310 0.367704
0.203766 0.208051 0.208852
0.431447 0.427220 0.427110
0.144876 0.144917 0.147608
0.215690 0.218898 0.220214
0.292178 0.289256 0.286463
0.639616 0.641437 0.648427
0.208443 0.208373 0.208378
0.172421 0.172038 0.170700
0.231129 0.233306 0.233747
0.157805 0.144044 0.140939
0.472464 0.477224 0.480908
0.271433 0.267140 0.247131
0.209841 0.209900 0.210052
0.475918 0.478937 0.479624
0.329701 0.329376 0.326467
0.430360 0.436331 0.414338
0.162130 0.161365 0.161088
0.266062 0.267179 0.267089
0.232416 0.232652 0.232500
0.203161 0.203054 0.200707
0.255864 0.255552 0.255538
0.158643 0.158151 0.158004
0.179544 0.179629 0.179914
0.211734 0.213961 0.213873
0.160759 0.160667 0.160407
0.373314 0.372695 0.371371
0.413839 0.414102 0.412656
0.500206 0.510811 0.524364
0.224436 0.224072 0.223371
0.343499 0.343720 0.343809
0.495221 0.497019 0.497350
0.363543 0.363460 0.362833
0.403462 0.405703 0.404612
0.164136 0.164095 0.164289
0.319305 0.318683 0.320032
0.288733 0.290772 0.287857
0.360629 0.360000 0.365698
0.238313 0.238319 0.239271
0.188769 0.188679 0.188330
0.380215 0.377827 0.378191
0.171974 0.172130 0.174280
0.222292 0.222482 0.221883
0.166094 0.166786 0.171465
0.132180 0.132965 0.132360
0.262443 0.262444 0.262491
0.173730 0.166012 0.163737
0.208263 0.209036 0.216144
0.096591 0.097234 0.097097
0.651705 0.651397 0.634117
0.225048 0.225394 0.221931
0.148516 0.148610 0.148621
0.292836 0.292644 0.292350
0.257437 0.257602 0.257899
0.211156 0.212328 0.211077
0.251956 0.252054 0.253743
0.171888 0.171806 0.170814
0.283132 0.282416 0.281823
0.125561 0.126407 0.126805
0.233296 0.234297 0.239139
0.261269 0.262906 0.263080
0.458712 0.456594 0.456102
0.423156 0.423351 0.422981
0.162588 0.162514 0.162471
0.242546 0.235586 0.231547
0.435225 0.435583 0.435944
0.185604 0.185131 0.185182
0.156197 0.157248 0.157375
0.249367 0.251267 0.260363
0.442042 0.424686 0.420558
0.256300 0.256701 0.265584
0.171568 0.174825 0.175212
0.219887 0.219677 0.219196
0.205187 0.202422 0.199155
0.241920 0.242035 0.247067
0.218983 0.207245 0.200433
0.353821 0.356584 0.357964
0.203982 0.205205 0.205156
0.214822 0.215973 0.218962
0.177868 0.178121 0.178341
0.387977 0.388908 0.389294
0.224426 0.221316 0.220505
0.421851 0.425293 0.425028
0.142871 0.143872 0.138059
0.301474 0.311578 0.313262
0.165875 0.164336 0.163745
0.370375 0.371333 0.370964
0.179563 0.179676 0.179358
0.210665 0.201379 0.201927
0.180753 0.180943 0.181173
0.386121 0.386140 0.386587
0.127914 0.128085 0.128034
0.173099 0.171946 0.171781
0.257321 0.259925 0.261878
0.363939 0.363551 0.363451
0.566257 0.571330 0.571145
0.190098 0.193265 0.192160
0.129170 0.128586 0.126304
0.152160 0.152777 0.152758
0.395284 0.394708 0.395103
0.645159 0.636278 0.636822
0.215439 0.215638 0.216120
0.127828 0.128708 0.127891
0.192883 0.192782 0.192615
0.350004 0.351208 0.351158
0.152933 0.153850 0.155209
0.181204 0.181069 0.181242
0.207236 0.210965 0.211908
0.279624 0.289196 0.288641
0.232817 0.233527 0.235344
0.192381 0.192736 0.193191
0.440196 0.441100 0.442404
0.435601 0.456985 0.453042
0.234520 0.234149 0.234312
0.247597 0.244150 0.243912
0.165159 0.164748 0.164570
0.158506 0.158593 0.159194
0.221954 0.221287 0.222539
0.535420 0.535811 0.534986
0.413197 0.411125 0.401721
0.186541 0.186664 0.186858
0.177850 0.178286 0.182237
0.332107 0.333016 0.338378
0.193758 0.194524 0.193955
0.409090 0.412052 0.415387
0.148852 0.147659 0.147728
0.287249 0.287217 0.287227
0.342244 0.342924 0.343740
0.520958 0.496208 0.494580
0.228046 0.228274 0.228533
0.159324 0.165097 0.164485
0.205383 0.206770 0.206872
0.369430 0.378902 0.379548
0.156438 0.161774 0.162409
0.168264 0.168588 0.168727
0.220450 0.218651 0.218505
0.253854 0.254033 0.255182
0.209189 0.205372 0.202557
0.180084 0.180871 0.183726
0.344121 0.343237 0.351182
0.400014 0.390584 0.389217
0.565967 0.573654 0.583700
0.498398 0.490049 0.490647
0.150270 0.150188 0.150989
0.224611 0.220028 0.220177
0.184322 0.184161 0.183865
0.198652 0.197804 0.197504
0.200676 0.200917 0.202688
0.312745 0.315734 0.315921
0.613914 0.613951 0.620517
0.124098 0.124017 0.124105
0.232820 0.231937 0.227467
0.234996 0.231225 0.231163
0.190338 0.190911 0.191288
0.189161 0.188907 0.188747
0.499135 0.499145 0.498934
0.164834 0.165976 0.165766
0.145955 0.144721 0.139262
0.152766 0.153234 0.153490
0.178201 0.178901 0.179284
0.268919 0.268787 0.268781
0.144704 0.144819 0.145077
0.409773 0.412506 0.423206
0.305916 0.304833 0.304868
0.270495 0.269368 0.268407
0.126955 0.125650 0.116852
0.193855 0.193698 0.193817
0.271221 0.271105 0.270620
0.207246 0.207013 0.207208
0.159245 0.159403 0.159598
0.242342 0.240663 0.239833
0.138033 0.145522 0.144090
0.261486 0.255879 0.250368
0.499124 0.499106 0.498593
0.224241 0.224975 0.223856
0.347420 0.346949 0.345855
0.156912 0.156708 0.157482
0.154302 0.148169 0.146754
0.413063 0.411882 0.411949
0.157542 0.153376 0.148585
0.221358 0.221935 0.220931
0.208955 0.213555 0.217264
0.225984 0.223434 0.222941
0.284336 0.283493 0.282569
0.124089 0.126257 0.124045
0.559914 0.558341 0.559210
0.173668 0.174366 0.175304
0.238059 0.235375 0.234777
0.503323 0.502844 0.503122
0.263616 0.262214 0.260446
0.162015 0.162164 0.165252
0.381047 0.381503 0.383597
0.190498 0.192563 0.191316
0.282106 0.278284 0.277253
0.425101 0.422368 0.409188
0.219677 0.219196 0.217026
0.216914 0.237850 0.255083
0.184762 0.184625 0.184596
0.248163 0.254327 0.281320
0.147838 0.155783 0.156218
0.185568 0.185066 0.185395
0.718929 0.719720 0.721373
0.184671 0.184337 0.184186
0.202944 0.202228 0.199467
0.171964 0.171857 0.171899
0.458159 0.460653 0.465167
0.174928 0.174110 0.173259
0.215175 0.218056 0.219375
0.271545 0.267609 0.247853
0.220023 0.221448 0.226922
0.646148 0.644698 0.640401
0.430104 0.436383 0.414379
0.304932 0.305219 0.306279
0.770428 0.770814 0.772382
0.180067 0.178937 0.178467
0.187552 0.187263 0.187155
0.456520 0.456278 0.453923
0.162666 0.161221 0.152907
0.265797 0.265210 0.247356
0.184213 0.184214 0.184173
0.431692 0.431411 0.438631
0.256290 0.256079 0.255701
0.211847 0.213132 0.214712
0.252001 0.251892 0.250598
0.201446 0.203848 0.203952
0.208806 0.209651 0.208792
0.162481 0.163429 0.163230
0.254745 0.251870 0.246848
0.545645 0.545547 0.545432
0.240489 0.240311 0.239993
0.172794 0.171735 0.171917
0.258723 0.258180 0.254115
0.137422 0.137811 0.136601
0.181715 0.180781 0.179854
0.259931 0.261506 0.261027
0.149161 0.158703 0.158876
0.161831 0.161468 0.162619
0.268759 0.268953 0.268893
0.176242 0.175315 0.171950
0.250492 0.253514 0.255541
0.413000 0.439821 0.442608
0.246375 0.247678 0.243319
0.243420 0.239533 0.237032
0.161486 0.161091 0.158422
0.391560 0.392145 0.391714
0.161060 0.159155 0.158633
0.176445 0.176192 0.175262
0.476321 0.471298 0.474832
0.205210 0.206952 0.207335
0.370191 0.369267 0.368793
0.181237 0.176449 0.176187
0.253875 0.253255 0.252476
0.211992 0.211679 0.213944
0.227457 0.226807 0.234501
0.173706 0.176803 0.177621
0.167258 0.166342 0.165844
0.593069 0.592450 0.591804
0.496997 0.494785 0.495662
0.184340 0.184062 0.187903
0.185688 0.186054 0.187786
0.163926 0.165027 0.165400
0.187743 0.187555 0.184607
0.351572 0.353113 0.353516
0.162090 0.162515 0.162242
0.152536 0.154198 0.155263
0.548489 0.549249 0.550598
0.164360 0.165498 0.165671
0.449822 0.456304 0.474173
0.330878 0.323202 0.321436
0.257560 0.258793 0.258208
0.403855 0.394701 0.386387
0.207255 0.206437 0.207856
0.129958 0.129686 0.129470
0.387946 0.387250 0.384763
0.209641 0.209078 0.204720
0.212712 0.213103 0.213184
0.134839 0.134570 0.134315
0.230198 0.230341 0.229625
0.158577 0.158813 0.158621
0.157468 0.157644 0.157463
0.185547 0.186239 0.186876
0.186838 0.186447 0.187967
0.169597 0.166113 0.166901
0.413861 0.408108 0.408092
0.227199 0.230057 0.230128
0.205213 0.204355 0.203898
0.200074 0.203899 0.198257
0.242825 0.242499 0.241351
0.222769 0.222805 0.223200
0.315013 0.314952 0.316816
0.158866 0.159361 0.159078
0.167241 0.167538 0.168469
0.253417 0.252589 0.252507
0.241239 0.240859 0.241327
0.535744 0.534382 0.532263
0.180131 0.182194 0.174694
0.298290 0.299029 0.299193
0.108629 0.109091 0.109437
0.169299 0.172691 0.171952
0.286443 0.286311 0.286700
0.275653 0.274906 0.274684
0.187100 0.185897 0.185899
0.189883 0.189762 0.189602
0.204735 0.202167 0.203229
0.172102 0.171514 0.171159
0.190095 0.189412 0.183511
0.288430 0.288285 0.287221
0.163531 0.164637 0.164856
0.214404 0.214389 0.214373
0.454418 0.456678 0.458161
0.251892 0.250598 0.249441
0.426925 0.427700 0.427733
0.147466 0.147331 0.148638
0.328489 0.328973 0.327366
0.228258 0.222106 0.221279
0.302287 0.291794 0.291773
0.244467 0.243418 0.241473
0.226714 0.225701 0.225284
0.249341 0.249932 0.250124
0.200313 0.200688 0.200911
0.292661 0.290495 0.288530
0.194198 0.194567 0.193043
0.158439 0.157675 0.157637
0.146199 0.146473 0.146599
0.192736 0.193191 0.193322
0.226380 0.226382 0.226368
0.294273 0.298330 0.298351
0.197355 0.201287 0.201569
0.312256 0.312394 0.311989
0.241787 0.242436 0.241654
0.513275 0.511541 0.509288
0.144819 0.145077 0.145067
0.161033 0.160756 0.160353
0.252095 0.251144 0.250768
0.388364 0.388432 0.387825
0.255121 0.255554 0.256935
0.215327 0.215128 0.215270
0.192872 0.196879 0.197672
0.169969 0.163192 0.163909
0.206366 0.209347 0.210901
0.413650 0.410173 0.410541
0.209813 0.207511 0.206792
0.550170 0.548424 0.547777
0.147162 0.147234 0.147192
0.170996 0.173577 0.174283
0.465883 0.460815 0.454524
0.182617 0.183878 0.183732
0.490874 0.490666 0.490594
0.244840 0.245547 0.245272
0.170701 0.171143 0.170779
0.245461 0.253386 0.256336
0.216968 0.218533 0.222986
0.257796 0.258300 0.258861
0.137429 0.136289 0.136285
0.211092 0.208940 0.202501
0.130109 0.128570 0.129151
0.184461 0.184010 0.182924
0.220958 0.218886 0.216861
0.199272 0.199475 0.200435
0.206545 0.206062 0.205932
0.207400 0.194083 0.193796
0.412775 0.412375 0.411928
0.166743 0.171461 0.171730
0.218424 0.214295 0.214082
0.395759 0.402882 0.412058
0.145427 0.141246 0.140648
0.252641 0.257685 0.268771
0.334552 0.333796 0.333848
0.613944 0.614059 0.608242
0.259679 0.260963 0.263075
0.195172 0.194403 0.193881
0.480024 0.478239 0.481009
0.209625 0.209634 0.210231
0.245586 0.245340 0.245427
0.220084 0.221131 0.221697
0.173863 0.173532 0.172938
0.252172 0.251420 0.251762
0.212238 0.210993 0.210569
0.202547 0.205178 0.204910
0.493457 0.495217 0.514487
0.265499 0.264708 0.264538
0.167216 0.170190 0.172019
0.458091 0.458403 0.462953
0.328035 0.328463 0.329274
0.252259 0.251774 0.251427
0.251237 0.252336 0.252240
0.230970 0.230880 0.230571
0.254462 0.254266 0.254192
0.250179 0.250270 0.249045
0.222222 0.224981 0.219826
0.385935 0.386499 0.389314
0.190107 0.193963 0.193296
0.256274 0.256147 0.255585
0.303320 0.303517 0.304608
0.223455 0.223981 0.228267
0.209214 0.208358 0.210046
0.326301 0.326632 0.328563
0.158857 0.159489 0.159799
0.478281 0.481234 0.480684
0.261229 0.260526 0.259194
0.229733 0.229425 0.229666
0.228130 0.232960 0.237557
0.157959 0.158090 0.158287
0.226338 0.226069 0.225888
0.313464 0.313585 0.316262
0.189154 0.189090 0.189545
0.244647 0.244427 0.241298
0.179822 0.181258 0.182133
0.213366 0.213302 0.212901
0.210401 0.220176 0.221351
0.231391 0.231405 0.231425
0.216772 0.216770 0.215236
0.356027 0.356122 0.356027
0.214852 0.224530 0.224533
0.239224 0.239283 0.240834
0.297755 0.296909 0.295691
0.156341 0.159407 0.158208
0.163630 0.165422 0.168019
0.157488 0.157656 0.158614
0.342109 0.342559 0.342584
0.159252 0.158688 0.157704
0.202435 0.205701 0.206461
0.177105 0.175970 0.176003
0.250286 0.248746 0.249258
0.326635 0.328489 0.328973
0.213362 0.213492 0.214928
0.208134 0.208428 0.206682
0.250105 0.253517 0.253888
0.235930 0.236007 0.234674
0.169170 0.169307 0.178354
0.173928 0.173921 0.174570
0.189933 0.193543 0.193288
0.230108 0.230192 0.230056
0.387806 0.386971 0.378163
0.224853 0.224621 0.222073
0.206171 0.205562 0.205987
0.164410 0.164720 0.168273
0.156418 0.159534 0.162371
0.143876 0.144525 0.144728
0.275485 0.275763 0.308858
0.181487 0.181506 0.182859
0.475418 0.423903 0.409671
0.194913 0.196515 0.197641
0.165237 0.165176 0.164071
0.198698 0.205041 0.205521
0.246717 0.247166 0.247225
0.302921 0.303761 0.303720
0.256203 0.255672 0.253664
0.307461 0.309095 0.309169
0.199249 0.196069 0.194406
0.180736 0.171393 0.171738
0.280251 0.281152 0.284203
0.253247 0.252526 0.251700
0.313914 0.313359 0.312792
0.290943 0.290869 0.285625
0.239506 0.239567 0.247111
0.195867 0.192444 0.192435
0.262632 0.265142 0.262863
0.195639 0.190409 0.185249
0.187796 0.189461 0.190798
0.286257 0.286224 0.286150
0.181127 0.182631 0.182919
0.144029 0.144318 0.144244
0.147361 0.148811 0.176836
0.337391 0.336577 0.339171
0.167844 0.167400 0.167258
0.158062 0.154094 0.153258
0.133555 0.133457 0.135558
0.193973 0.194138 0.191211
0.216330 0.217113 0.218412
0.181020 0.180626 0.180587
0.158913 0.158258 0.158448
0.153786 0.153786 0.156236
0.161500 0.161915 0.162536
0.651397 0.634117 0.630456
0.188360 0.189319 0.189405
0.215719 0.216595 0.217585
0.317126 0.316208 0.316074
0.171807 0.171195 0.169978
0.381053 0.380992 0.381504
0.158684 0.157364 0.154768
0.201947 0.199711 0.198765
0.337162 0.342414 0.343739
0.183876 0.187449 0.187881
0.231609 0.229038 0.227993
0.160389 0.160917 0.158120
0.208292 0.208285 0.208435
0.314520 0.314192 0.313903
0.130026 0.129572 0.129721
0.328433 0.326988 0.319244
0.283124 0.282655 0.281147
0.175224 0.174683 0.173684
0.343582 0.342905 0.346901
0.251019 0.252093 0.252003
0.192391 0.191960 0.187100
0.215519 0.216112 0.223073
0.253591 0.253498 0.253228
0.248222 0.244123 0.241381
0.427371 0.430722 0.431481
0.290132 0.294407 0.295387
0.228264 0.235266 0.235038
0.164122 0.164718 0.160616
0.197783 0.196816 0.196385
0.241870 0.243665 0.243284
0.364162 0.362959 0.361061
0.181112 0.179161 0.173498
0.519705 0.515880 0.500923
0.443711 0.446210 0.450449
0.184290 0.184079 0.188171
0.197869 0.199373 0.201064
0.330315 0.337086 0.343024
0.158354 0.155177 0.152632
0.186099 0.186112 0.186495
0.224340 0.221727 0.219855
0.494753 0.495077 0.493978
0.240600 0.243957 0.252519
0.242154 0.242097 0.241648
0.654532 0.654553 0.654574
0.235656 0.234572 0.233405
0.211679 0.213944 0.214249
0.257125 0.256976 0.257187
0.223150 0.218018 0.217046
0.124105 0.122667 0.121800
0.126722 0.134082 0.141659
0.208005 0.209475 0.209212
0.169018 0.169109 0.169229
0.234167 0.229070 0.228332
0.168562 0.177860 0.185095
0.413394 0.413063 0.411882
0.235400 0.235261 0.234874
0.243219 0.243722 0.243950
0.626751 0.629003 0.649978
0.271398 0.271223 0.268602
0.219789 0.223042 0.222259
0.148185 0.148142 0.148076
0.142757 0.142827 0.143616
0.146583 0.145923 0.145991
0.201505 0.201127 0.197652
0.259750 0.259711 0.259121
0.211502 0.211910 0.212348
0.236192 0.234801 0.227844
0.284115 0.284247 0.286856
0.175452 0.171623 0.170111
0.549905 0.550076 0.548792
0.281640 0.283451 0.284175
0.191577 0.192911 0.194359
0.211908 0.212188 0.210908
0.205136 0.205269 0.205445
0.207632 0.207825 0.207889
0.242926 0.243844 0.243630
0.170657 0.170261 0.170998
0.547257 0.594215 0.600164
0.297831 0.296464 0.295143
0.167085 0.169429 0.171584
0.216791 0.215176 0.214139
0.144972 0.147506 0.147961
0.268709 0.268836 0.268966
0.544979 0.549160 0.558413
0.156699 0.156763 0.156471
0.474975 0.474616 0.468213
0.194104 0.194056 0.195800
0.194777 0.194438 0.196743
0.295808 0.295989 0.296369
0.179786 0.178298 0.177850
0.201836 0.202386 0.203390
0.379918 0.379249 0.375193
0.178248 0.178473 0.178788
0.215600 0.215040 0.211179
0.298715 0.298419 0.301971
0.215450 0.215324 0.215418
0.167079 0.162395 0.162540
0.300269 0.298761 0.296921
0.288660 0.288711 0.288820
0.266104 0.264848 0.261760
0.183890 0.185197 0.181419
0.174761 0.169573 0.169936
0.149854 0.150517 0.150763
0.284518 0.286146 0.286047
0.235996 0.235922 0.235899
0.269490 0.267612 0.267899
0.183347 0.183872 0.183619
0.381112 0.381092 0.381482
0.391042 0.390596 0.390601
0.152801 0.152934 0.154454
0.250411 0.238960 0.237293
0.251737 0.252124 0.251803
0.164898 0.166065 0.166052
0.264065 0.263987 0.262697
0.663830 0.658257 0.648627
0.194255 0.194235 0.193842
0.268407 0.268230 0.260170
0.258831 0.261117 0.259501
0.157357 0.157340 0.157064
0.158446 0.156622 0.156567
0.258830 0.258614 0.262820
0.239139 0.233253 0.224087
0.268474 0.268774 0.268970
0.227403 0.226473 0.227454
0.116669 0.114470 0.114383
0.220041 0.220568 0.220958
0.294425 0.295370 0.294581
0.244781 0.244127 0.243968
0.241825 0.241896 0.242089
0.167257 0.168194 0.169057
0.250070 0.251627 0.255133
0.230848 0.224650 0.226215
0.179969 0.179897 0.179682
0.243214 0.242209 0.241751
0.178485 0.178933 0.179611
0.206963 0.209610 0.211412
0.175083 0.174365 0.172374
0.190002 0.191363 0.196545
0.147643 0.150578 0.149801
0.241654 0.241664 0.241618
0.210506 0.210975 0.210922
0.164237 0.164634 0.166465
0.254216 0.250013 0.250378
0.378449 0.380029 0.380142
0.164575 0.167058 0.169570
0.263521 0.263383 0.268035
0.175546 0.175765 0.175909
0.197804 0.197504 0.197460
0.169621 0.172658 0.173342
0.174118 0.174253 0.174255
0.688425 0.715737 0.716841
0.176854 0.177818 0.178165
0.300884 0.297552 0.296207
0.260421 0.258092 0.257314
0.178198 0.177184 0.176689
0.456491 0.457939 0.459183
0.210054 0.211936 0.213801
0.477236 0.471332 0.427607
0.205394 0.205908 0.198577
0.202263 0.191660 0.190111
0.252745 0.250405 0.239952
0.258819 0.258701 0.258463
0.493488 0.491351 0.490874
0.184948 0.184586 0.184671
0.242514 0.241992 0.241892
0.244486 0.246003 0.252766
0.339907 0.339746 0.339532
0.159268 0.159653 0.159409
0.214687 0.212622 0.210447
0.158481 0.162655 0.171379
0.346901 0.347584 0.348136
0.187496 0.187908 0.188424
0.240321 0.240287 0.240623
0.346093 0.344629 0.343201
0.214422 0.214399 0.214358
0.213933 0.215107 0.214913
0.290220 0.290661 0.289913
0.247851 0.248153 0.248255
0.174281 0.174577 0.174570
0.164977 0.164028 0.163628
0.358406 0.355319 0.356658
0.242280 0.242123 0.241707
0.181799 0.179989 0.174127
0.254648 0.254706 0.254729
0.411754 0.411595 0.409320
0.351366 0.354614 0.355567
0.183205 0.183954 0.184500
0.249806 0.250490 0.240845
0.210051 0.209968 0.213191
0.155522 0.153723 0.152527
0.236796 0.245636 0.240768
0.434635 0.432469 0.427479
0.197917 0.197570 0.197569
0.206037 0.207143 0.208757
0.495807 0.490991 0.475903
0.210885 0.210927 0.211344
0.135811 0.133427 0.132180
0.225367 0.225709 0.228046
0.770814 0.772382 0.776156
0.180173 0.179581 0.182576
0.183171 0.183969 0.190351
0.257165 0.256857 0.256942
0.178285 0.179100 0.177220
0.182589 0.185487 0.185811
0.173106 0.173926 0.173609
0.170592 0.170704 0.171048
0.265298 0.265810 0.261760
0.167776 0.167469 0.167033
0.274163 0.268532 0.261231
0.622401 0.622248 0.626783
0.217560 0.217403 0.217332
0.176899 0.178515 0.180118
0.161162 0.157522 0.157974
0.162218 0.161593 0.160911
0.635716 0.635271 0.639579
0.241921 0.241908 0.241758
0.240139 0.240247 0.239173
0.653924 0.657516 0.657154
0.251682 0.249361 0.249341
0.168627 0.163292 0.162620
0.263966 0.263950 0.263734
0.510281 0.512061 0.514915
0.149780 0.149066 0.139401
0.207766 0.208982 0.209542
0.238408 0.236601 0.234923
0.210875 0.212209 0.213341
0.358023 0.360460 0.365219
0.245597 0.245351 0.245414
0.460105 0.369644 0.368680
0.200911 0.199223 0.203058
0.146779 0.146642 0.147165
0.276317 0.275567 0.275652
0.372002 0.375191 0.375656
0.285004 0.275107 0.290204
0.438167 0.440662 0.447250
