0.270194 0.267536 0.267510
0.318771 0.317708 0.316746
0.076070 0.076173 0.076620
0.324964 0.324280 0.324821
0.284917 0.283846 0.282526
0.180029 0.179869 0.178799
0.305252 0.304734 0.303990
0.241311 0.233809 0.233059
0.254281 0.254243 0.254009
0.260170 0.264862 0.266466
0.253706 0.250255 0.246993
0.096069 0.100901 0.106161
0.051218 0.050963 0.050808
0.291611 0.291452 0.291436
0.203319 0.179887 0.177120
0.096559 0.096511 0.096514
0.077029 0.073554 0.068163
0.086509 0.087316 0.087136
0.257730 0.257561 0.256362
0.129529 0.130167 0.133159
0.355170 0.356120 0.355857
0.223403 0.223275 0.222356
0.057264 0.057226 0.057589
0.242321 0.241319 0.240429
0.063696 0.062964 0.062188
0.107417 0.107157 0.106967
0.328963 0.328563 0.328748
0.095285 0.094903 0.094449
0.207075 0.207083 0.206775
0.221340 0.221030 0.220923
0.258895 0.247044 0.245636
0.151491 0.151571 0.151265
0.312735 0.308698 0.308804
0.068517 0.067696 0.067790
0.068863 0.069316 0.069479
0.049562 0.049654 0.049372
0.218505 0.218591 0.219696
0.351205 0.347583 0.328293
0.253269 0.251989 0.248801
0.206635 0.206376 0.205881
0.288541 0.287467 0.283937
0.050223 0.050008 0.050059
0.048041 0.048552 0.048616
0.232777 0.233672 0.233185
0.227192 0.226386 0.225967
0.063679 0.064217 0.064534
0.056255 0.056649 0.057168
0.302171 0.306305 0.304768
0.311043 0.309865 0.306065
0.214661 0.215209 0.221597
0.375066 0.368255 0.365967
0.057018 0.056900 0.054324
0.087876 0.087790 0.087501
0.060837 0.060656 0.060299
0.254442 0.257595 0.256258
0.334861 0.333857 0.333472
0.282023 0.282603 0.284054
0.083950 0.083984 0.084106
0.236963 0.240376 0.241231
0.279553 0.277031 0.274716
0.049893 0.049899 0.049911
0.193312 0.193397 0.193387
0.053886 0.053428 0.053229
0.153950 0.153871 0.153641
0.285896 0.279508 0.278925
0.268984 0.268091 0.267228
0.047793 0.048182 0.048281
0.369767 0.370825 0.373305
0.299551 0.297694 0.296598
0.093502 0.093781 0.094463
0.255295 0.255010 0.255290
0.273857 0.268624 0.263544
0.043487 0.043601 0.043608
0.339563 0.340139 0.339336
0.254969 0.255177 0.255623
0.089778 0.089214 0.088875
0.235657 0.235469 0.235586
0.260189 0.263699 0.264609
0.318874 0.318671 0.317270
0.146702 0.146327 0.143880
0.264679 0.262856 0.261528
0.088008 0.088258 0.088129
0.058140 0.058337 0.058683
0.054330 0.054321 0.054336
0.301685 0.309192 0.310401
0.280680 0.282145 0.274735
0.069458 0.068764 0.067629
0.156191 0.154085 0.152317
0.061994 0.061825 0.061485
0.089487 0.093815 0.093975
0.115553 0.116233 0.121189
0.297609 0.298057 0.300433
0.051623 0.051532 0.051320
0.136328 0.133917 0.138759
0.235666 0.233502 0.235114
0.267008 0.263675 0.261230
0.070568 0.071436 0.075445
0.262648 0.263899 0.264439
0.151617 0.151973 0.151634
0.284010 0.282275 0.286115
0.275812 0.274939 0.274400
0.239580 0.241532 0.242655
0.048756 0.048761 0.048184
0.061597 0.061418 0.062149
0.217258 0.217583 0.218131
0.235691 0.239420 0.239064
0.225910 0.221784 0.217532
0.230117 0.228974 0.234599
0.262966 0.265548 0.266286
0.050410 0.049600 0.049532
0.316943 0.317799 0.324500
0.230530 0.230998 0.229755
0.233288 0.233196 0.233896
0.118382 0.118363 0.118367
0.081678 0.081859 0.081629
0.056463 0.058029 0.058179
0.336959 0.332479 0.332951
0.316984 0.314127 0.312728
0.051040 0.051067 0.050352
0.242760 0.242509 0.241689
0.168877 0.168894 0.168890
0.368732 0.368350 0.369020
0.104584 0.104026 0.103133
0.299369 0.300162 0.299393
0.057097 0.057118 0.059767
0.142485 0.145145 0.146578
0.298797 0.298632 0.303380
0.095316 0.094935 0.094603
0.370911 0.372666 0.369357
0.052853 0.052735 0.052718
0.146741 0.146590 0.146808
0.056342 0.056404 0.056484
0.238344 0.234708 0.232805
0.058044 0.058711 0.057012
0.049371 0.049259 0.049063
0.074217 0.074149 0.075723
0.054619 0.054365 0.053902
0.227797 0.229743 0.230716
0.082381 0.082166 0.082149
0.142791 0.143042 0.143281
0.056766 0.057101 0.056988
0.266014 0.265716 0.266324
0.080797 0.081311 0.081418
0.051930 0.052021 0.052184
0.226805 0.228565 0.230729
0.356007 0.359964 0.361082
0.254543 0.255104 0.253860
0.312329 0.311717 0.314516
0.050603 0.052187 0.054578
0.289471 0.287883 0.286122
0.056729 0.059408 0.060208
0.263562 0.270009 0.289205
0.056510 0.056286 0.056203
0.058741 0.058861 0.059264
0.495099 0.494937 0.495554
0.202699 0.202604 0.202621
0.231134 0.229057 0.228990
0.093560 0.093561 0.092963
0.349036 0.350329 0.352785
0.152687 0.154270 0.150880
0.215384 0.214770 0.215625
0.053544 0.053362 0.053576
0.135526 0.135518 0.135416
0.139271 0.139091 0.138661
0.245420 0.243339 0.244655
0.317294 0.304378 0.300982
0.063998 0.066283 0.065981
0.075852 0.075866 0.075923
0.272770 0.272916 0.273133
0.071090 0.069681 0.066347
0.257078 0.258275 0.257812
0.279175 0.278149 0.276673
0.224508 0.224236 0.224861
0.076302 0.081359 0.082570
0.087098 0.086959 0.086926
0.351959 0.352045 0.351769
0.092719 0.092408 0.092372
0.042640 0.042664 0.042995
0.227739 0.227563 0.226737
0.076356 0.078117 0.079955
0.057499 0.057581 0.057658
0.336783 0.338289 0.339267
0.286330 0.286325 0.286050
0.269339 0.266600 0.264981
0.075188 0.073596 0.072459
0.086535 0.101216 0.107480
0.296071 0.293591 0.290703
0.162216 0.162545 0.162558
0.136756 0.135460 0.126001
0.241256 0.233245 0.237801
0.054419 0.054158 0.054148
0.371714 0.371743 0.372332
0.240358 0.241280 0.241493
0.059611 0.059129 0.059391
0.280842 0.281784 0.281652
0.251347 0.250992 0.249231
0.082168 0.082165 0.082216
0.051951 0.052329 0.051653
0.083852 0.084382 0.084426
0.224806 0.224667 0.224601
0.244877 0.244405 0.242249
0.145553 0.145584 0.145007
0.093245 0.093205 0.093442
0.083910 0.084594 0.084602
0.047031 0.047012 0.046910
0.146443 0.142558 0.114616
0.247943 0.248566 0.249505
0.238823 0.240222 0.239934
0.235262 0.234968 0.228607
0.055629 0.055529 0.055246
0.060049 0.060026 0.060032
0.265498 0.263339 0.260801
0.448410 0.452961 0.455074
0.215574 0.214362 0.214140
0.240856 0.240309 0.240045
0.272709 0.275729 0.278790
0.048408 0.048284 0.048421
0.066511 0.066259 0.066249
0.083305 0.084589 0.084493
0.098874 0.099499 0.099783
0.315740 0.318411 0.322178
0.237233 0.239805 0.240176
0.066829 0.066827 0.066804
0.120898 0.120947 0.120100
0.274786 0.272910 0.273437
0.310371 0.310804 0.310473
0.093668 0.094011 0.100787
0.068568 0.068452 0.068933
0.304870 0.305964 0.306169
0.052584 0.051614 0.051680
0.254711 0.253912 0.252974
0.278461 0.278636 0.277104
0.070839 0.070314 0.068919
0.093352 0.093730 0.093748
0.337840 0.340120 0.339043
0.253495 0.251584 0.255577
0.094203 0.094908 0.095407
0.211869 0.206138 0.200587
0.081308 0.081378 0.081585
0.285892 0.287396 0.286724
0.108119 0.108179 0.109961
0.211489 0.210213 0.201665
0.234883 0.231939 0.228258
0.304652 0.304306 0.302561
0.152235 0.153129 0.153228
0.234098 0.235303 0.235928
0.070527 0.070938 0.075133
0.241112 0.243871 0.246392
0.151711 0.153902 0.154918
0.088133 0.088293 0.088097
0.297123 0.297260 0.294889
0.086202 0.086362 0.086151
0.107843 0.113327 0.115569
0.221118 0.218748 0.216706
0.281110 0.281005 0.280570
0.197025 0.199122 0.195424
0.302585 0.303548 0.302180
0.184231 0.186261 0.186788
0.052963 0.052732 0.052620
0.279963 0.280545 0.283352
0.135725 0.135528 0.135878
0.266121 0.264777 0.264623
0.068576 0.068741 0.069054
0.056838 0.056608 0.056419
0.053463 0.053266 0.053478
0.069519 0.070201 0.070257
0.112350 0.111828 0.109205
0.063640 0.063452 0.063539
0.325565 0.326040 0.326326
0.078045 0.078046 0.078056
0.079629 0.079700 0.079565
0.311091 0.308752 0.307327
0.331547 0.329599 0.326764
0.110961 0.111016 0.111043
0.051584 0.051595 0.051169
0.220337 0.219719 0.222927
0.339610 0.339267 0.340157
0.228316 0.228432 0.229190
0.269969 0.274408 0.273390
0.262237 0.259161 0.245628
0.320053 0.322396 0.322841
0.064689 0.064296 0.063583
0.071239 0.071362 0.071407
0.069994 0.070197 0.070501
0.114527 0.114549 0.114521
0.148899 0.147229 0.140178
0.278790 0.279653 0.280763
0.302815 0.300972 0.301437
0.316200 0.318977 0.322498
0.266078 0.269374 0.269641
0.058884 0.058861 0.058849
0.084148 0.084069 0.082309
0.311940 0.309669 0.313479
0.071847 0.071906 0.071222
0.352071 0.352313 0.348197
0.293253 0.295041 0.299305
0.068434 0.067992 0.067888
0.354788 0.353980 0.349513
0.230901 0.232946 0.230311
0.304011 0.303838 0.303194
0.203426 0.203079 0.203039
0.332410 0.333839 0.334005
0.228273 0.228520 0.228314
0.069113 0.068786 0.068576
0.051468 0.050213 0.050053
0.336802 0.339738 0.339585
0.289472 0.289179 0.288403
0.058565 0.058206 0.058618
0.289051 0.293771 0.293705
0.062761 0.062725 0.061726
0.249574 0.249346 0.250529
0.054952 0.054729 0.055537
0.306384 0.312106 0.314203
0.090551 0.091003 0.091171
0.109848 0.110041 0.109941
0.369325 0.373353 0.380692
0.253100 0.258353 0.259548
0.235423 0.235337 0.235478
0.304561 0.304477 0.302809
0.056784 0.056842 0.056669
0.167399 0.167425 0.167549
0.222891 0.213655 0.212978
0.256707 0.255661 0.250126
0.061965 0.061696 0.061765
0.088284 0.088103 0.088057
0.087171 0.087249 0.087987
0.088235 0.088675 0.089109
0.308905 0.311197 0.310167
0.088522 0.088374 0.088390
0.306018 0.306503 0.306152
0.061806 0.061369 0.060687
0.069838 0.070484 0.073481
0.052024 0.051533 0.051274
0.278311 0.278550 0.278595
0.120168 0.122064 0.135933
0.293687 0.293327 0.292880
0.325055 0.325479 0.325656
0.443395 0.444090 0.445416
0.232950 0.232798 0.232688
0.067273 0.067082 0.067022
0.087519 0.090315 0.091017
0.067687 0.067959 0.068053
0.322523 0.321231 0.321919
0.242281 0.235715 0.236501
0.263937 0.267151 0.266657
0.225375 0.225312 0.223893
0.080686 0.080081 0.079726
0.063664 0.063694 0.063630
0.308138 0.299820 0.299430
0.297215 0.297215 0.294558
0.264050 0.265323 0.269016
0.244208 0.242588 0.241034
0.224113 0.224377 0.225375
0.285759 0.286271 0.287289
0.071793 0.072011 0.072283
0.332206 0.323793 0.323713
0.317551 0.313559 0.314248
0.259488 0.260320 0.261182
0.273438 0.277422 0.278197
0.230524 0.223188 0.214310
0.109457 0.098198 0.092229
0.088375 0.088004 0.088067
0.280432 0.282139 0.279376
0.121206 0.120892 0.120723
0.293202 0.288228 0.281536
0.070662 0.070969 0.071243
0.249908 0.249213 0.243415
0.271237 0.270013 0.273536
0.238549 0.239343 0.242284
0.076730 0.077960 0.078685
0.070405 0.070488 0.069739
0.256433 0.255997 0.255203
0.080824 0.081302 0.083580
0.324640 0.323397 0.324237
0.239435 0.238104 0.237358
0.059137 0.059028 0.059050
0.051462 0.051083 0.050548
0.096266 0.096052 0.096375
0.286527 0.292329 0.289140
0.299202 0.300348 0.301973
0.153112 0.152243 0.151561
0.272599 0.276999 0.278121
0.043742 0.044009 0.043917
0.317439 0.314920 0.316128
0.229242 0.228500 0.228186
0.312396 0.311312 0.310724
0.241119 0.242502 0.242192
0.049896 0.049936 0.050142
0.234467 0.234278 0.234398
0.438188 0.439305 0.443974
0.080916 0.080928 0.081030
0.272301 0.270256 0.269847
0.056749 0.057998 0.058488
0.074300 0.074178 0.073765
0.193473 0.187116 0.185239
0.049679 0.049725 0.049539
0.076598 0.076936 0.077140
0.300279 0.300162 0.300644
0.069258 0.067030 0.066473
0.232735 0.232335 0.230430
0.068206 0.069431 0.069693
0.117839 0.117758 0.116430
0.131351 0.131860 0.131964
0.093683 0.093850 0.093958
0.285157 0.282346 0.283599
0.303992 0.304269 0.304870
0.077906 0.077890 0.077802
0.242957 0.239797 0.237923
0.272362 0.272419 0.273566
0.076404 0.076195 0.075399
0.118926 0.118854 0.118884
0.348493 0.348287 0.345869
0.295163 0.301685 0.309192
0.081766 0.082084 0.081933
0.274129 0.273507 0.272638
0.139600 0.139751 0.140007
0.183117 0.183123 0.183499
0.071889 0.072421 0.074127
0.069011 0.069394 0.069807
0.084373 0.083601 0.083521
0.175063 0.173114 0.163000
0.209415 0.210103 0.212613
0.080328 0.079046 0.078754
0.272809 0.275414 0.276929
0.070314 0.067386 0.065548
0.206960 0.203883 0.203178
0.336989 0.333285 0.333660
0.055133 0.055634 0.055770
0.214852 0.215693 0.218834
0.316698 0.318063 0.318795
0.274081 0.272699 0.272813
0.278445 0.277360 0.277915
0.065896 0.066140 0.066962
0.071265 0.070866 0.072028
0.346821 0.345627 0.339388
0.069373 0.069062 0.069156
0.209623 0.220778 0.221126
0.163602 0.163680 0.164055
0.303591 0.303683 0.303404
0.351548 0.350922 0.346884
0.228715 0.228754 0.228833
0.108658 0.104688 0.103499
0.328946 0.325887 0.324996
0.254522 0.255073 0.255118
0.285042 0.283966 0.282173
0.092477 0.092400 0.092290
0.289187 0.290097 0.289442
0.087325 0.088054 0.090557
0.231967 0.230998 0.226391
0.134740 0.143397 0.144380
0.070906 0.070891 0.070589
0.215375 0.220417 0.228356
0.056877 0.053712 0.052933
0.048713 0.048690 0.048874
0.289974 0.288126 0.286230
0.224821 0.223886 0.223768
0.146664 0.147134 0.146867
0.231349 0.231354 0.230898
0.059397 0.059547 0.060425
0.081457 0.081193 0.081179
0.068171 0.068353 0.068881
0.046402 0.046275 0.045668
0.209580 0.212104 0.212582
0.329599 0.326764 0.324477
0.306602 0.314247 0.314465
0.052050 0.052006 0.052487
0.059828 0.060132 0.064247
0.050127 0.050297 0.050228
0.162265 0.161500 0.160980
0.394784 0.398039 0.398440
0.082865 0.082788 0.082593
0.302396 0.304081 0.304666
0.098322 0.098388 0.098632
0.290778 0.289323 0.289040
0.054582 0.053573 0.053451
0.140933 0.140521 0.139440
0.328415 0.310918 0.304738
0.137730 0.138212 0.139211
0.273805 0.274084 0.272327
0.065855 0.065865 0.066357
0.054827 0.055022 0.054542
0.070741 0.069420 0.065779
0.284543 0.287266 0.287291
0.092725 0.091817 0.090994
0.080969 0.081071 0.081092
0.052992 0.052949 0.055093
0.147814 0.149479 0.154321
0.218559 0.219869 0.222884
0.059363 0.059435 0.059356
0.054986 0.054547 0.054258
0.308419 0.307492 0.305716
0.249465 0.252331 0.254044
0.318087 0.319332 0.323551
0.257314 0.259144 0.272253
0.083122 0.084718 0.084882
0.048242 0.048348 0.049547
0.043853 0.043871 0.043908
0.414252 0.414393 0.417981
0.288348 0.282952 0.281854
0.272720 0.272721 0.272534
0.192866 0.195087 0.199982
0.162638 0.163064 0.163220
0.347080 0.342880 0.331985
0.173097 0.177060 0.181317
0.094390 0.093989 0.093903
0.262788 0.261660 0.261126
0.262943 0.264046 0.263426
0.063488 0.063517 0.063536
0.213053 0.212450 0.212330
0.237978 0.238044 0.238742
0.051930 0.051916 0.051905
0.071719 0.072555 0.073580
0.225894 0.223124 0.222994
0.066943 0.066643 0.066537
0.272559 0.271271 0.269685
0.153761 0.154011 0.153984
0.092457 0.091232 0.090026
0.052213 0.052091 0.051929
0.084004 0.085952 0.086344
0.061975 0.062639 0.063470
0.086766 0.086796 0.086661
0.066163 0.065884 0.066318
0.062237 0.062196 0.062100
0.093349 0.093303 0.093753
0.213115 0.213023 0.213294
0.326564 0.316159 0.314894
0.092972 0.092919 0.092769
0.083509 0.084483 0.084507
0.066860 0.066925 0.066676
0.088068 0.088414 0.089085
0.179328 0.170267 0.167310
0.117840 0.117965 0.117814
0.306881 0.313387 0.330486
0.286632 0.292296 0.295081
0.273639 0.273877 0.273675
0.281404 0.282539 0.282436
0.314820 0.310351 0.306082
0.282232 0.281790 0.280280
0.072661 0.072785 0.072920
0.495024 0.495880 0.495601
0.220956 0.222357 0.223490
0.084543 0.084650 0.084847
0.234745 0.234451 0.234290
0.284836 0.286662 0.291840
0.273520 0.273454 0.275237
0.298452 0.302107 0.299450
0.267801 0.273592 0.272502
0.232555 0.232827 0.232598
0.057820 0.059773 0.060169
0.390054 0.389247 0.387497
0.264231 0.269418 0.270995
0.296666 0.295652 0.294365
0.067065 0.067159 0.066872
0.225868 0.225233 0.226184
0.067073 0.067406 0.069187
0.312780 0.304191 0.303348
0.084837 0.084808 0.084815
0.055375 0.054549 0.054718
0.354734 0.334522 0.320215
0.049128 0.048889 0.048763
0.061491 0.061685 0.062756
0.261718 0.255364 0.249287
0.305928 0.306550 0.307052
0.230021 0.229691 0.229032
0.276199 0.280061 0.286116
0.309035 0.309216 0.308919
0.338159 0.338012 0.339037
0.067508 0.066611 0.066389
0.146897 0.146684 0.146429
0.289086 0.292082 0.292346
0.090323 0.092204 0.094952
0.314327 0.314503 0.314658
0.048837 0.048597 0.049004
0.048430 0.048660 0.048713
0.168555 0.171308 0.173108
0.281234 0.282062 0.282791
0.084674 0.074451 0.072807
0.059335 0.059963 0.060040
0.058581 0.058356 0.058299
0.088031 0.086306 0.083637
0.278444 0.277815 0.274228
0.056199 0.056361 0.056749
0.054258 0.054395 0.053580
0.351147 0.349220 0.348172
0.076889 0.075798 0.075563
0.055114 0.055454 0.055629
0.270408 0.267764 0.280943
0.075405 0.076958 0.080741
0.178695 0.179225 0.182194
0.311672 0.313193 0.313039
0.253548 0.253925 0.254304
0.420154 0.419349 0.412541
0.053525 0.053304 0.053214
0.069461 0.069689 0.069782
0.231076 0.231875 0.231914
0.238815 0.239934 0.240147
0.259905 0.263738 0.264707
0.051559 0.051382 0.051412
0.066985 0.067030 0.067013
0.262589 0.260514 0.252248
0.199779 0.199513 0.199467
0.069047 0.069117 0.068443
0.271135 0.266079 0.257502
0.228220 0.227456 0.228067
0.288268 0.279926 0.279712
0.283771 0.283884 0.284398
0.277954 0.278760 0.279840
0.288074 0.297928 0.302128
0.080555 0.080680 0.080855
0.054607 0.054642 0.052540
0.266324 0.265761 0.264714
0.063460 0.063477 0.063458
0.233223 0.234051 0.239592
0.187091 0.192732 0.194897
0.222116 0.222642 0.222688
0.082117 0.081911 0.081914
0.314983 0.312416 0.308753
0.053989 0.053872 0.053724
0.287792 0.286346 0.285003
0.110626 0.110392 0.109950
0.194920 0.196067 0.196790
0.326668 0.330962 0.338872
0.164139 0.157629 0.161930
0.281298 0.281416 0.281197
0.263892 0.263463 0.262815
0.057581 0.057104 0.056020
0.087736 0.086777 0.086572
0.309693 0.310504 0.310888
0.051211 0.051167 0.050459
0.254358 0.253806 0.253735
0.403887 0.402379 0.400753
0.279296 0.277749 0.278439
0.088185 0.088048 0.086586
0.247753 0.247685 0.247522
0.089737 0.090302 0.090470
0.250462 0.249608 0.250214
0.056806 0.057024 0.057639
0.083824 0.074495 0.072547
0.192978 0.193427 0.193857
0.284414 0.285374 0.287052
0.082396 0.082259 0.081705
0.085819 0.086144 0.086499
0.259168 0.255445 0.255079
0.328969 0.324714 0.321319
0.229939 0.229322 0.229525
0.065804 0.065996 0.066216
0.292025 0.293381 0.313469
0.135808 0.136654 0.137861
0.261494 0.260132 0.260745
0.063671 0.062612 0.063429
0.059370 0.059300 0.059720
0.306776 0.310585 0.311043
0.179726 0.183499 0.192866
0.458826 0.461125 0.466063
0.305211 0.304266 0.303506
0.093628 0.091938 0.091788
0.300264 0.299855 0.300326
0.136959 0.136665 0.134722
0.071773 0.071221 0.071568
0.274063 0.276035 0.280375
0.097893 0.097610 0.097986
0.276758 0.276084 0.275128
0.066595 0.066700 0.067140
0.345623 0.345989 0.346224
0.052486 0.051631 0.051505
0.242684 0.226006 0.220147
0.253806 0.256313 0.256781
0.274282 0.274058 0.273884
0.059510 0.059137 0.059028
0.053449 0.053573 0.052999
0.053384 0.052971 0.052730
0.064015 0.064015 0.063234
0.297554 0.297304 0.297973
0.434066 0.434800 0.430525
0.295971 0.298686 0.299750
0.049248 0.049156 0.049018
0.270303 0.267117 0.256420
0.153902 0.154918 0.155406
0.067380 0.067155 0.066933
0.273461 0.273446 0.271423
0.113520 0.110528 0.108869
0.054724 0.054547 0.054476
0.096436 0.096052 0.095420
0.061703 0.061501 0.061598
0.305904 0.301066 0.299599
0.079700 0.079459 0.079406
0.087249 0.087987 0.090369
0.286594 0.291883 0.304692
0.317512 0.313190 0.308850
0.074080 0.074376 0.077982
0.259235 0.257168 0.256860
0.203201 0.203247 0.203250
0.226548 0.225875 0.225103
0.068835 0.068773 0.069007
0.060694 0.060009 0.057700
0.275259 0.275128 0.275760
0.074165 0.075366 0.075924
0.056767 0.056867 0.056538
0.055295 0.054667 0.054041
0.088066 0.088104 0.088069
0.051864 0.051597 0.051658
0.154622 0.154693 0.151781
0.221950 0.221832 0.221441
0.233998 0.236514 0.237265
0.094375 0.094441 0.094390
0.075589 0.075575 0.075879
0.107818 0.108087 0.109265
0.232153 0.236298 0.236963
0.272074 0.273844 0.274754
0.107186 0.092155 0.087597
0.310411 0.310030 0.309787
0.076167 0.075983 0.075586
0.301097 0.300156 0.300805
0.253947 0.255198 0.254150
0.096597 0.096435 0.096286
0.068286 0.068171 0.068353
0.213344 0.213312 0.213278
0.233279 0.235253 0.236967
0.245571 0.244587 0.232478
0.317109 0.317891 0.319545
0.103970 0.104946 0.104785
0.130155 0.131000 0.131083
0.135347 0.135308 0.135379
0.074831 0.075145 0.074558
0.231439 0.231308 0.228027
0.236304 0.236948 0.237012
0.354175 0.354599 0.355895
0.067063 0.067332 0.067939
0.052530 0.052769 0.052308
0.200094 0.199662 0.199528
0.054598 0.054830 0.054885
0.305556 0.309366 0.315030
0.090220 0.090188 0.090783
0.091147 0.091067 0.090904
0.058391 0.057764 0.057680
0.244847 0.244012 0.243756
0.078954 0.081023 0.081280
0.246487 0.239775 0.238655
0.093658 0.093631 0.093691
0.276092 0.276794 0.276004
0.171269 0.171101 0.171124
0.313772 0.315474 0.304071
0.232564 0.232885 0.232828
0.299756 0.301510 0.300189
0.068234 0.068206 0.069431
0.050576 0.050227 0.050008
0.294967 0.295144 0.295910
0.220440 0.222126 0.224534
0.054480 0.055543 0.058266
0.271023 0.274160 0.273563
0.157933 0.158733 0.163245
0.284605 0.283187 0.280959
0.258927 0.259078 0.259821
0.049054 0.048915 0.049480
0.075460 0.075820 0.075902
0.050634 0.050513 0.050065
0.209119 0.210004 0.211778
0.259539 0.256528 0.263496
0.050675 0.051076 0.051287
0.279438 0.279882 0.278890
0.058434 0.058198 0.058643
0.237017 0.236894 0.235915
0.287785 0.288602 0.291992
0.060151 0.059771 0.059759
0.102310 0.101569 0.099202
0.071765 0.071476 0.071684
0.060785 0.060832 0.060981
0.050816 0.050921 0.051040
0.054411 0.053984 0.053594
0.345946 0.345527 0.345063
0.058155 0.057497 0.056884
0.066568 0.066992 0.067154
0.284100 0.284918 0.285446
0.054117 0.054502 0.054603
0.275152 0.277128 0.276324
0.129587 0.125301 0.121189
0.230577 0.233899 0.232803
0.051520 0.051497 0.051600
0.348968 0.347241 0.347883
0.105243 0.104910 0.105242
0.334210 0.335156 0.336808
0.046341 0.046665 0.047381
0.108431 0.108454 0.108424
0.271906 0.269268 0.267777
0.083861 0.083184 0.082775
0.241409 0.241494 0.241978
0.309817 0.301807 0.302765
0.317800 0.318121 0.319030
0.223390 0.203345 0.196023
0.069293 0.069428 0.072926
0.059812 0.059830 0.059814
0.409869 0.412182 0.418188
0.392834 0.393324 0.394203
0.254217 0.253142 0.253656
0.298664 0.295166 0.292638
0.072939 0.072166 0.072168
0.160880 0.159607 0.156001
0.059668 0.059681 0.059659
0.303147 0.302052 0.303500
0.270996 0.276879 0.277469
0.231645 0.230292 0.225344
0.091001 0.089073 0.086905
0.277226 0.273099 0.272248
0.127024 0.128791 0.131470
0.307152 0.304688 0.306158
0.051372 0.051046 0.049960
0.316518 0.316362 0.316796
0.085364 0.085550 0.085334
0.316951 0.317421 0.310066
0.258028 0.257991 0.257343
0.063661 0.062507 0.061958
0.089833 0.091078 0.090579
0.060172 0.060097 0.060025
0.086768 0.086590 0.086296
0.266079 0.257502 0.256053
0.225650 0.223809 0.223764
0.066252 0.066191 0.065907
0.392010 0.393364 0.393339
0.157930 0.158783 0.165209
0.320182 0.316203 0.315774
0.238557 0.238693 0.238807
0.056882 0.056722 0.056627
0.298624 0.304096 0.308688
0.299429 0.298694 0.293262
0.276791 0.267306 0.265942
0.215693 0.218834 0.223595
0.153801 0.150726 0.150749
0.094388 0.091804 0.091147
0.054227 0.053601 0.053893
0.243851 0.239714 0.237233
0.245169 0.245195 0.245374
0.228790 0.226740 0.226689
0.217707 0.218131 0.217341
0.274304 0.279151 0.280707
0.107998 0.108793 0.109996
0.070108 0.070139 0.069605
0.143320 0.142404 0.142464
0.088897 0.088916 0.088398
0.141933 0.141818 0.141837
0.224630 0.224836 0.225510
0.080728 0.081081 0.081051
0.278898 0.284734 0.284600
0.248639 0.249164 0.249312
0.084827 0.085115 0.085440
0.107521 0.107417 0.107292
0.332630 0.333099 0.334313
0.287993 0.296668 0.302950
0.283542 0.281538 0.281270
0.132553 0.129697 0.122986
0.101770 0.098978 0.098366
0.225684 0.225119 0.224367
0.050218 0.050071 0.050242
0.084155 0.084245 0.084314
0.056306 0.056463 0.058029
0.074543 0.074557 0.075377
0.055175 0.055407 0.054926
0.285361 0.286096 0.286429
0.082315 0.082370 0.082172
0.060468 0.060017 0.060051
0.263988 0.266066 0.266578
0.069771 0.070041 0.071874
0.071379 0.071372 0.071633
0.242004 0.226236 0.222755
0.233835 0.234467 0.234278
0.341768 0.337386 0.335791
0.219327 0.219891 0.219890
0.072128 0.071469 0.071156
0.275605 0.275620 0.275546
0.083803 0.085007 0.083898
0.060347 0.061131 0.063286
0.052606 0.052648 0.052745
0.248478 0.247460 0.246358
0.299783 0.298044 0.296385
0.065659 0.066606 0.066734
0.252725 0.251088 0.250332
0.119792 0.119535 0.119508
0.245628 0.245830 0.245248
0.064368 0.064379 0.064742
0.078552 0.078876 0.078904
0.046583 0.047814 0.048365
0.183963 0.183920 0.183830
0.274045 0.272671 0.271990
0.329816 0.329345 0.328532
0.060051 0.059516 0.059377
0.085436 0.085066 0.083430
0.107110 0.106921 0.106582
0.274431 0.277810 0.278129
0.207140 0.207038 0.206621
0.059761 0.059744 0.059799
0.238090 0.237397 0.238582
0.108389 0.108249 0.108190
0.066281 0.065137 0.064220
0.283102 0.284609 0.284836
0.092644 0.092275 0.091543
0.043867 0.043198 0.042621
0.267226 0.268491 0.270027
0.278481 0.279928 0.282599
0.055408 0.055433 0.055074
0.123691 0.120965 0.110803
0.086117 0.086366 0.086038
0.118316 0.118369 0.118369
0.051181 0.051540 0.051720
0.133670 0.128577 0.124376
0.059188 0.059056 0.059233
0.060442 0.060496 0.060049
0.069095 0.069103 0.067676
0.234143 0.234725 0.239172
0.079516 0.079758 0.079981
0.081542 0.081638 0.082776
0.325834 0.325721 0.325581
0.246638 0.247747 0.247516
0.347373 0.347507 0.348277
0.089811 0.089865 0.089893
0.076008 0.076255 0.076212
0.330266 0.333502 0.348199
0.315422 0.314839 0.309069
0.078499 0.078878 0.078924
0.305994 0.310425 0.307777
0.058857 0.058593 0.057772
0.065153 0.065397 0.067292
0.058038 0.057942 0.057700
0.077918 0.076768 0.075919
0.068588 0.068704 0.068826
0.222844 0.226838 0.228874
0.240124 0.237817 0.231447
0.056462 0.056936 0.057291
0.333604 0.332787 0.331739
0.262716 0.262504 0.259618
0.197566 0.195845 0.195201
0.049475 0.050902 0.050929
0.272183 0.271566 0.272885
0.049709 0.049755 0.049535
0.087039 0.086760 0.086784
0.051422 0.051645 0.052687
0.081651 0.081436 0.081634
0.184830 0.185228 0.186615
0.302906 0.301856 0.302096
0.084223 0.084781 0.084836
0.254420 0.253864 0.251787
0.280353 0.275181 0.273494
0.279796 0.273445 0.272990
0.058105 0.058312 0.058388
0.133036 0.131134 0.123593
0.071582 0.071559 0.071643
0.337586 0.339984 0.346648
0.301538 0.297432 0.294360
0.054530 0.054604 0.054849
0.222901 0.223957 0.225118
0.278475 0.278613 0.278438
0.084320 0.084447 0.084828
0.338521 0.338823 0.341206
0.230292 0.235333 0.238261
0.224760 0.224928 0.224784
0.042479 0.042625 0.043065
0.063191 0.063303 0.063703
0.256564 0.251261 0.251375
0.063791 0.063842 0.063699
0.237003 0.236480 0.238323
0.236609 0.236561 0.236568
0.050040 0.050060 0.050394
0.418188 0.430479 0.434736
0.267799 0.269435 0.270387
0.336834 0.339306 0.342886
0.060440 0.060442 0.060496
0.231616 0.233375 0.232081
0.250983 0.250538 0.252037
0.220309 0.221173 0.221528
0.287327 0.259557 0.253309
0.086010 0.086371 0.086554
0.105825 0.092475 0.087640
0.052468 0.052000 0.052541
0.073533 0.073566 0.073549
0.345821 0.346025 0.345878
0.342124 0.340985 0.339768
0.290978 0.288061 0.289560
0.051265 0.051144 0.050751
0.054919 0.054312 0.053929
0.076391 0.075026 0.074668
0.271636 0.272554 0.272973
0.239867 0.240070 0.239919
0.053621 0.053878 0.053919
0.096242 0.096364 0.096266
0.148316 0.146446 0.142851
0.071929 0.071954 0.071231
0.068176 0.068472 0.067589
0.318299 0.321715 0.330708
0.210848 0.209210 0.206704
0.196078 0.197016 0.198004
0.243534 0.243355 0.243578
0.049723 0.049897 0.050044
0.067096 0.066463 0.066522
0.231256 0.232206 0.232111
0.373649 0.382710 0.383777
0.276823 0.276347 0.274672
0.097275 0.096306 0.096223
0.330321 0.330275 0.329816
0.326921 0.327315 0.327510
0.067219 0.067655 0.067867
0.059849 0.059572 0.059554
0.067629 0.067542 0.066444
