0.083921 0.084112 0.083748
0.114461 0.114539 0.114644
0.102825 0.102273 0.102322
0.179892 0.180333 0.181478
0.106657 0.101264 0.100494
0.091940 0.091946 0.091982
0.122569 0.121714 0.119928
0.114319 0.114246 0.113139
0.099834 0.099939 0.100125
0.079771 0.079183 0.079520
0.093219 0.093246 0.093118
0.116919 0.116926 0.116943
0.103900 0.104023 0.104618
0.077106 0.080689 0.082875
0.078342 0.078303 0.078222
0.078409 0.078419 0.078476
0.091752 0.091737 0.091743
0.081841 0.084217 0.084518
0.083589 0.084324 0.085036
0.046535 0.046683 0.046793
0.074179 0.073899 0.072912
0.101972 0.101922 0.100931
0.119404 0.119442 0.119591
0.082765 0.082595 0.082387
0.102153 0.105355 0.106197
0.111015 0.110311 0.110137
0.069206 0.068404 0.067391
0.062192 0.062183 0.062145
0.105826 0.104609 0.104644
0.091613 0.091577 0.091864
0.111175 0.111004 0.110582
0.080048 0.078513 0.078632
0.080872 0.080674 0.080731
0.087374 0.087534 0.087515
0.099297 0.098970 0.099207
0.104428 0.104681 0.106758
0.084058 0.083105 0.081322
0.077737 0.077680 0.077602
0.068718 0.068617 0.068532
0.084690 0.084519 0.084471
0.177072 0.176681 0.176372
0.142911 0.142011 0.142774
0.100791 0.099869 0.099321
0.080826 0.082322 0.082283
0.103686 0.104602 0.106514
0.092924 0.091380 0.090479
0.086269 0.087008 0.087307
0.090885 0.099492 0.098545
0.109666 0.108640 0.108373
0.099771 0.099708 0.098978
0.078326 0.078311 0.078251
0.101857 0.101873 0.103091
0.093607 0.093840 0.093875
0.092229 0.092574 0.092316
0.079738 0.079846 0.079811
0.106363 0.106471 0.107151
0.090664 0.094494 0.094944
0.103634 0.102288 0.102233
0.116596 0.116575 0.116956
0.098591 0.098458 0.097894
0.156704 0.156159 0.155966
0.109795 0.103926 0.104192
0.067414 0.067489 0.066972
0.097165 0.096819 0.096862
0.084178 0.084190 0.084308
0.093716 0.092707 0.093066
0.093717 0.093946 0.096675
0.085593 0.085256 0.085417
0.105158 0.105324 0.105228
0.085227 0.085572 0.085998
0.147878 0.147642 0.147653
0.050065 0.050211 0.050027
0.132514 0.131466 0.129464
0.125557 0.123675 0.122052
0.096358 0.095676 0.091972
0.104369 0.106148 0.106032
0.106876 0.107250 0.107162
0.106593 0.106708 0.106655
0.097098 0.096681 0.096584
0.088469 0.090631 0.092205
0.083198 0.083119 0.082933
0.082057 0.082296 0.082631
0.050427 0.051233 0.055219
0.082321 0.082261 0.082463
0.106335 0.106440 0.106566
0.068706 0.069012 0.069017
0.104466 0.104661 0.106526
0.082609 0.082476 0.082572
0.076726 0.076661 0.077021
0.106831 0.105674 0.104613
0.045499 0.045444 0.045473
0.098135 0.100174 0.099997
0.069182 0.069537 0.072960
0.143599 0.153689 0.154578
0.117045 0.117057 0.117268
0.191283 0.191030 0.190319
0.085384 0.085565 0.085545
0.066237 0.066200 0.066171
0.080235 0.079133 0.078348
0.087822 0.087582 0.087067
0.100544 0.099689 0.099515
0.103023 0.102237 0.099790
0.099716 0.099861 0.100050
0.098529 0.098447 0.098760
0.083285 0.083200 0.081680
0.088083 0.087836 0.087569
0.112678 0.112654 0.112555
0.134882 0.137930 0.138508
0.113287 0.113187 0.114663
0.095230 0.094403 0.094106
0.152022 0.151847 0.150527
0.069899 0.069861 0.070085
0.096563 0.096514 0.096568
0.098444 0.097267 0.094457
0.123622 0.123375 0.123426
0.085705 0.085651 0.085659
0.100005 0.100223 0.101421
0.085823 0.085599 0.085484
0.102805 0.102837 0.103086
0.093878 0.091081 0.091050
0.112589 0.112616 0.112660
0.089606 0.089762 0.090464
0.109523 0.109218 0.109156
0.114390 0.114059 0.113693
0.123097 0.123388 0.123754
0.096221 0.095571 0.095426
0.076668 0.076729 0.077480
0.120633 0.120343 0.118064
0.090784 0.090222 0.092907
0.096380 0.096522 0.096592
0.094682 0.094579 0.094409
0.126186 0.122075 0.121814
0.048338 0.048191 0.047541
0.092355 0.092192 0.092318
0.086870 0.085893 0.083017
0.106435 0.108417 0.109838
0.101941 0.101971 0.100120
0.076096 0.076044 0.074787
0.138228 0.137689 0.137373
0.114900 0.115271 0.115363
0.094837 0.094518 0.094795
0.049792 0.049632 0.049500
0.088785 0.084628 0.083624
0.113499 0.113644 0.114783
0.149653 0.149651 0.149474
0.085073 0.084747 0.084578
0.100294 0.100068 0.100100
0.095379 0.095421 0.095556
0.114587 0.115431 0.113388
0.067166 0.067177 0.067135
0.116879 0.117224 0.118377
0.128918 0.128136 0.128584
0.098432 0.097576 0.097017
0.181508 0.181263 0.180730
0.122652 0.123593 0.124731
0.110302 0.110151 0.107453
0.104851 0.104962 0.107008
0.107838 0.107596 0.107310
0.093861 0.093115 0.093200
0.109612 0.109731 0.111507
0.101403 0.100980 0.101406
0.092298 0.092740 0.092841
0.099393 0.100011 0.099908
0.147745 0.148024 0.148223
0.110020 0.109286 0.111510
0.116002 0.115873 0.116097
0.126033 0.129073 0.129528
0.052593 0.052649 0.052743
0.108210 0.107948 0.107876
0.132768 0.132098 0.131300
0.096608 0.094613 0.094579
0.102745 0.103181 0.104085
0.080444 0.080091 0.075327
0.102377 0.102609 0.102976
0.101865 0.102171 0.102186
0.137200 0.137396 0.137385
0.154587 0.154561 0.154658
0.105292 0.105262 0.105097
0.100601 0.099055 0.099782
0.085300 0.085184 0.084789
0.099793 0.099737 0.099427
0.098823 0.100522 0.102973
0.090199 0.089858 0.093957
0.067694 0.068536 0.068389
0.081323 0.083243 0.083701
0.102073 0.102183 0.102026
0.104523 0.104381 0.104119
0.068594 0.068459 0.068738
0.094529 0.095298 0.095568
0.083414 0.083813 0.083622
0.096938 0.096397 0.095436
0.098077 0.097712 0.097920
0.087576 0.088393 0.088384
0.142869 0.142276 0.141182
0.101297 0.099985 0.098445
0.095044 0.094542 0.094479
0.087228 0.086900 0.086710
0.071051 0.071073 0.071152
0.094227 0.093943 0.093971
0.107281 0.107783 0.109790
0.084304 0.084632 0.084373
0.069920 0.070051 0.069824
0.102660 0.102567 0.102588
0.105273 0.108032 0.104413
0.104700 0.103586 0.102838
0.104611 0.106541 0.106264
0.117724 0.117919 0.115808
0.086223 0.086222 0.089021
0.044903 0.045182 0.045165
0.090764 0.090839 0.091089
0.096082 0.095411 0.097916
0.179205 0.178772 0.179186
0.107274 0.107585 0.108023
0.116447 0.116645 0.116719
0.093895 0.095159 0.095870
0.104364 0.105097 0.105089
0.122864 0.122496 0.122755
0.085874 0.085720 0.086859
0.100080 0.101212 0.101360
0.074511 0.073906 0.073951
0.091506 0.091666 0.091671
0.045060 0.045083 0.045604
0.126968 0.121391 0.120245
0.094905 0.094564 0.094056
0.089015 0.088648 0.086843
0.074884 0.074851 0.074643
0.117364 0.117870 0.121062
0.062859 0.061796 0.060501
0.082977 0.082621 0.082522
0.082273 0.082098 0.081993
0.110927 0.112259 0.112943
0.142247 0.141583 0.140394
0.089110 0.092510 0.093217
0.179703 0.180637 0.183320
0.080861 0.080774 0.081166
0.112572 0.111861 0.109480
0.113067 0.112744 0.113034
0.049073 0.048950 0.049059
0.130443 0.132846 0.132458
0.096439 0.089297 0.087052
0.079969 0.079655 0.079716
0.128998 0.129383 0.129401
0.095601 0.095703 0.096483
0.134108 0.134484 0.134761
0.109138 0.109146 0.109212
0.106761 0.106092 0.104579
0.092192 0.092318 0.092581
0.048873 0.048974 0.048928
0.051011 0.050864 0.050691
0.075116 0.074990 0.074980
0.094792 0.095063 0.095258
0.101459 0.101223 0.101388
0.076366 0.076350 0.076478
0.119196 0.118833 0.119099
0.044941 0.044846 0.045024
0.092837 0.092810 0.092062
0.089933 0.090136 0.089165
0.093209 0.093232 0.093312
0.120456 0.120453 0.120563
0.076999 0.075509 0.080441
0.077964 0.077905 0.078007
0.066150 0.066131 0.065859
0.064669 0.064744 0.065284
0.049019 0.049063 0.049218
0.097710 0.098353 0.098350
0.115078 0.115280 0.116232
0.129506 0.129699 0.125480
0.090434 0.090163 0.090163
0.109214 0.109248 0.109056
0.123236 0.122900 0.122785
0.103458 0.104292 0.104136
0.074743 0.074694 0.074450
0.148214 0.148229 0.148224
0.104115 0.104275 0.103676
0.102470 0.102116 0.102037
0.050086 0.050308 0.050244
0.079879 0.080027 0.079922
0.109849 0.112764 0.112679
0.069661 0.069235 0.068633
0.097149 0.097015 0.090304
0.108661 0.110735 0.110042
0.123884 0.125345 0.126495
0.104061 0.104156 0.104044
0.098346 0.097916 0.097594
0.098039 0.096861 0.097104
0.142673 0.142681 0.142891
0.153344 0.153443 0.153479
0.080774 0.081583 0.077751
0.107528 0.108462 0.109288
0.098676 0.100182 0.099878
0.072508 0.072814 0.073008
0.097471 0.097526 0.097716
0.104062 0.104061 0.103880
0.065050 0.064778 0.065175
0.091859 0.094940 0.095034
0.088387 0.088222 0.088130
0.075779 0.075784 0.076024
0.107538 0.108279 0.108199
0.100798 0.101402 0.101501
0.066211 0.066179 0.066179
0.050459 0.050769 0.050881
0.119807 0.117169 0.114090
0.068131 0.067634 0.067170
0.114588 0.114259 0.113176
0.109146 0.109722 0.109884
0.128871 0.126048 0.125754
0.115116 0.115220 0.115254
0.091393 0.091393 0.091152
0.102918 0.102683 0.103393
0.082174 0.082075 0.082129
0.091513 0.089453 0.088996
0.092708 0.093234 0.094786
0.141043 0.140778 0.140634
0.075307 0.073390 0.076086
0.090993 0.090497 0.090079
0.098124 0.098163 0.098754
0.099950 0.095200 0.095046
0.114356 0.113972 0.113682
0.111032 0.110623 0.110941
0.049505 0.049552 0.049536
0.076791 0.076763 0.076792
0.078371 0.078493 0.078905
0.092991 0.093804 0.093851
0.076985 0.077164 0.077230
0.110731 0.110200 0.110050
0.172376 0.174463 0.179014
0.128251 0.125956 0.125971
0.095648 0.094870 0.095449
0.072484 0.072390 0.072381
0.089514 0.090080 0.093177
0.092765 0.091486 0.091620
0.098701 0.101165 0.104765
0.102896 0.103787 0.106155
0.072082 0.072378 0.072373
0.090706 0.090564 0.090911
0.091397 0.091248 0.091256
0.082264 0.082722 0.082969
0.074575 0.074903 0.074826
0.093878 0.093551 0.092960
0.101311 0.100825 0.100127
0.044244 0.044181 0.044238
0.081925 0.081802 0.082003
0.111515 0.112632 0.112723
0.131928 0.132883 0.133398
0.105325 0.104997 0.104184
0.094407 0.095477 0.094909
0.108555 0.108706 0.108443
0.133165 0.136012 0.136396
0.114059 0.113693 0.112999
0.079460 0.079570 0.079501
0.076731 0.077485 0.077705
0.090030 0.091863 0.091841
0.119305 0.119370 0.119533
0.099743 0.101966 0.102270
0.117566 0.121144 0.122119
0.122475 0.123022 0.123598
0.156451 0.156584 0.156678
0.121755 0.120098 0.119744
0.108055 0.106963 0.101454
0.091189 0.090873 0.091127
0.110541 0.110773 0.110440
0.088204 0.087966 0.087971
0.090109 0.090032 0.090003
0.104687 0.103673 0.100968
0.122692 0.122821 0.123124
0.082497 0.081772 0.081832
0.113353 0.113334 0.113365
0.096854 0.096227 0.096401
0.074040 0.073887 0.073823
0.098202 0.098517 0.098274
0.066978 0.067165 0.067032
0.103341 0.105554 0.105524
0.169225 0.170807 0.172376
0.092903 0.092814 0.092898
0.093925 0.093880 0.093888
0.128407 0.123200 0.119641
0.103364 0.103040 0.102037
0.141645 0.140807 0.139718
0.139690 0.141119 0.148953
0.086850 0.086802 0.087909
0.090222 0.092907 0.092641
0.102656 0.102740 0.103384
0.116624 0.117678 0.117820
0.044644 0.046909 0.046895
0.105844 0.105992 0.106000
0.089746 0.090056 0.090364
0.101266 0.101037 0.100632
0.103110 0.102629 0.101865
0.096762 0.096759 0.096490
0.054636 0.055580 0.056317
0.178976 0.180554 0.180840
0.073353 0.073868 0.074198
0.071520 0.071392 0.071312
0.087510 0.087460 0.087500
0.115999 0.116028 0.116788
0.102769 0.103006 0.103605
0.102744 0.102535 0.100667
0.075258 0.075036 0.071500
0.122650 0.121881 0.120356
0.079189 0.079466 0.079445
0.094295 0.092924 0.091380
0.099601 0.098763 0.098153
0.076270 0.076364 0.076527
0.096072 0.098338 0.099217
0.118112 0.116633 0.116395
0.091877 0.092546 0.090269
0.091969 0.091918 0.091750
0.090739 0.090737 0.090333
0.105280 0.106077 0.106254
0.050601 0.050633 0.050462
0.077974 0.077865 0.077974
0.081116 0.080500 0.081111
0.181468 0.181529 0.182728
0.094336 0.095808 0.096781
0.091867 0.091644 0.090497
0.090142 0.089678 0.085000
0.123002 0.122659 0.122523
0.146360 0.145257 0.145501
0.112623 0.113285 0.113418
0.150500 0.151192 0.152871
0.064660 0.064538 0.064518
0.082164 0.082257 0.082689
0.085877 0.085923 0.086009
0.098508 0.098640 0.100077
0.091795 0.091625 0.091762
0.098912 0.098165 0.098121
0.090974 0.090083 0.090203
0.096614 0.096625 0.096446
0.077543 0.077623 0.079218
0.101224 0.101814 0.101726
0.093902 0.093008 0.092113
0.073145 0.073120 0.073172
0.065145 0.065047 0.064919
0.181573 0.181683 0.183141
0.106058 0.107007 0.107163
0.113999 0.112949 0.113128
0.103856 0.104242 0.104229
0.087427 0.088273 0.088751
0.100706 0.100723 0.100762
0.094067 0.094221 0.094193
0.074511 0.074427 0.074398
0.045581 0.044983 0.044632
0.097894 0.094505 0.094030
0.084993 0.085201 0.085598
0.069017 0.069115 0.069238
0.136843 0.136838 0.136746
0.118447 0.119401 0.119419
0.070407 0.070426 0.070503
0.104209 0.104044 0.104042
0.140807 0.139718 0.138622
0.108601 0.108315 0.107996
0.069289 0.069243 0.069087
0.101519 0.102129 0.105193
0.121224 0.120822 0.120209
0.096900 0.096205 0.096168
0.099374 0.099377 0.098758
0.110369 0.109781 0.109146
0.095643 0.095337 0.094577
0.104225 0.101827 0.101531
0.090600 0.090717 0.090580
0.062239 0.062192 0.062183
0.090056 0.090364 0.090229
0.104822 0.104703 0.104703
0.106558 0.106314 0.106209
0.100519 0.099551 0.098742
0.104171 0.104596 0.104926
0.087760 0.087839 0.087770
0.111368 0.111422 0.110996
0.094435 0.094223 0.094391
0.100142 0.102958 0.103885
0.104204 0.103581 0.100295
0.091484 0.092461 0.092954
0.113025 0.113030 0.113556
0.052372 0.052065 0.052542
0.044575 0.044453 0.044047
0.088054 0.087822 0.087166
0.096729 0.096734 0.096734
0.045548 0.045660 0.045672
0.129125 0.128294 0.126100
0.073776 0.073567 0.073451
0.101492 0.101110 0.101229
0.105977 0.105780 0.105478
0.093676 0.093869 0.094290
0.100654 0.101857 0.103298
0.131413 0.130570 0.130248
0.121307 0.121737 0.122145
0.096534 0.096493 0.096762
0.067329 0.067044 0.066913
0.099602 0.097662 0.096683
0.121219 0.122587 0.120745
0.116555 0.116752 0.121139
0.082166 0.082104 0.082169
0.079237 0.079617 0.079922
0.134950 0.134622 0.134497
0.079805 0.079571 0.076365
0.086284 0.086251 0.086170
0.142452 0.142263 0.142363
0.148865 0.148928 0.148852
0.099878 0.099728 0.099509
0.096861 0.097104 0.093925
0.144276 0.142555 0.141210
0.128243 0.127795 0.124357
0.070647 0.070908 0.070727
0.093146 0.093164 0.093149
0.147679 0.146471 0.145687
0.087880 0.087860 0.087574
0.100796 0.101020 0.100932
0.081383 0.081014 0.081001
0.113385 0.111059 0.111220
0.103717 0.103768 0.104223
0.125672 0.125356 0.125109
0.086821 0.086234 0.081789
0.111877 0.110232 0.111353
0.071097 0.071117 0.071462
0.101538 0.100851 0.101173
0.107131 0.107399 0.107545
0.063299 0.063532 0.063961
0.109706 0.109519 0.109928
0.086832 0.086584 0.086506
0.086991 0.086890 0.087015
0.079236 0.079435 0.079395
0.086116 0.086872 0.086721
0.127206 0.128008 0.129292
0.077832 0.077928 0.075821
0.081583 0.077751 0.077663
0.122344 0.126680 0.127862
0.082199 0.082383 0.082084
0.089823 0.089161 0.090458
0.093519 0.093389 0.093205
0.120905 0.120935 0.121447
0.104449 0.102523 0.103349
0.042681 0.042703 0.042973
0.099631 0.099659 0.099632
0.105667 0.105299 0.105261
0.105712 0.105707 0.105308
0.109350 0.108496 0.107484
0.075553 0.071816 0.070791
0.097445 0.097487 0.097619
0.091852 0.091543 0.091530
0.093854 0.094279 0.094178
0.114354 0.114390 0.114344
0.079244 0.079153 0.078921
0.083198 0.084444 0.084905
0.061064 0.066831 0.066768
0.127862 0.129044 0.129119
0.079846 0.079674 0.079121
0.045505 0.045547 0.045538
0.178326 0.179372 0.180381
0.080424 0.083438 0.087160
0.043420 0.043462 0.043205
0.072960 0.073729 0.073846
0.098491 0.098826 0.099690
0.100482 0.100505 0.100690
0.110306 0.110344 0.110325
0.102373 0.102510 0.103573
0.089657 0.090352 0.097235
0.077977 0.077833 0.078232
0.146465 0.145991 0.146021
0.082443 0.082292 0.082594
0.113521 0.114799 0.115788
0.049118 0.049076 0.048985
0.132157 0.132817 0.134919
0.098256 0.098154 0.096601
0.107988 0.108430 0.109269
0.085277 0.085362 0.085166
0.098115 0.098345 0.098357
0.140438 0.140198 0.140535
0.109219 0.109323 0.110067
0.044038 0.044020 0.044001
0.097697 0.097710 0.097550
0.100098 0.099951 0.095091
0.103734 0.104514 0.104898
0.098462 0.098490 0.099270
0.124876 0.124505 0.124770
0.082966 0.082847 0.082843
0.104902 0.105161 0.105474
0.110627 0.110357 0.110269
0.084536 0.084545 0.084568
0.110903 0.110978 0.112181
0.127711 0.127221 0.128232
0.104160 0.104490 0.103977
0.074443 0.074602 0.074487
0.122832 0.123881 0.126889
0.141416 0.140112 0.138727
0.108614 0.106699 0.105704
0.078579 0.079053 0.079524
0.094064 0.093988 0.093890
0.064741 0.064639 0.064901
0.116199 0.115264 0.114840
0.049533 0.049490 0.049489
0.085704 0.085539 0.085491
0.148450 0.148350 0.148469
0.119248 0.119081 0.118727
0.115468 0.117939 0.117980
0.068448 0.068332 0.067479
0.086466 0.085476 0.085122
0.101255 0.098280 0.098418
0.103599 0.103724 0.102549
0.101712 0.103197 0.103580
0.096874 0.097386 0.097579
0.046665 0.046497 0.046379
0.117939 0.117980 0.118127
0.089087 0.088138 0.087835
0.112576 0.112598 0.112593
0.079947 0.079985 0.079601
0.097209 0.097489 0.096875
0.110734 0.110991 0.111302
0.066617 0.066779 0.066935
0.115112 0.115219 0.115257
0.043027 0.042819 0.042371
0.138346 0.137771 0.137907
0.132518 0.132243 0.131573
0.085907 0.085741 0.086075
0.090445 0.090705 0.090532
0.050338 0.050534 0.050801
0.082290 0.082668 0.081895
0.120429 0.122870 0.122954
0.043408 0.043690 0.043504
0.119107 0.118297 0.117080
0.088980 0.088757 0.089299
0.083852 0.084017 0.084351
0.099788 0.099647 0.099275
0.103745 0.104336 0.106436
0.092639 0.092611 0.092234
0.092205 0.092075 0.091980
0.075178 0.075121 0.075000
0.086918 0.090071 0.090221
0.103185 0.102619 0.101488
0.049024 0.049063 0.049177
0.092446 0.091971 0.091677
0.091526 0.090227 0.090054
0.090797 0.099525 0.098949
0.091246 0.092140 0.087304
0.093513 0.093708 0.093705
0.144031 0.144737 0.146854
0.070451 0.070329 0.069946
0.083050 0.082656 0.082763
0.108434 0.110223 0.110475
0.086314 0.086158 0.086104
0.048965 0.049064 0.048832
0.081236 0.083613 0.084133
0.078256 0.078194 0.078325
0.100858 0.100889 0.100762
0.108732 0.108456 0.108117
0.098859 0.099176 0.099104
0.130494 0.130880 0.130852
0.100526 0.100367 0.100125
0.050249 0.050443 0.050643
0.090482 0.090435 0.091060
0.043944 0.049320 0.049355
0.142358 0.142592 0.142292
0.079700 0.079771 0.079183
0.111351 0.111050 0.111049
0.090884 0.088463 0.088171
0.095776 0.096148 0.096228
0.141512 0.143969 0.145253
0.053979 0.055138 0.057329
0.140006 0.141023 0.142161
0.111136 0.111229 0.110155
0.134525 0.135089 0.135149
0.112753 0.112370 0.112097
0.100793 0.102676 0.101653
0.101687 0.104308 0.103150
0.114844 0.116030 0.117409
0.066779 0.066935 0.067078
0.102494 0.103833 0.104620
0.088510 0.088370 0.087822
0.047542 0.047456 0.047399
0.070112 0.070604 0.070820
0.092495 0.087249 0.087372
0.078166 0.079866 0.079861
0.109638 0.109929 0.110217
0.103485 0.103664 0.100713
0.144719 0.144765 0.145088
0.051251 0.051322 0.049853
0.083563 0.083667 0.083896
0.121142 0.120963 0.121556
0.115316 0.115078 0.115385
0.070207 0.068399 0.067993
0.082123 0.081982 0.081965
0.084294 0.084260 0.084522
0.066616 0.064031 0.064181
0.092906 0.093139 0.091604
0.099410 0.099864 0.107219
0.085449 0.085609 0.085685
0.119728 0.119015 0.119118
0.100637 0.100936 0.096674
0.071009 0.070212 0.069917
0.060510 0.060375 0.060317
0.106024 0.106970 0.107025
0.093955 0.093703 0.093953
0.091247 0.090915 0.089106
0.119806 0.121209 0.124985
0.104051 0.103952 0.105233
0.091741 0.091667 0.091764
0.074914 0.074881 0.074723
0.148997 0.149436 0.150489
0.075514 0.074029 0.072556
0.099657 0.102032 0.102497
0.094769 0.095055 0.094607
0.138538 0.138736 0.138891
0.099575 0.098534 0.098968
0.098648 0.100429 0.100835
0.123575 0.123185 0.122541
0.136848 0.136769 0.136472
0.142615 0.141808 0.141345
0.091256 0.091266 0.091318
0.111714 0.111627 0.111486
0.108912 0.108315 0.108467
0.044191 0.044204 0.044280
0.082910 0.083042 0.083049
0.108792 0.108680 0.108692
0.101175 0.102597 0.102957
0.125682 0.125358 0.124999
0.102901 0.103338 0.103564
0.095496 0.095610 0.095403
0.142757 0.141050 0.140781
0.114276 0.114065 0.112830
0.093554 0.093416 0.089600
0.067865 0.068628 0.068767
0.114532 0.112084 0.111863
0.125645 0.123852 0.123657
0.111024 0.110877 0.110602
0.109442 0.108987 0.109409
0.052215 0.052436 0.052462
0.156031 0.155890 0.155351
0.071124 0.071186 0.073338
0.093383 0.093212 0.093219
0.067953 0.067813 0.067834
0.109786 0.109945 0.111006
0.091403 0.090954 0.089282
0.100523 0.100521 0.101044
0.108843 0.112224 0.112384
0.106975 0.106795 0.105990
0.071781 0.074837 0.075522
0.110851 0.110841 0.111445
0.076999 0.077017 0.080178
0.097435 0.094462 0.092855
0.101684 0.099814 0.100185
0.112835 0.112629 0.112695
0.070316 0.072968 0.073376
0.096493 0.097235 0.096804
0.192782 0.193035 0.192753
0.109073 0.108946 0.106706
0.117403 0.115064 0.114578
0.090759 0.090779 0.090577
0.115583 0.116044 0.116634
0.180730 0.180127 0.180577
0.115053 0.112944 0.112572
0.103231 0.103703 0.102746
0.096747 0.096713 0.096755
0.143366 0.143192 0.142746
0.140709 0.140678 0.140766
0.096592 0.096978 0.097012
0.087415 0.085508 0.083802
0.092619 0.092339 0.091904
0.105916 0.108293 0.110230
0.071745 0.072200 0.072819
0.085601 0.085122 0.085123
0.173871 0.172521 0.169776
0.071500 0.071402 0.071263
0.099501 0.099872 0.099552
0.044808 0.044875 0.044955
0.102980 0.102277 0.102122
0.101488 0.100645 0.097033
0.049156 0.051449 0.052014
0.141611 0.138684 0.128636
0.119279 0.114807 0.114602
0.108508 0.108736 0.108690
0.082907 0.084156 0.083905
0.104104 0.104202 0.104184
0.091644 0.090497 0.090521
0.098510 0.098411 0.096421
0.071444 0.070918 0.073413
0.103475 0.103438 0.103506
0.102910 0.102864 0.103879
0.077629 0.077685 0.077577
0.096232 0.101427 0.102456
0.078195 0.079732 0.083254
0.113806 0.113600 0.112904
0.101521 0.100916 0.100552
0.107568 0.106671 0.106202
0.102789 0.099119 0.097997
0.091472 0.091463 0.091536
0.100432 0.101908 0.102910
0.132776 0.132701 0.131778
0.043376 0.053523 0.054149
0.101779 0.100523 0.100521
0.101987 0.101738 0.101087
0.083989 0.086853 0.087429
0.113062 0.112611 0.112283
0.149863 0.149859 0.149927
0.110058 0.110200 0.110316
0.094429 0.094423 0.095005
0.078719 0.078756 0.078237
0.054655 0.052841 0.051687
0.120930 0.121096 0.121436
0.147695 0.147644 0.147954
0.088023 0.088063 0.088845
0.080231 0.080377 0.082156
0.105011 0.105593 0.107281
0.104059 0.103902 0.104012
0.113373 0.112928 0.112792
0.117898 0.119752 0.119586
0.098385 0.095478 0.092156
0.076398 0.076126 0.076168
0.075509 0.080441 0.080457
0.104163 0.099376 0.095197
0.089131 0.089225 0.089126
0.091961 0.091906 0.091935
0.101552 0.101946 0.101952
0.107679 0.108414 0.109945
0.072138 0.072903 0.073365
0.069008 0.073856 0.070576
0.115165 0.115768 0.116649
0.092634 0.090249 0.090284
0.080852 0.080986 0.081103
0.075372 0.073982 0.073534
0.203822 0.203719 0.202095
0.068488 0.071505 0.072615
0.098405 0.098102 0.096928
0.125019 0.122724 0.122400
0.108467 0.109474 0.110129
0.122884 0.123391 0.124235
0.088967 0.088816 0.089076
0.083064 0.082538 0.082502
0.110279 0.109968 0.109650
0.098279 0.098177 0.100006
0.091441 0.091332 0.091294
0.087105 0.087069 0.090410
0.089334 0.090850 0.092207
0.070477 0.070481 0.070713
0.043278 0.043825 0.053715
0.117606 0.119312 0.119283
0.100201 0.100580 0.100427
0.093846 0.093627 0.094064
0.098382 0.099164 0.099753
0.121434 0.121628 0.121508
0.086364 0.086942 0.087161
0.086597 0.086447 0.086583
0.064376 0.064147 0.063606
0.095568 0.095050 0.095044
0.110355 0.110514 0.110459
0.077875 0.078017 0.078166
0.143038 0.143011 0.142302
0.121664 0.123029 0.122824
0.180815 0.180671 0.181925
0.100112 0.100049 0.099715
0.079308 0.079628 0.079749
0.105746 0.105724 0.105767
0.086063 0.083882 0.079932
0.081849 0.081937 0.081659
0.083546 0.083227 0.083016
0.100127 0.099866 0.099337
0.130093 0.131804 0.138879
0.128976 0.128475 0.128711
0.049136 0.049073 0.048950
0.101574 0.102494 0.103833
0.108494 0.107981 0.107523
0.112325 0.112427 0.112840
0.045622 0.045716 0.045548
0.046684 0.046492 0.046428
0.100359 0.100242 0.100759
0.111340 0.108892 0.108132
0.108075 0.107812 0.107831
0.090808 0.090815 0.090889
0.092303 0.092769 0.093131
0.117393 0.112329 0.111633
0.109409 0.110313 0.110955
0.099958 0.099965 0.099924
0.085975 0.085746 0.085551
0.121644 0.122723 0.122929
0.089319 0.089921 0.090183
0.096709 0.096148 0.095526
0.109934 0.110865 0.111583
0.108252 0.108429 0.110130
0.113718 0.116158 0.115797
0.091849 0.091589 0.091641
0.098296 0.098195 0.097471
0.069482 0.069541 0.069460
0.098809 0.098562 0.098703
0.109128 0.109233 0.109389
0.112749 0.112650 0.112670
0.071753 0.073372 0.071519
0.104186 0.104095 0.104112
0.111399 0.111459 0.112631
0.070802 0.070586 0.070839
0.076562 0.076411 0.075409
0.096055 0.099053 0.103261
0.097105 0.094762 0.091933
0.091589 0.091635 0.091509
0.094532 0.095579 0.095795
0.103041 0.103416 0.104289
0.148318 0.148421 0.146064
0.102375 0.102795 0.103250
0.084726 0.085581 0.084958
0.108032 0.107979 0.108259
0.082554 0.085581 0.085974
0.107259 0.110166 0.110855
0.078998 0.077769 0.074101
0.099106 0.096623 0.096945
0.115385 0.116638 0.116813
0.108842 0.108390 0.108359
0.106340 0.106988 0.109098
0.086879 0.087094 0.087471
0.064550 0.064238 0.064347
0.127941 0.127878 0.127842
0.143409 0.143007 0.142180
0.045488 0.045499 0.045444
0.084547 0.084583 0.084548
0.099667 0.098874 0.098433
0.072261 0.071478 0.072245
0.089648 0.089089 0.089974
0.117653 0.117045 0.117053
0.077791 0.077892 0.078481
0.071044 0.070596 0.070358
0.102910 0.103514 0.103258
0.108423 0.108508 0.108736
0.085736 0.085739 0.085594
0.151857 0.153035 0.153446
0.132210 0.131709 0.131757
0.097334 0.097239 0.097433
0.113097 0.113494 0.113386
0.103526 0.103501 0.103571
0.048434 0.048108 0.047798
0.151949 0.151561 0.150827
0.116490 0.116078 0.115887
0.115804 0.115312 0.114090
0.044959 0.045113 0.045173
0.085579 0.081010 0.081042
0.100515 0.100597 0.100775
0.077189 0.077202 0.077544
0.111004 0.110582 0.110307
0.051749 0.049991 0.049760
0.063767 0.064033 0.064335
0.113271 0.115539 0.115771
0.090831 0.090810 0.090880
0.083802 0.083843 0.084189
0.150366 0.151222 0.151329
0.111479 0.111482 0.111337
0.083245 0.081414 0.080916
0.140017 0.138372 0.138526
0.123135 0.124193 0.125449
0.097911 0.097537 0.099037
0.093275 0.093586 0.094127
0.088113 0.087740 0.087450
0.067924 0.070158 0.069954
0.086407 0.090426 0.086635
0.087439 0.089059 0.089357
0.050349 0.050185 0.050314
0.080055 0.080124 0.080162
0.094234 0.093647 0.093761
0.046081 0.046329 0.045493
0.100521 0.101044 0.101446
0.115689 0.115738 0.115716
0.156913 0.156953 0.153130
0.044185 0.043787 0.043548
0.101011 0.101946 0.101737
0.136694 0.136087 0.136124
0.086086 0.086139 0.086181
0.125704 0.125721 0.126166
0.109492 0.111701 0.112256
0.090404 0.090442 0.091025
0.108171 0.108005 0.108135
0.118510 0.118539 0.118178
0.077801 0.077961 0.079114
0.074874 0.074997 0.075190
0.060292 0.060863 0.061773
0.088361 0.088518 0.088487
0.148087 0.147751 0.145278
0.117053 0.118757 0.122344
0.115077 0.116161 0.116603
0.080434 0.080540 0.080366
0.089733 0.089458 0.089424
0.113434 0.113576 0.113538
0.090838 0.090804 0.090736
0.092639 0.089398 0.089313
0.089929 0.089418 0.089081
0.084891 0.085124 0.086482
0.078318 0.078331 0.078249
0.103054 0.102376 0.102571
0.142092 0.142332 0.143069
0.121227 0.121739 0.122065
0.097251 0.095039 0.093922
0.106122 0.109676 0.109971
0.086965 0.086810 0.084785
0.102277 0.102122 0.100948
0.127555 0.127156 0.127593
0.077566 0.077275 0.075222
0.095736 0.095569 0.095697
0.108269 0.108473 0.110034
0.099069 0.099330 0.098793
0.117534 0.117846 0.117914
0.080908 0.080543 0.080637
0.092760 0.092617 0.092590
0.098590 0.098393 0.099203
0.100770 0.099884 0.099588
0.045205 0.044980 0.044774
0.097199 0.096970 0.096439
0.106133 0.105177 0.103970
