0.127097 0.127085 0.126103
0.169917 0.170307 0.169619
0.108045 0.107781 0.107500
0.126031 0.125036 0.125415
0.182304 0.181438 0.179889
0.176331 0.175358 0.174819
0.137748 0.138319 0.139178
0.143522 0.143273 0.140029
0.174622 0.174412 0.171362
0.122757 0.123191 0.123443
0.152585 0.150940 0.150977
0.133684 0.133764 0.133485
0.142119 0.145050 0.144932
0.134040 0.133988 0.135094
0.174146 0.171244 0.172045
0.165135 0.164366 0.163270
0.133485 0.133351 0.131205
0.163479 0.163208 0.164391
0.121151 0.124358 0.124662
0.140285 0.141706 0.142145
0.172063 0.172096 0.172348
0.148801 0.149981 0.150658
0.159751 0.154529 0.154048
0.177525 0.170816 0.170344
0.184045 0.183403 0.182147
0.106609 0.106788 0.108930
0.155861 0.154795 0.157053
0.130101 0.130150 0.130285
0.178567 0.178525 0.178140
0.080148 0.084777 0.085216
0.178992 0.178266 0.177358
0.141054 0.140649 0.140284
0.166434 0.164685 0.164488
0.152901 0.151072 0.150830
0.129432 0.129631 0.130416
0.129681 0.130849 0.132679
0.141965 0.142538 0.144716
0.170417 0.173924 0.174190
0.125375 0.125727 0.124000
0.062456 0.061981 0.061816
0.108386 0.101673 0.099448
0.141251 0.140344 0.140157
0.178986 0.179673 0.180182
0.188158 0.184498 0.184045
0.082381 0.082423 0.087150
0.143269 0.145070 0.145662
0.136639 0.135946 0.136362
0.159077 0.158719 0.158443
0.077044 0.076143 0.076503
0.157809 0.157365 0.156761
0.158041 0.157801 0.157891
0.093047 0.093253 0.092954
0.139463 0.139092 0.137417
0.135013 0.134751 0.133300
0.134930 0.134828 0.134283
0.139244 0.138799 0.138721
0.170885 0.171449 0.172915
0.188873 0.186876 0.186736
0.119867 0.122746 0.123054
0.151802 0.152137 0.152837
0.151323 0.148665 0.149584
0.117952 0.118809 0.128180
0.131907 0.131930 0.131914
0.153620 0.149213 0.149072
0.180879 0.181192 0.180995
0.137794 0.136628 0.134864
0.148628 0.150431 0.150936
0.076815 0.077205 0.079773
0.078508 0.078180 0.078054
0.157447 0.156507 0.156328
0.156692 0.157025 0.159945
0.124616 0.124401 0.124732
0.146720 0.146840 0.147400
0.132575 0.131767 0.131693
0.153511 0.153651 0.152605
0.193961 0.193195 0.194684
0.152884 0.151367 0.151139
0.164393 0.164392 0.164405
0.145841 0.145506 0.144200
0.124068 0.125228 0.125427
0.136317 0.135037 0.134890
0.138324 0.138885 0.139891
0.149522 0.148307 0.147590
0.184695 0.182916 0.179595
0.078438 0.078252 0.078354
0.167953 0.166578 0.166623
0.108281 0.107987 0.108802
0.171343 0.170844 0.170417
0.092139 0.092024 0.092053
0.177522 0.176167 0.175501
0.093551 0.093728 0.093712
0.164750 0.159430 0.158875
0.079250 0.078884 0.078610
0.122157 0.120837 0.119089
0.168625 0.168842 0.173584
0.144205 0.144984 0.145237
0.091305 0.090902 0.090780
0.141073 0.141888 0.146862
0.118827 0.118837 0.119689
0.153761 0.152810 0.151716
0.108163 0.108207 0.109565
0.134730 0.135230 0.136259
0.153326 0.153062 0.149082
0.144313 0.142767 0.143803
0.124296 0.123444 0.124306
0.139119 0.139497 0.139518
0.191238 0.192246 0.192278
0.165405 0.165539 0.165563
0.148783 0.148339 0.147971
0.141276 0.139714 0.139122
0.139506 0.139465 0.140734
0.131828 0.135735 0.135438
0.142498 0.142771 0.140647
0.179310 0.175917 0.176227
0.140214 0.142138 0.142644
0.139590 0.140659 0.152108
0.135385 0.135341 0.134722
0.138961 0.141432 0.140810
0.144194 0.144213 0.143526
0.153911 0.153847 0.153543
0.151624 0.152787 0.153097
0.188668 0.189834 0.190094
0.137700 0.139087 0.139445
0.166370 0.166188 0.167872
0.159840 0.160574 0.176762
0.165748 0.166368 0.166501
0.134915 0.134254 0.134508
0.144643 0.145208 0.145028
0.158999 0.158671 0.153695
0.177536 0.181590 0.182377
0.199060 0.200630 0.196318
0.182956 0.182216 0.181019
0.197999 0.198636 0.199336
0.142950 0.136906 0.136490
0.170069 0.166952 0.169462
0.128266 0.129424 0.130004
0.109636 0.110082 0.114592
0.112008 0.112463 0.114971
0.158348 0.159229 0.161667
0.132190 0.133592 0.137618
0.137319 0.137052 0.136482
0.192384 0.191769 0.191575
0.135745 0.130909 0.131943
0.157196 0.156877 0.157490
0.157189 0.156777 0.155606
0.125556 0.124754 0.123568
0.129408 0.129290 0.127537
0.125662 0.125882 0.127098
0.141877 0.142524 0.142099
0.078231 0.078308 0.078232
0.088277 0.088246 0.088223
0.132092 0.132706 0.131984
0.108702 0.108475 0.107874
0.125321 0.126237 0.131040
0.167592 0.170660 0.174611
0.114453 0.115548 0.114315
0.146764 0.146589 0.146667
0.115182 0.112142 0.112093
0.125228 0.125260 0.128221
0.155351 0.155391 0.155375
0.180400 0.182088 0.182140
0.139141 0.137758 0.137361
0.159573 0.161486 0.162167
0.166925 0.166898 0.167358
0.136371 0.136299 0.132446
0.090341 0.089963 0.090138
0.113572 0.113371 0.112093
0.203040 0.202439 0.202298
0.139059 0.141030 0.139951
0.169021 0.168590 0.168612
0.175938 0.176522 0.175943
0.196532 0.196683 0.197557
0.185627 0.185402 0.185671
0.133547 0.131803 0.131580
0.163857 0.162948 0.164659
0.137445 0.137297 0.137433
0.089821 0.085246 0.085325
0.089231 0.092809 0.092959
0.128301 0.131710 0.132847
0.122884 0.122458 0.122226
0.167545 0.167387 0.163780
0.207210 0.207961 0.208391
0.178139 0.178667 0.178295
0.192098 0.191738 0.189327
0.141187 0.141372 0.141412
0.149568 0.150883 0.150747
0.124806 0.124497 0.124455
0.150746 0.149675 0.150515
0.087693 0.087742 0.087708
0.138478 0.138934 0.139988
0.129241 0.129007 0.128514
0.122373 0.122354 0.124624
0.186425 0.186345 0.181587
0.070911 0.070551 0.069408
0.159730 0.159603 0.159409
0.125807 0.124657 0.124371
0.146738 0.146130 0.144020
0.146832 0.146627 0.142660
0.187520 0.186966 0.184205
0.089820 0.089699 0.089432
0.138457 0.138641 0.139003
0.163603 0.163586 0.163510
0.142408 0.142578 0.142748
0.130185 0.134614 0.134700
0.114424 0.114306 0.114416
0.162202 0.162331 0.160048
0.113935 0.114523 0.114705
0.117040 0.116993 0.116942
0.169589 0.170890 0.171210
0.171159 0.165426 0.162266
0.122521 0.122847 0.118562
0.137911 0.137955 0.139175
0.111577 0.111150 0.109189
0.080511 0.079836 0.079799
0.156470 0.156790 0.158432
0.129782 0.134473 0.132384
0.131632 0.136550 0.137438
0.161436 0.160618 0.160424
0.148378 0.148365 0.149223
0.195707 0.195568 0.195456
0.167836 0.168316 0.170841
0.145674 0.154940 0.159240
0.061930 0.061853 0.061662
0.127979 0.127444 0.127486
0.138590 0.138526 0.138754
0.149473 0.151857 0.156919
0.063471 0.063531 0.063446
0.103218 0.103184 0.103265
0.162620 0.162018 0.161683
0.127209 0.128315 0.130375
0.160237 0.159568 0.159370
0.148655 0.147696 0.147861
0.092238 0.092302 0.092023
0.151772 0.150783 0.152884
0.164331 0.165842 0.165753
0.144866 0.141750 0.141387
0.118206 0.118160 0.119114
0.195519 0.195944 0.196636
0.144733 0.145710 0.145609
0.139622 0.139706 0.140064
0.166926 0.167859 0.169003
0.182316 0.174625 0.173094
0.124806 0.124486 0.124372
0.150988 0.150602 0.152196
0.117103 0.117074 0.117292
0.131295 0.133150 0.133508
0.146066 0.146130 0.146322
0.180495 0.180525 0.180034
0.171860 0.170456 0.170424
0.160801 0.161069 0.160321
0.179607 0.180625 0.181799
0.169042 0.168220 0.167985
0.109037 0.108935 0.106946
0.134854 0.134934 0.135329
0.148306 0.149200 0.151246
0.163845 0.163787 0.163300
0.168728 0.168672 0.168600
0.127879 0.129204 0.129029
0.139559 0.140410 0.139703
0.112291 0.110734 0.110737
0.164653 0.164954 0.165043
0.151980 0.152221 0.152327
0.157376 0.158496 0.158436
0.175831 0.176442 0.170684
0.093428 0.093787 0.093772
0.192348 0.192247 0.191953
0.122437 0.122584 0.121277
0.079844 0.082334 0.082705
0.151201 0.151811 0.151380
0.166180 0.166379 0.166475
0.079310 0.079406 0.079371
0.175377 0.175717 0.176450
0.121965 0.127114 0.127254
0.149645 0.149491 0.150151
0.136716 0.136650 0.129361
0.107460 0.107629 0.107587
0.137718 0.137782 0.137966
0.160587 0.161852 0.162266
0.093217 0.094786 0.093737
0.134010 0.133088 0.132363
0.155351 0.155392 0.155880
0.107852 0.107817 0.108183
0.134803 0.133262 0.133296
0.178368 0.181484 0.182564
0.074583 0.074417 0.073940
0.169607 0.170524 0.171083
0.140704 0.141546 0.147234
0.117691 0.117816 0.117960
0.168757 0.171287 0.171546
0.073475 0.073307 0.073164
0.181412 0.185976 0.187113
0.160060 0.161997 0.162834
0.076474 0.076116 0.070940
0.137750 0.137673 0.137591
0.115973 0.113785 0.117644
0.158812 0.157306 0.160907
0.073430 0.073528 0.073671
0.146505 0.146685 0.146720
0.176223 0.174072 0.174679
0.137348 0.137219 0.135918
0.140601 0.141371 0.144311
0.119965 0.118761 0.118745
0.159425 0.159072 0.158479
0.126007 0.127098 0.128338
0.165371 0.164169 0.164800
0.167178 0.167029 0.167133
0.115052 0.114358 0.114502
0.082360 0.087177 0.087684
0.135784 0.136074 0.136124
0.196236 0.195768 0.195991
0.118022 0.117822 0.115173
0.150925 0.151614 0.151839
0.089066 0.089088 0.088830
0.161728 0.162186 0.162061
0.132294 0.132873 0.132938
0.132178 0.139201 0.139119
0.117698 0.118151 0.119373
0.140278 0.140303 0.140667
0.163268 0.163269 0.163556
0.141546 0.141754 0.140842
0.130278 0.130426 0.130703
0.152968 0.151548 0.151043
0.143867 0.143895 0.144642
0.170400 0.169626 0.169369
0.178256 0.177267 0.173748
0.148213 0.147587 0.148411
0.137442 0.137436 0.137904
0.141353 0.140630 0.143149
0.144248 0.144387 0.143074
0.118838 0.118896 0.118912
0.068591 0.068574 0.068782
0.131608 0.130766 0.128908
0.132601 0.133166 0.130339
0.073607 0.073318 0.074416
0.108449 0.107843 0.107911
0.130188 0.126757 0.126731
0.081328 0.081324 0.081427
0.137336 0.137691 0.137877
0.175253 0.175508 0.175885
0.137724 0.138130 0.138460
0.126711 0.125566 0.126528
0.164015 0.162746 0.163161
0.140064 0.141227 0.142889
0.126705 0.126543 0.126664
0.123324 0.126675 0.127027
0.114301 0.115239 0.114822
0.146959 0.146298 0.146119
0.182131 0.182160 0.182130
0.174420 0.173653 0.173867
0.153619 0.151906 0.151361
0.138107 0.139185 0.139702
0.171545 0.174402 0.175660
0.140118 0.140217 0.141571
0.145631 0.146176 0.146513
0.146489 0.146632 0.147192
0.163694 0.163336 0.162929
0.150803 0.150844 0.150524
0.139910 0.139249 0.137935
0.196343 0.195871 0.195707
0.171609 0.175045 0.175316
0.109567 0.107645 0.108028
0.094401 0.094606 0.094341
0.123409 0.123360 0.123477
0.130041 0.131922 0.133285
0.158959 0.159715 0.158883
0.162671 0.161441 0.161131
0.131046 0.130783 0.135349
0.148702 0.145289 0.144344
0.124481 0.123157 0.122847
0.080543 0.079833 0.079799
0.092295 0.091903 0.091175
0.137128 0.137257 0.137337
0.196185 0.196236 0.195768
0.127343 0.127090 0.127617
0.106254 0.107415 0.107148
0.063336 0.063613 0.063861
0.086925 0.087011 0.087441
0.168338 0.169473 0.166162
0.106518 0.104556 0.104245
0.064128 0.064151 0.064279
0.162727 0.163756 0.165089
0.148009 0.149431 0.150063
0.142780 0.139269 0.135505
0.129197 0.129414 0.129118
0.146627 0.146894 0.146961
0.163809 0.164942 0.167544
0.135217 0.135371 0.135696
0.175614 0.176537 0.176504
0.151437 0.150726 0.151204
0.128593 0.129961 0.130038
0.184863 0.184789 0.184831
0.159363 0.159155 0.161526
0.109605 0.109944 0.108112
0.088747 0.089198 0.089236
0.215951 0.215277 0.215397
0.146660 0.148030 0.147061
0.167488 0.168024 0.167045
0.155463 0.156374 0.155675
0.177204 0.176833 0.176042
0.087316 0.087393 0.087004
0.186447 0.186613 0.186853
0.177765 0.177114 0.176617
0.093456 0.092562 0.092643
0.120899 0.119450 0.114691
0.137984 0.137718 0.138034
0.172923 0.173118 0.175888
0.090509 0.090273 0.090206
0.089538 0.089444 0.089453
0.073849 0.078145 0.078668
0.090448 0.091176 0.091103
0.133188 0.139358 0.139300
0.167796 0.167269 0.165653
0.161910 0.165307 0.166698
0.163792 0.166004 0.165715
0.139673 0.139651 0.140205
0.144816 0.151988 0.154639
0.145691 0.145753 0.145060
0.153959 0.152894 0.152492
0.171172 0.172640 0.172592
0.143726 0.140865 0.142929
0.076760 0.076815 0.077205
0.092242 0.092145 0.092075
0.142200 0.145241 0.146547
0.138720 0.138526 0.138591
0.165671 0.167078 0.177066
0.124835 0.125738 0.126249
0.082509 0.078898 0.078067
0.144896 0.145691 0.145753
0.139599 0.140007 0.140273
0.157687 0.157583 0.157588
0.123210 0.123767 0.123654
0.154563 0.154515 0.152585
0.077982 0.078088 0.080784
0.161094 0.161206 0.161733
0.200134 0.199398 0.193294
0.089583 0.090256 0.089333
0.160506 0.161418 0.162098
0.148130 0.145920 0.145310
0.137617 0.137320 0.137004
0.180858 0.180727 0.178086
0.158902 0.158206 0.158644
0.146987 0.147223 0.148502
0.140548 0.141536 0.139952
0.112580 0.117698 0.118151
0.136725 0.136708 0.136716
0.148153 0.147709 0.148468
0.147921 0.148198 0.148231
0.174072 0.174679 0.174356
0.131498 0.131488 0.131636
0.167977 0.166593 0.166406
0.126656 0.126622 0.126614
0.190805 0.187809 0.186302
0.199063 0.199191 0.200798
0.153364 0.153516 0.153345
0.074908 0.076134 0.076339
0.125254 0.125401 0.125484
0.075922 0.075850 0.076252
0.169306 0.169278 0.171037
0.141603 0.142037 0.141870
0.169821 0.170002 0.171360
0.089579 0.088353 0.088279
0.150480 0.150348 0.149686
0.130246 0.130188 0.126757
0.148722 0.147763 0.142306
0.132322 0.131949 0.132892
0.095731 0.093028 0.093439
0.164734 0.163721 0.164814
0.135752 0.134832 0.135503
0.137893 0.138135 0.139260
0.155306 0.154931 0.152503
0.091250 0.091971 0.092302
0.093731 0.093768 0.093828
0.133224 0.134767 0.135861
0.157257 0.157799 0.153809
0.141113 0.141627 0.141636
0.079561 0.079514 0.079537
0.153303 0.152065 0.149549
0.169072 0.174018 0.171887
0.118197 0.119060 0.119962
0.104344 0.105289 0.106003
0.176029 0.175968 0.176390
0.078471 0.078378 0.078265
0.162832 0.162677 0.161638
0.072541 0.073290 0.073501
0.187095 0.186435 0.162432
0.180175 0.180296 0.180491
0.133750 0.134153 0.134615
0.076339 0.076176 0.076185
0.163876 0.163862 0.163892
0.138555 0.139717 0.148623
0.170750 0.170652 0.170446
0.172184 0.168673 0.168203
0.142466 0.142952 0.143659
0.145985 0.142383 0.142539
0.127056 0.127550 0.127267
0.167469 0.167328 0.177848
0.128093 0.128277 0.128286
0.153053 0.152693 0.157013
0.187823 0.187945 0.192437
0.166457 0.165985 0.165027
0.157599 0.157536 0.157520
0.133159 0.133176 0.133030
0.130950 0.131083 0.130953
0.131796 0.140181 0.139734
0.153150 0.152452 0.151537
0.201853 0.201473 0.201207
0.158602 0.156408 0.156114
0.192428 0.192219 0.190671
0.155498 0.156206 0.156461
0.174590 0.175597 0.176371
0.114621 0.126730 0.126659
0.107764 0.107470 0.104896
0.123986 0.123525 0.123226
0.122667 0.122284 0.117108
0.089338 0.089918 0.092674
0.105635 0.105503 0.103556
0.171100 0.170824 0.171062
0.134767 0.134688 0.136421
0.124267 0.124103 0.123692
0.154273 0.153920 0.150970
0.135304 0.146474 0.147194
0.162663 0.161565 0.161163
0.127553 0.127944 0.127897
0.186342 0.186271 0.186886
0.198624 0.197744 0.197611
0.160661 0.160625 0.160129
0.142807 0.142435 0.141882
0.177950 0.178702 0.182420
0.144650 0.140880 0.139578
0.074670 0.074179 0.073742
0.138562 0.139383 0.139701
0.134537 0.134275 0.133945
0.142614 0.142888 0.142719
0.134599 0.134677 0.134464
0.138504 0.140045 0.139891
0.162126 0.161943 0.161860
0.176572 0.176546 0.175548
0.147193 0.146656 0.145300
0.136279 0.133636 0.133576
0.120473 0.120297 0.120610
0.082115 0.082134 0.078377
0.125723 0.125688 0.126942
0.150392 0.153665 0.155026
0.161283 0.162573 0.165674
0.162411 0.161893 0.154849
0.167960 0.166976 0.165856
0.138652 0.138822 0.141177
0.137603 0.138433 0.138387
0.146709 0.148801 0.149981
0.122526 0.122444 0.122778
0.139315 0.139559 0.139422
0.155749 0.153960 0.154153
0.128808 0.128868 0.128653
0.114247 0.114386 0.114517
0.130729 0.130873 0.131111
0.089519 0.089297 0.089415
0.155364 0.155592 0.155579
0.174563 0.172614 0.174997
0.151646 0.154982 0.154420
0.135822 0.136185 0.132278
0.079454 0.079431 0.079452
0.120309 0.120248 0.120180
0.135690 0.135627 0.135929
0.079475 0.079736 0.079334
0.073330 0.073369 0.073600
0.138245 0.138715 0.138879
0.089764 0.089902 0.089771
0.176508 0.174555 0.176129
0.123039 0.123091 0.124022
0.180089 0.178484 0.178089
0.161994 0.169489 0.172199
0.161631 0.163909 0.164311
0.111644 0.113355 0.113408
0.116560 0.115993 0.116025
0.167705 0.167113 0.166688
0.158602 0.153500 0.154028
0.141131 0.142822 0.142201
0.154056 0.154144 0.154373
0.123990 0.124236 0.124391
0.183109 0.183377 0.183662
0.137278 0.139925 0.139961
0.138567 0.129169 0.128089
0.128174 0.128488 0.128761
0.182101 0.181613 0.181197
0.079568 0.079704 0.081667
0.128430 0.128388 0.128407
0.167166 0.166381 0.161886
0.161829 0.162242 0.164298
0.137159 0.137239 0.137158
0.174292 0.174545 0.174598
0.136367 0.136276 0.136415
0.125283 0.124751 0.125895
0.093689 0.093970 0.093912
0.115515 0.115509 0.114725
0.134279 0.133480 0.133680
0.165916 0.166236 0.165515
0.176208 0.175662 0.176223
0.174520 0.173202 0.172369
0.185504 0.184797 0.179877
0.166593 0.165180 0.166848
0.166289 0.165801 0.160830
0.085032 0.085475 0.085462
0.079410 0.079280 0.078183
0.145741 0.144273 0.141779
0.161574 0.162533 0.162514
0.168876 0.168338 0.169473
0.149008 0.148190 0.148250
0.132745 0.132839 0.133212
0.174453 0.174993 0.174578
0.173141 0.173345 0.174239
0.152903 0.152081 0.150237
0.155624 0.156566 0.155700
0.149156 0.148536 0.147393
0.139430 0.139132 0.139636
0.147513 0.149835 0.149899
0.131264 0.131321 0.131369
0.150458 0.149894 0.149257
0.093782 0.093522 0.093911
0.174226 0.174681 0.175544
0.138431 0.138788 0.139797
0.161652 0.161560 0.161585
0.147475 0.147235 0.146693
0.078682 0.079529 0.079504
0.123941 0.123812 0.123582
0.084524 0.084732 0.084759
0.059812 0.059667 0.059476
0.147563 0.147520 0.147574
0.125149 0.124206 0.123554
0.137542 0.137887 0.138655
0.092203 0.091975 0.092082
0.089729 0.089572 0.089586
0.137209 0.137300 0.139922
0.142312 0.141990 0.141834
0.082628 0.082638 0.082724
0.168392 0.168480 0.169672
0.130592 0.130868 0.130178
0.148239 0.147787 0.150119
0.164976 0.166051 0.167184
0.073378 0.074515 0.074697
0.127404 0.124970 0.131603
0.068605 0.069019 0.069408
0.156045 0.156031 0.156268
0.204446 0.202449 0.202535
0.180746 0.181218 0.181205
0.152244 0.150285 0.149680
0.143024 0.143266 0.143551
0.116312 0.118572 0.118789
0.091118 0.091233 0.091183
0.078233 0.078061 0.078255
0.168864 0.168809 0.168879
0.089558 0.089447 0.087623
0.125300 0.125664 0.125847
0.093577 0.093702 0.093660
0.137233 0.136741 0.135516
0.153466 0.154335 0.153775
0.178632 0.177353 0.177631
0.135964 0.135397 0.134762
0.138917 0.138296 0.137461
0.193215 0.194060 0.194169
0.143922 0.145932 0.146297
0.127980 0.128193 0.127793
0.090420 0.091438 0.091090
0.172656 0.172607 0.171655
0.138526 0.138591 0.138610
0.162858 0.163155 0.163396
0.093654 0.093550 0.093630
0.154046 0.153763 0.154109
0.127020 0.127653 0.125742
0.146800 0.147881 0.148516
0.148328 0.143354 0.142926
0.132097 0.132744 0.135112
0.157341 0.156889 0.155842
0.176048 0.176030 0.183462
0.072864 0.072711 0.072988
0.141653 0.139470 0.138897
0.092718 0.093168 0.092934
0.105439 0.106698 0.103989
0.146494 0.146596 0.146877
0.150767 0.150656 0.150987
0.166745 0.166806 0.166229
0.168734 0.164275 0.147835
0.129216 0.129243 0.126994
0.142105 0.142111 0.141995
0.125268 0.125518 0.129045
0.155842 0.157668 0.157700
0.141610 0.143147 0.143917
0.092403 0.092289 0.086629
0.174828 0.175948 0.176296
0.153925 0.152608 0.154193
0.168108 0.168158 0.167519
0.077861 0.078162 0.078223
0.176318 0.176358 0.176254
0.108151 0.108858 0.104188
0.075931 0.075941 0.076307
0.167608 0.167662 0.168350
0.138521 0.137584 0.138664
0.126312 0.126425 0.124915
0.136977 0.136935 0.137524
0.140930 0.141369 0.141175
0.151431 0.151486 0.151948
0.129667 0.130313 0.130301
0.144541 0.143901 0.142287
0.127922 0.128022 0.128151
0.131288 0.131059 0.128959
0.131687 0.134737 0.136767
0.133752 0.132325 0.132150
0.128012 0.128172 0.128061
0.138927 0.138994 0.140579
0.167983 0.167842 0.164167
0.148316 0.147927 0.147488
0.139368 0.139704 0.139483
0.075191 0.075261 0.075330
0.112535 0.112636 0.112684
0.112017 0.111853 0.112481
0.147202 0.147634 0.148747
0.115234 0.115101 0.114401
0.179781 0.179722 0.180160
0.132642 0.131511 0.132057
0.137146 0.136977 0.138367
0.130332 0.130284 0.130122
0.115233 0.115442 0.115964
0.082158 0.081969 0.081994
0.135079 0.135073 0.135884
0.090017 0.089665 0.089676
0.124361 0.124604 0.124894
0.169410 0.169529 0.170841
0.138720 0.141040 0.141389
0.143596 0.143823 0.143718
0.148435 0.148506 0.148533
0.139769 0.139536 0.138359
0.128036 0.127830 0.127912
0.131906 0.131874 0.132097
0.181754 0.181297 0.181861
0.152259 0.150808 0.151036
0.139254 0.139091 0.138533
0.107794 0.108836 0.109172
0.123326 0.123036 0.123244
0.202648 0.202347 0.202798
0.091320 0.091322 0.091157
0.160281 0.159497 0.159940
0.158651 0.158852 0.159751
0.069286 0.069553 0.073322
0.137077 0.136748 0.136459
0.184160 0.185026 0.183084
0.185207 0.184934 0.179342
0.138646 0.140946 0.142650
0.169279 0.167099 0.168142
0.161039 0.161774 0.161254
0.162935 0.163680 0.165317
0.143746 0.142378 0.142328
0.136165 0.136202 0.137440
0.114660 0.114809 0.114570
0.174559 0.175405 0.176849
0.164631 0.164201 0.164205
0.142871 0.139483 0.138527
0.149317 0.150896 0.151853
0.164484 0.164706 0.164657
0.134054 0.133999 0.134002
0.140783 0.141130 0.141353
0.137697 0.137765 0.137933
0.130904 0.130659 0.130471
0.153960 0.154153 0.158565
0.148032 0.148099 0.148700
0.114354 0.114461 0.117054
0.178545 0.178709 0.179040
0.143657 0.140817 0.140987
0.128504 0.128093 0.128277
0.067610 0.067543 0.067077
0.163313 0.163263 0.165446
0.195781 0.195981 0.195804
0.139676 0.139219 0.138954
0.160462 0.161444 0.159400
0.195073 0.195784 0.195886
0.135581 0.136695 0.138382
0.142044 0.144661 0.145390
0.166447 0.165984 0.165771
0.146055 0.146918 0.143492
0.147118 0.146694 0.148086
0.152608 0.154193 0.155765
0.085056 0.085503 0.085560
0.106422 0.104150 0.106000
0.160029 0.160778 0.161020
0.165979 0.164657 0.164319
0.092699 0.092613 0.092485
0.156754 0.157032 0.156732
0.075141 0.075201 0.074947
0.152549 0.152892 0.152911
0.103601 0.105478 0.105459
0.169677 0.167872 0.164060
0.078791 0.079179 0.083032
0.123611 0.122476 0.122439
0.123997 0.119750 0.118142
0.102808 0.102388 0.098890
0.161540 0.162804 0.164085
0.069719 0.069729 0.069976
0.154973 0.153700 0.152220
0.172378 0.172424 0.172434
0.159888 0.162409 0.162102
0.119109 0.119867 0.122746
0.135316 0.135957 0.136537
0.142806 0.139690 0.138295
0.108498 0.108822 0.108806
0.126436 0.123373 0.122578
0.073058 0.076855 0.076189
0.121500 0.121199 0.120984
0.127944 0.126273 0.126597
0.125759 0.126792 0.127091
0.148118 0.149541 0.150520
0.141647 0.142782 0.143718
0.140069 0.137651 0.137445
0.129111 0.128829 0.129531
0.112238 0.112124 0.111036
0.114428 0.114541 0.112380
0.126428 0.126039 0.127116
0.063586 0.063400 0.063451
0.186796 0.186682 0.188459
0.094088 0.094303 0.095057
0.128624 0.127543 0.127909
0.120622 0.123299 0.123409
0.125175 0.125442 0.125088
0.149090 0.149015 0.149075
0.128609 0.128771 0.127303
0.144474 0.145468 0.148249
0.138258 0.138137 0.139396
0.164300 0.163481 0.162414
0.140354 0.140422 0.136145
0.125145 0.124716 0.124610
0.092467 0.092347 0.092014
0.189467 0.188988 0.186897
0.138782 0.137563 0.137211
0.140298 0.135473 0.133139
0.171734 0.170909 0.169791
0.161738 0.161322 0.159806
0.147826 0.147819 0.146888
0.079379 0.079725 0.078985
0.190106 0.189293 0.189470
0.147751 0.147785 0.147956
0.171821 0.171968 0.174117
0.150585 0.149334 0.147965
0.200072 0.198936 0.198786
0.135397 0.134762 0.137360
0.149217 0.149067 0.149486
0.109255 0.110345 0.110668
0.178703 0.180088 0.182764
0.132520 0.132985 0.132946
0.136720 0.137103 0.137460
0.147034 0.146773 0.146095
0.123437 0.126158 0.126505
0.082159 0.082015 0.078461
0.143784 0.142256 0.142594
0.142998 0.144929 0.145503
0.128569 0.128588 0.128769
0.085530 0.085427 0.084775
0.171681 0.173629 0.172476
0.168844 0.169333 0.169305
0.068423 0.068434 0.068394
0.150861 0.150720 0.151023
0.078620 0.079067 0.083157
0.150364 0.149838 0.149509
0.165529 0.167230 0.167645
0.080564 0.080348 0.079843
0.161266 0.161749 0.162285
0.196237 0.195786 0.195961
0.152829 0.155606 0.156011
0.105655 0.105442 0.104029
0.072857 0.072422 0.073292
0.151082 0.150567 0.150719
0.154757 0.154854 0.156045
0.131622 0.131916 0.131973
0.166692 0.165276 0.165202
0.121852 0.125508 0.126087
0.143903 0.144011 0.147697
0.129264 0.127343 0.127090
0.167350 0.166794 0.163999
0.202275 0.202157 0.201999
0.170974 0.172426 0.171981
0.118793 0.118191 0.118287
0.166681 0.166418 0.164150
0.083346 0.083622 0.083419
0.134386 0.134598 0.134599
0.149261 0.149525 0.150189
0.130312 0.130225 0.129791
0.168844 0.169468 0.169370
0.185317 0.184463 0.184203
0.142511 0.141646 0.141342
0.178894 0.178337 0.177784
0.075590 0.075692 0.075676
0.130848 0.133017 0.132829
0.139613 0.140204 0.141377
0.214347 0.215067 0.217440
0.126641 0.126398 0.126605
0.137653 0.137218 0.136920
0.174388 0.174848 0.174337
0.178702 0.182420 0.181383
0.084152 0.084408 0.084783
0.124953 0.124925 0.124711
0.177966 0.179517 0.183135
0.167879 0.167998 0.168392
0.138122 0.138670 0.138747
0.122682 0.117509 0.117212
0.089351 0.089852 0.089958
0.122197 0.122060 0.122225
0.166205 0.166902 0.166435
0.068476 0.067919 0.067854
0.168697 0.159957 0.156601
0.148273 0.146472 0.146042
0.150467 0.150806 0.149018
0.135158 0.134859 0.135735
0.153517 0.153135 0.152831
0.191871 0.191898 0.191409
0.086583 0.082366 0.089166
0.108914 0.110537 0.110573
0.138551 0.138287 0.138597
0.146009 0.150745 0.149872
0.082487 0.082751 0.082557
0.189498 0.190040 0.191681
0.163243 0.162375 0.160544
0.143416 0.147167 0.148467
0.137403 0.137303 0.136579
0.178945 0.178703 0.176839
0.123081 0.123246 0.123345
0.151504 0.150630 0.146535
0.152807 0.151519 0.152417
0.140401 0.138778 0.137755
0.164460 0.165189 0.166906
0.157013 0.156342 0.156168
0.177125 0.173907 0.173220
0.143938 0.142289 0.142531
0.176957 0.179208 0.182090
0.168711 0.168701 0.162245
0.111681 0.111567 0.111344
0.155545 0.155271 0.153328
0.144290 0.144613 0.145155
0.079754 0.079779 0.079664
0.063734 0.063596 0.063360
0.130409 0.130554 0.132731
0.132622 0.132543 0.132684
0.085521 0.085398 0.084330
0.068619 0.068643 0.066404
0.148050 0.148525 0.148811
0.166649 0.169593 0.170010
0.143721 0.141630 0.132732
0.141645 0.141721 0.142849
0.125566 0.126528 0.130068
0.170616 0.169038 0.167037
0.114600 0.114820 0.116312
0.118654 0.118685 0.118827
0.150738 0.149987 0.150505
0.170078 0.170103 0.170779
0.132962 0.133009 0.130743
0.127335 0.128091 0.128882
0.182098 0.182313 0.182744
0.140426 0.140284 0.140548
0.139770 0.138597 0.138317
0.126051 0.125249 0.125979
0.090221 0.090202 0.090011
0.121359 0.121345 0.120176
0.165345 0.167019 0.164362
0.144482 0.144838 0.145522
0.191739 0.191754 0.191840
0.125326 0.124905 0.125549
0.136033 0.135574 0.135686
0.152299 0.152323 0.153344
0.122814 0.124903 0.125140
0.110784 0.110802 0.109691
0.079555 0.079454 0.079431
0.154073 0.153827 0.155508
0.170904 0.170248 0.173900
0.116166 0.115358 0.115703
0.139067 0.139909 0.141090
0.165428 0.164939 0.160192
0.194675 0.194236 0.193152
0.105300 0.109062 0.109441
0.175520 0.175808 0.176065
0.094621 0.094374 0.094276
0.115730 0.112810 0.112333
0.190458 0.190170 0.190192
0.140514 0.144165 0.142804
0.190213 0.189584 0.189269
0.177305 0.176911 0.176615
0.171940 0.172088 0.173232
0.142204 0.142238 0.143502
0.081627 0.081531 0.081411
0.152510 0.152133 0.151088
0.076010 0.076203 0.077939
0.125801 0.122067 0.122681
0.169878 0.169183 0.169410
0.157196 0.157094 0.155852
0.166939 0.167075 0.167267
0.115019 0.115442 0.115639
0.117007 0.116331 0.116560
0.161553 0.164723 0.164475
0.091259 0.090322 0.087174
0.178587 0.178908 0.179232
0.074841 0.074659 0.074732
0.183067 0.183010 0.182959
0.175326 0.172782 0.170663
0.178828 0.178980 0.180260
0.150606 0.149717 0.152086
0.127030 0.127373 0.128917
