0.250581 0.236141 0.228945
0.162443 0.163910 0.163622
0.129978 0.129402 0.128068
0.230474 0.229858 0.228506
0.132539 0.132311 0.131402
0.137863 0.138655 0.138793
0.232163 0.227528 0.229611
0.206750 0.206328 0.206320
0.174169 0.163650 0.159267
0.147446 0.148108 0.150034
0.128206 0.127688 0.127317
0.126346 0.126984 0.127356
0.169249 0.165707 0.163074
0.141606 0.144184 0.144699
0.139524 0.140567 0.141711
0.153939 0.158061 0.157825
0.137511 0.136935 0.136064
0.153435 0.152144 0.151291
0.172890 0.172295 0.170584
0.152896 0.151799 0.151709
0.076747 0.076792 0.076360
0.277531 0.276402 0.275402
0.171630 0.170706 0.168752
0.125976 0.126078 0.126105
0.168357 0.170614 0.171253
0.210499 0.211005 0.210376
0.125304 0.125462 0.125224
0.135173 0.135025 0.134392
0.146297 0.146111 0.145091
0.141682 0.141384 0.141579
0.167525 0.167670 0.167196
0.119148 0.120750 0.122306
0.134655 0.134364 0.134262
0.233149 0.233075 0.231450
0.129082 0.129098 0.128900
0.145599 0.147406 0.145322
0.098629 0.098139 0.098215
0.145518 0.142863 0.142047
0.112917 0.112801 0.112889
0.134830 0.134421 0.134202
0.154564 0.155089 0.153784
0.162821 0.161928 0.161727
0.149817 0.149922 0.148863
0.142804 0.142912 0.143445
0.133627 0.134425 0.134479
0.124797 0.124929 0.124507
0.126639 0.127954 0.129323
0.174246 0.174772 0.175445
0.169298 0.168669 0.169003
0.165388 0.165588 0.166181
0.141193 0.140047 0.140966
0.167199 0.162743 0.158151
0.117717 0.119538 0.119379
0.165323 0.164744 0.165616
0.190678 0.188338 0.187951
0.136399 0.136586 0.135437
0.211114 0.209635 0.210850
0.172548 0.171964 0.169540
0.127806 0.125460 0.124496
0.197296 0.196559 0.196574
0.126765 0.127097 0.128050
0.159691 0.160182 0.160435
0.130442 0.132129 0.133940
0.150121 0.150059 0.149933
0.134377 0.133700 0.136590
0.132009 0.132213 0.134484
0.117301 0.115894 0.113739
0.201348 0.200951 0.201482
0.119003 0.119199 0.119281
0.182547 0.182522 0.182089
0.173569 0.170753 0.170998
0.148732 0.147582 0.144268
0.098084 0.098236 0.098601
0.130795 0.130941 0.131534
0.140196 0.140760 0.141554
0.106445 0.105994 0.103522
0.122120 0.122440 0.122504
0.118675 0.118965 0.118876
0.154658 0.155570 0.157439
0.149942 0.148870 0.148969
0.114759 0.116183 0.117428
0.151832 0.150718 0.151375
0.186065 0.183824 0.181734
0.119565 0.120361 0.122293
0.129372 0.129590 0.129670
0.115835 0.116403 0.116671
0.126763 0.127368 0.127594
0.134856 0.134987 0.134764
0.180710 0.179669 0.179974
0.142397 0.143050 0.143685
0.135066 0.134450 0.135066
0.199167 0.198983 0.198800
0.132235 0.131763 0.130609
0.125710 0.127516 0.127838
0.100484 0.100199 0.099992
0.173274 0.172978 0.172494
0.132276 0.133463 0.133448
0.109022 0.109168 0.109021
0.106906 0.106651 0.105619
0.137712 0.138565 0.138986
0.128957 0.126774 0.126989
0.179703 0.180940 0.182156
0.133647 0.133082 0.132975
0.148613 0.148780 0.148807
0.170989 0.172376 0.173983
0.124418 0.125215 0.126623
0.129788 0.129906 0.132273
0.174912 0.177302 0.176843
0.165519 0.165626 0.166100
0.118639 0.119641 0.119827
0.180677 0.179184 0.176643
0.128181 0.127589 0.128249
0.164994 0.164387 0.164596
0.153807 0.154186 0.154983
0.168591 0.165086 0.165556
0.158221 0.157963 0.160116
0.125048 0.124414 0.124142
0.133117 0.135008 0.134857
0.125506 0.126274 0.127456
0.093840 0.094258 0.095632
0.211555 0.210307 0.207858
0.138354 0.137946 0.137724
0.152227 0.152517 0.152513
0.136576 0.135644 0.134993
0.166507 0.166755 0.167525
0.164065 0.163511 0.163507
0.181185 0.181390 0.182564
0.155509 0.155546 0.156970
0.130124 0.130199 0.130560
0.177482 0.177530 0.171048
0.183875 0.183150 0.183009
0.137896 0.137869 0.138578
0.139766 0.140832 0.141000
0.123654 0.123485 0.123198
0.193573 0.192431 0.192170
0.255163 0.254030 0.256213
0.145007 0.144867 0.144327
0.123225 0.122875 0.124707
0.246152 0.248618 0.249385
0.193037 0.193745 0.193535
0.209117 0.207133 0.206546
0.139036 0.138495 0.138199
0.156956 0.160760 0.160958
0.171479 0.172545 0.173564
0.210355 0.209731 0.213629
0.171484 0.171403 0.172132
0.165905 0.166103 0.165551
0.145200 0.145627 0.145598
0.227096 0.228329 0.229598
0.196372 0.197243 0.198478
0.132434 0.132339 0.131869
0.164871 0.165512 0.165089
0.126470 0.126664 0.125894
0.127142 0.129484 0.129532
0.195004 0.195319 0.195459
0.126629 0.127447 0.128123
0.133101 0.132764 0.133432
0.140726 0.141419 0.141559
0.134404 0.133846 0.132809
0.231661 0.231296 0.232900
0.084836 0.083314 0.082368
0.090662 0.090498 0.091509
0.172184 0.173893 0.174694
0.169321 0.171699 0.171891
0.137899 0.136413 0.137404
0.173587 0.174514 0.173038
0.212072 0.214402 0.214946
0.160875 0.163472 0.166607
0.137067 0.136525 0.136878
0.114640 0.114645 0.114727
0.161514 0.162065 0.162587
0.201770 0.201114 0.201435
0.192846 0.194297 0.196379
0.158421 0.158273 0.158255
0.137013 0.136556 0.136801
0.146849 0.145723 0.144409
0.124430 0.124334 0.123657
0.126101 0.126551 0.127736
0.126224 0.126176 0.125532
0.149084 0.149965 0.150921
0.126755 0.125867 0.124980
0.114946 0.118944 0.120777
0.147171 0.147415 0.148116
0.205411 0.203813 0.201857
0.187220 0.187270 0.187511
0.133110 0.133443 0.133339
0.128041 0.127450 0.125518
0.133575 0.132686 0.132793
0.173494 0.173189 0.173129
0.238858 0.238547 0.236828
0.215257 0.214652 0.212361
0.136493 0.136587 0.135915
0.134311 0.133137 0.132676
0.148517 0.148125 0.148471
0.129828 0.130696 0.132255
0.144603 0.145030 0.144947
0.136900 0.136982 0.137562
0.133803 0.134220 0.135140
0.118022 0.118038 0.117144
0.171500 0.171858 0.171805
0.128749 0.130681 0.130783
0.180817 0.179834 0.180196
0.166246 0.166696 0.166815
0.136316 0.136741 0.136822
0.163483 0.157767 0.157129
0.162523 0.161011 0.161406
0.128365 0.128153 0.129887
0.153029 0.152822 0.152022
0.166034 0.165182 0.164282
0.124528 0.124764 0.124947
0.120730 0.121234 0.122245
0.150587 0.150870 0.151009
0.250658 0.250425 0.248991
0.118572 0.119398 0.119508
0.135896 0.136488 0.137905
0.131221 0.130546 0.129878
0.150039 0.148523 0.146813
0.136972 0.135947 0.135818
0.117268 0.116974 0.118101
0.122598 0.123018 0.122693
0.143902 0.143481 0.142952
0.158925 0.159713 0.159483
0.162264 0.162634 0.164432
0.145428 0.146360 0.147223
0.142195 0.139134 0.138514
0.174512 0.169918 0.167971
0.116121 0.115953 0.116848
0.121422 0.124797 0.124929
0.202399 0.202149 0.201364
0.216611 0.220146 0.221034
0.138435 0.138290 0.138758
0.183653 0.183655 0.183978
0.135897 0.136523 0.136556
0.121504 0.121739 0.120638
0.190969 0.191082 0.191535
0.107194 0.107048 0.106702
0.213499 0.212899 0.214096
0.153470 0.153408 0.151962
0.126592 0.126174 0.126121
0.143731 0.144994 0.145946
0.155797 0.153284 0.151346
0.194613 0.193871 0.190792
0.141869 0.139326 0.139138
0.133015 0.131833 0.131702
0.172489 0.171995 0.171623
0.215258 0.214774 0.212375
0.145875 0.146004 0.145133
0.174534 0.174196 0.174201
0.131009 0.131149 0.130459
0.125503 0.124734 0.124269
0.169130 0.167889 0.167588
0.134776 0.135015 0.135945
0.119578 0.121136 0.122604
0.172375 0.172715 0.174572
0.207033 0.207190 0.206106
0.195371 0.195840 0.195413
0.133573 0.134858 0.135735
0.133100 0.133306 0.131473
0.152904 0.152896 0.151799
0.187021 0.187428 0.185737
0.154828 0.156529 0.156295
0.134158 0.134423 0.134697
0.166527 0.164860 0.165524
0.273747 0.270337 0.267301
0.119545 0.119458 0.119439
0.177007 0.178220 0.179715
0.229725 0.228941 0.228710
0.167545 0.167339 0.167862
0.160849 0.161157 0.160298
0.170476 0.169415 0.168161
0.128264 0.129965 0.129569
0.130074 0.129521 0.128344
0.177578 0.178586 0.178793
0.130171 0.130259 0.130258
0.258732 0.252627 0.251220
0.118816 0.118681 0.118785
0.126465 0.126908 0.127365
0.124715 0.124469 0.124561
0.160618 0.158485 0.158889
0.132947 0.132866 0.133435
0.162883 0.162391 0.161687
0.119335 0.118168 0.117146
0.131238 0.130846 0.130680
0.149049 0.149556 0.151460
0.146993 0.146503 0.145531
0.165992 0.167479 0.167518
0.163015 0.162112 0.162925
0.184815 0.185315 0.187059
0.106557 0.107138 0.107363
0.209787 0.209988 0.211475
0.131999 0.132771 0.134914
0.142960 0.141272 0.140706
0.124860 0.126601 0.127231
0.165140 0.164385 0.164402
0.143712 0.145006 0.145749
0.094807 0.094725 0.094790
0.128662 0.128007 0.129845
0.163001 0.162010 0.161531
0.144627 0.146652 0.148819
0.205853 0.206567 0.206233
0.199264 0.199535 0.199627
0.167554 0.167677 0.167751
0.227671 0.227619 0.229479
0.171987 0.171544 0.171270
0.184349 0.183935 0.184646
0.143663 0.141786 0.140865
0.164841 0.165568 0.166931
0.170312 0.170675 0.171020
0.170499 0.170088 0.169849
0.150682 0.148255 0.143734
0.159782 0.160001 0.160419
0.138313 0.139257 0.138680
0.219702 0.219689 0.219431
0.158306 0.159241 0.158711
0.175191 0.177792 0.178875
0.116357 0.116899 0.113662
0.250741 0.249184 0.248541
0.211659 0.211639 0.211183
0.135888 0.137262 0.137587
0.125919 0.125970 0.126367
0.146123 0.146079 0.145184
0.183555 0.181195 0.181323
0.110408 0.111743 0.112298
0.133536 0.133041 0.133766
0.119355 0.119629 0.120019
0.126131 0.125529 0.125539
0.165700 0.165265 0.165278
0.160486 0.161101 0.160632
0.140852 0.140650 0.137866
0.137275 0.137476 0.137286
0.118820 0.126686 0.126735
0.090460 0.090115 0.090351
0.183938 0.183627 0.185878
0.157612 0.157429 0.156865
0.088199 0.088862 0.089073
0.114592 0.115865 0.116010
0.209954 0.209977 0.209635
0.117744 0.116686 0.117907
0.192455 0.191756 0.191808
0.170207 0.170708 0.171540
0.117829 0.117764 0.117876
0.116871 0.117181 0.117365
0.129037 0.128605 0.128101
0.144028 0.143256 0.142737
0.125371 0.124947 0.124698
0.093729 0.094602 0.095117
0.203150 0.202808 0.203918
0.127208 0.127600 0.128474
0.144340 0.143722 0.145965
0.158886 0.156993 0.156803
0.130866 0.130360 0.132948
0.120175 0.119905 0.120993
0.165116 0.167507 0.168181
0.156920 0.164286 0.167125
0.177987 0.177226 0.177769
0.126306 0.126372 0.126803
0.158735 0.159542 0.160212
0.121024 0.120987 0.120380
0.154522 0.153663 0.156542
0.138377 0.138531 0.137752
0.171137 0.167969 0.167909
0.125275 0.125446 0.126061
0.130172 0.129686 0.129891
0.121524 0.120833 0.121297
0.224105 0.224220 0.223584
0.137161 0.137276 0.137850
0.141918 0.142402 0.145236
0.168596 0.167897 0.167759
0.129573 0.129686 0.130191
0.146753 0.147298 0.146988
0.131257 0.131130 0.132289
0.227136 0.227049 0.226869
0.173192 0.173232 0.173014
0.148674 0.148822 0.149643
0.135815 0.136478 0.135622
0.120511 0.120898 0.122155
0.163514 0.165706 0.167070
0.167550 0.168362 0.167585
0.169206 0.169532 0.169103
0.114781 0.114986 0.115027
0.168746 0.168766 0.169633
0.158084 0.160589 0.165232
0.133455 0.132905 0.131523
0.170743 0.169344 0.165586
0.170758 0.172048 0.173448
0.147759 0.149307 0.148947
0.138504 0.137566 0.138313
0.203981 0.204565 0.202902
0.193181 0.191317 0.190515
0.117698 0.117845 0.117145
0.083803 0.082909 0.083539
0.134758 0.134691 0.133532
0.140317 0.140727 0.141686
0.145554 0.144805 0.143767
0.142120 0.141163 0.140913
0.124322 0.124790 0.125048
0.142187 0.143000 0.142841
0.138988 0.138258 0.138142
0.116332 0.115842 0.116501
0.138771 0.138706 0.138266
0.248868 0.248974 0.250743
0.146719 0.146780 0.146828
0.092763 0.093222 0.094450
0.179352 0.176917 0.175881
0.187617 0.189040 0.188431
0.122372 0.129781 0.130695
0.129172 0.127752 0.127730
0.148796 0.148311 0.148807
0.224455 0.224437 0.224422
0.146464 0.145251 0.143356
0.111125 0.111497 0.111780
0.173379 0.171991 0.171919
0.212717 0.211517 0.211243
0.189444 0.188512 0.187561
0.221671 0.221455 0.221579
0.133939 0.133341 0.133131
0.129652 0.130074 0.129521
0.120888 0.121395 0.121804
0.159401 0.158727 0.158391
0.113127 0.113075 0.113885
0.156799 0.155834 0.154230
0.098959 0.096356 0.095128
0.170462 0.171037 0.171775
0.126044 0.126117 0.126093
0.139956 0.138834 0.137043
0.141840 0.143281 0.143824
0.112986 0.111209 0.111461
0.130473 0.133330 0.132336
0.129607 0.129432 0.128459
0.174646 0.174427 0.172641
0.093503 0.093096 0.093209
0.162339 0.163009 0.161596
0.137876 0.137759 0.138097
0.144525 0.145334 0.145513
0.214138 0.214397 0.215040
0.157409 0.157513 0.157851
0.103891 0.103554 0.103914
0.104298 0.104122 0.104136
0.171319 0.171477 0.171778
0.202804 0.202769 0.201569
0.098608 0.098814 0.098234
0.158538 0.158698 0.159470
0.194985 0.195799 0.197782
0.136659 0.136138 0.135176
0.125309 0.124973 0.125221
0.152608 0.152493 0.153339
0.171376 0.171549 0.172005
0.146861 0.145278 0.144437
0.136044 0.135146 0.135734
0.135996 0.136777 0.138892
0.265397 0.266122 0.267192
0.150595 0.150541 0.150329
0.200755 0.201343 0.202786
0.134207 0.134354 0.135120
0.153036 0.152239 0.149589
0.118785 0.117774 0.120876
0.174765 0.175079 0.176360
0.122773 0.123895 0.125266
0.153193 0.152856 0.153214
0.142703 0.142400 0.140602
0.175117 0.171293 0.168746
0.168241 0.166672 0.166623
0.136568 0.135843 0.135670
0.084853 0.084286 0.084136
0.113429 0.113576 0.112354
0.129445 0.128504 0.127747
0.210852 0.210486 0.210238
0.176249 0.177126 0.177321
0.144879 0.145521 0.142481
0.144567 0.144916 0.144950
0.162897 0.163907 0.163023
0.132317 0.132947 0.133190
0.152665 0.154093 0.154791
0.119879 0.119933 0.119354
0.098293 0.099154 0.099130
0.238336 0.238583 0.238639
0.210390 0.210585 0.209711
0.129127 0.126915 0.126725
0.140822 0.141568 0.141519
0.170313 0.170031 0.173185
0.181550 0.180677 0.179184
0.117119 0.118742 0.125543
0.147454 0.147770 0.147621
0.121498 0.121904 0.124693
0.190804 0.192926 0.193756
0.189392 0.188620 0.187465
0.097674 0.099955 0.100482
0.093480 0.089460 0.088453
0.080624 0.080821 0.080610
0.131029 0.130495 0.130025
0.081309 0.081326 0.080646
0.130029 0.127900 0.128535
0.141462 0.141114 0.141050
0.157379 0.159838 0.165524
0.135030 0.135437 0.135512
0.180686 0.178968 0.176561
0.133316 0.133376 0.132695
0.162424 0.162185 0.161930
0.138444 0.141369 0.142007
0.147046 0.148550 0.149400
0.126963 0.126950 0.130041
0.132700 0.135742 0.138713
0.161770 0.162332 0.162621
0.191755 0.190489 0.189994
0.137023 0.136677 0.136126
0.131347 0.132508 0.132952
0.160657 0.165263 0.168554
0.124802 0.124482 0.125205
0.120084 0.120213 0.120172
0.130643 0.130605 0.128606
0.179882 0.176748 0.175319
0.128102 0.128518 0.127172
0.140081 0.141439 0.142214
0.212569 0.212203 0.211379
0.129705 0.128526 0.128532
0.124872 0.125188 0.127466
0.154783 0.157416 0.156113
0.094654 0.094207 0.093598
0.136290 0.136520 0.136298
0.126915 0.126725 0.125699
0.135562 0.135382 0.135678
0.209872 0.211519 0.215467
0.123846 0.123819 0.123737
0.129874 0.131798 0.131433
0.138233 0.138226 0.137667
0.104163 0.104431 0.105705
0.143371 0.144634 0.144480
0.134584 0.134579 0.134785
0.121126 0.122878 0.123292
0.161236 0.163455 0.163599
0.144615 0.144905 0.144857
0.168495 0.171168 0.171737
0.136831 0.136130 0.135583
0.175239 0.175112 0.175493
0.166221 0.166234 0.167205
0.129370 0.129966 0.130658
0.143449 0.141540 0.140701
0.147621 0.147893 0.148098
0.238835 0.230894 0.232534
0.129580 0.125859 0.123530
0.143017 0.141291 0.140716
0.234467 0.234298 0.234428
0.104354 0.105639 0.106273
0.139823 0.139754 0.141066
0.179476 0.179601 0.178596
0.128142 0.126982 0.125459
0.166329 0.166235 0.166434
0.127017 0.126984 0.126337
0.149519 0.149644 0.149575
0.199132 0.198908 0.198717
0.114800 0.114787 0.114894
0.136457 0.136475 0.136530
0.136347 0.136472 0.136149
0.152560 0.150830 0.150663
0.160327 0.160145 0.159270
0.129499 0.129666 0.128964
0.185710 0.186318 0.186082
0.228854 0.228834 0.231115
0.230431 0.229323 0.229761
0.168956 0.167830 0.168085
0.167200 0.167503 0.161361
0.209639 0.211264 0.215133
0.138566 0.138346 0.138517
0.136667 0.135723 0.134601
0.167867 0.163950 0.160795
0.159970 0.160081 0.161991
0.132309 0.133678 0.133043
0.147402 0.146790 0.146006
0.140733 0.140323 0.141007
0.135506 0.135297 0.134877
0.126762 0.126850 0.126899
0.097822 0.097874 0.097448
0.173110 0.172112 0.170863
0.170736 0.171075 0.170813
0.125377 0.124117 0.122691
0.168364 0.168478 0.168454
0.139582 0.139189 0.138374
0.107905 0.107005 0.107159
0.168555 0.167507 0.167181
0.113176 0.113322 0.114249
0.118454 0.119288 0.120836
0.119239 0.118556 0.118163
0.194392 0.194392 0.188272
0.195638 0.195156 0.194126
0.097382 0.097352 0.098329
0.225496 0.227227 0.227074
0.136057 0.136786 0.133916
0.176610 0.174624 0.174201
0.121806 0.120225 0.120276
0.172906 0.173477 0.173861
0.137116 0.136414 0.136922
0.181646 0.180710 0.179669
0.177066 0.177421 0.177689
0.135513 0.135389 0.134925
0.139336 0.139651 0.139588
0.128196 0.128518 0.128385
0.151581 0.148096 0.147900
0.171416 0.172306 0.172714
0.136532 0.136232 0.137074
0.200504 0.199815 0.198646
0.138902 0.139091 0.138911
0.181552 0.182047 0.180739
0.142593 0.142456 0.142710
0.146453 0.146863 0.146939
0.136462 0.136570 0.135941
0.153351 0.152891 0.152235
0.135198 0.136340 0.136879
0.126959 0.127541 0.127936
0.129283 0.129570 0.130984
0.152428 0.152490 0.152669
0.131081 0.130774 0.129462
0.115361 0.115006 0.116580
0.116598 0.117777 0.119124
0.188247 0.183561 0.177053
0.129411 0.130614 0.131514
0.140139 0.139570 0.141239
0.150210 0.150740 0.150963
0.143146 0.143317 0.145416
0.127224 0.127159 0.126807
0.138758 0.137251 0.137952
0.158848 0.158043 0.158040
0.090527 0.090346 0.090467
0.119763 0.121126 0.122878
0.138977 0.139597 0.140272
0.175438 0.176038 0.176670
0.125184 0.125715 0.126106
0.149002 0.149369 0.146904
0.135233 0.134355 0.134175
0.151937 0.151646 0.151661
0.179834 0.180196 0.176692
0.138393 0.138424 0.140175
0.146041 0.146717 0.147628
0.129845 0.129423 0.129100
0.143374 0.143657 0.143756
0.171778 0.172637 0.173523
0.147297 0.146064 0.144620
0.194702 0.193256 0.193838
0.209058 0.206938 0.204278
0.148955 0.142152 0.141285
0.106530 0.106894 0.105686
0.079946 0.079462 0.079671
0.168680 0.169408 0.165918
0.129003 0.127658 0.128041
0.135978 0.137168 0.133863
0.137092 0.136908 0.135409
0.205873 0.207301 0.206894
0.126034 0.126106 0.125501
0.185207 0.183946 0.182156
0.135253 0.135379 0.135406
0.132555 0.132984 0.133322
0.228102 0.224618 0.223369
0.200654 0.197919 0.197224
0.153060 0.152981 0.150682
0.091618 0.091813 0.091478
0.131210 0.131116 0.131610
0.148241 0.147531 0.145474
0.117983 0.118112 0.117784
0.134603 0.134397 0.133622
0.145274 0.144615 0.144905
0.128786 0.129125 0.129389
0.119629 0.119426 0.119465
0.160552 0.160019 0.160822
0.142790 0.142824 0.141381
0.135181 0.135150 0.136181
0.169634 0.169437 0.168792
0.177986 0.177010 0.174478
0.150824 0.150572 0.150493
0.198168 0.198152 0.199343
0.077405 0.079401 0.078784
0.125346 0.123833 0.124201
0.102931 0.101089 0.099046
0.210883 0.210745 0.211120
0.133226 0.132984 0.132786
0.158994 0.160474 0.161048
0.182809 0.183641 0.183433
0.210111 0.210245 0.209762
0.143303 0.143357 0.142771
0.119679 0.118554 0.118707
0.081326 0.080646 0.080764
0.227979 0.230181 0.231638
0.088084 0.088267 0.088866
0.112363 0.112887 0.112903
0.089072 0.089494 0.089551
0.099307 0.100189 0.100055
0.176915 0.177081 0.176838
0.149616 0.149698 0.148928
0.125341 0.125146 0.124882
0.145443 0.142187 0.138645
0.172000 0.173366 0.173818
0.123980 0.124384 0.124624
0.211159 0.212946 0.214542
0.168828 0.169805 0.169244
0.141324 0.141374 0.139234
0.165623 0.167054 0.167651
0.171308 0.176661 0.178304
0.124263 0.124288 0.124493
0.148033 0.148035 0.147712
0.276147 0.279590 0.278938
0.124964 0.122211 0.121791
0.138758 0.139520 0.140978
0.162753 0.162330 0.163039
0.145969 0.145042 0.144519
0.139881 0.139960 0.140516
0.186950 0.189646 0.188675
0.135953 0.136186 0.135958
0.137997 0.138777 0.138885
0.134540 0.134007 0.133414
0.151546 0.150797 0.151445
0.224025 0.224369 0.223678
0.166076 0.169582 0.170579
0.075502 0.075405 0.075047
0.176835 0.176359 0.175781
0.199892 0.198912 0.197084
0.156684 0.158854 0.159342
0.142914 0.143536 0.143638
0.095321 0.093910 0.094134
0.121740 0.122479 0.122713
0.163230 0.161697 0.160035
0.223978 0.226666 0.226952
0.120787 0.120550 0.120544
0.136716 0.136944 0.136840
0.180940 0.182156 0.183513
0.123264 0.123484 0.123930
0.137562 0.139421 0.141326
0.212375 0.211898 0.212224
0.263434 0.265093 0.263732
0.166561 0.163638 0.160647
0.176262 0.175441 0.175621
0.148553 0.147725 0.146742
0.112928 0.112657 0.111517
0.120462 0.120511 0.120898
0.121157 0.120762 0.120524
0.147437 0.146135 0.144815
0.152910 0.148746 0.149111
0.190976 0.191116 0.191535
0.121498 0.120729 0.121297
0.117433 0.117613 0.117540
0.132935 0.133536 0.134598
0.125313 0.126094 0.127115
0.145195 0.145087 0.145241
0.128976 0.130125 0.131784
0.164313 0.164401 0.164179
0.131069 0.131581 0.131036
0.138415 0.138469 0.138858
0.161517 0.161213 0.163283
0.157663 0.157612 0.157429
0.121050 0.119830 0.119328
0.177825 0.176967 0.175999
0.181946 0.182150 0.182493
0.163902 0.165005 0.164835
0.084847 0.085426 0.086381
0.133354 0.132660 0.132059
0.123970 0.124078 0.124756
0.139485 0.139501 0.139547
0.124622 0.125476 0.125948
0.264010 0.263574 0.262846
0.220424 0.221591 0.221520
0.097352 0.098329 0.098295
0.168713 0.166498 0.165608
0.134589 0.133644 0.133871
0.136485 0.133240 0.131456
0.164828 0.165198 0.166000
0.124708 0.125944 0.125793
0.133618 0.135072 0.135292
0.127541 0.126545 0.127332
0.126941 0.128306 0.129291
0.173711 0.176434 0.177081
0.143593 0.145353 0.145624
0.135070 0.134748 0.135379
0.093504 0.092840 0.092662
0.170881 0.173239 0.174912
0.166134 0.166377 0.167193
0.133351 0.133008 0.133342
0.105236 0.106102 0.105890
0.145231 0.145314 0.145074
0.105227 0.105753 0.106598
0.146275 0.146949 0.147768
0.168426 0.168056 0.169533
0.128500 0.128238 0.128634
0.145342 0.145855 0.145570
0.173609 0.172899 0.172627
0.117428 0.118363 0.119570
0.140258 0.139604 0.139404
0.154384 0.154932 0.155823
0.130196 0.129824 0.129766
0.172573 0.171536 0.169772
0.143726 0.144344 0.143680
0.161382 0.161559 0.161795
0.164824 0.166808 0.168297
0.177476 0.178125 0.177495
0.117467 0.117585 0.117035
0.180925 0.181195 0.181381
0.147896 0.147194 0.147496
0.143071 0.142583 0.142590
0.225751 0.224180 0.222756
0.173656 0.172112 0.170848
0.191998 0.191222 0.186365
0.141036 0.141541 0.141657
0.087571 0.088054 0.088442
0.126704 0.127814 0.127229
0.210454 0.210024 0.207947
0.075896 0.076023 0.075894
0.109892 0.111316 0.112074
0.097611 0.097272 0.097246
0.159648 0.160079 0.161480
0.145527 0.144823 0.141926
0.120531 0.121678 0.121828
0.123295 0.122882 0.122410
0.193543 0.193539 0.192843
0.153664 0.154442 0.154072
0.229109 0.229218 0.227342
0.141822 0.141958 0.140284
0.204573 0.205012 0.205370
0.108097 0.107763 0.107537
0.160687 0.162227 0.163976
0.211348 0.211563 0.211710
0.173252 0.173176 0.171138
0.119261 0.119745 0.120121
0.170033 0.171400 0.171737
0.133826 0.134957 0.135265
0.133726 0.134519 0.134879
0.193809 0.193622 0.192824
0.163912 0.165258 0.167017
0.142520 0.141544 0.141560
0.161106 0.158548 0.158857
0.138021 0.138020 0.137937
0.123045 0.120282 0.117301
0.141131 0.140963 0.141007
0.129216 0.129195 0.130171
0.144935 0.144788 0.144647
0.180571 0.179290 0.177311
0.135714 0.135072 0.134566
0.114282 0.113718 0.113494
0.130387 0.129487 0.128182
0.122237 0.123027 0.122401
0.120128 0.119507 0.118930
0.123854 0.124745 0.123661
0.169646 0.170119 0.169597
0.134136 0.135424 0.133819
0.092016 0.092322 0.093225
0.195505 0.195589 0.194776
0.139525 0.139428 0.138520
0.085432 0.085797 0.086347
0.140926 0.135906 0.133468
0.211539 0.211380 0.210251
0.204292 0.206609 0.205642
0.214096 0.215996 0.216695
0.130278 0.128391 0.126585
0.192913 0.193543 0.193539
0.163367 0.163092 0.163091
0.235290 0.235233 0.235762
0.082014 0.082263 0.081802
0.131110 0.127583 0.127076
0.095523 0.094969 0.093840
0.152216 0.154725 0.155603
0.180921 0.181545 0.180602
0.108029 0.107153 0.106329
0.139167 0.141103 0.140972
0.144831 0.144326 0.143752
0.153831 0.152473 0.151705
0.146756 0.146808 0.146741
0.137172 0.137435 0.137584
0.138159 0.139681 0.139776
0.155522 0.155128 0.154899
0.138859 0.141234 0.141580
0.227227 0.227074 0.227010
0.133864 0.134049 0.135282
0.197234 0.197001 0.196950
0.145487 0.145803 0.146184
0.279687 0.278930 0.275714
0.169167 0.169484 0.168622
0.139378 0.138421 0.140629
0.186500 0.185968 0.185632
0.131524 0.131156 0.130149
0.147566 0.147039 0.146205
0.122194 0.122351 0.121219
0.206127 0.210325 0.213112
0.174121 0.174373 0.175506
0.137584 0.138030 0.138279
0.136320 0.137056 0.136092
0.167635 0.168014 0.167181
0.136315 0.136406 0.136316
0.119618 0.118969 0.119230
0.137519 0.137116 0.136414
0.118951 0.119540 0.119563
0.176491 0.176524 0.176577
0.148338 0.149452 0.146849
0.140833 0.139741 0.139069
0.197231 0.197272 0.196602
0.088643 0.089006 0.089257
0.175019 0.173965 0.173169
0.182560 0.180382 0.179668
0.137106 0.138992 0.141488
0.162465 0.162384 0.162183
0.081461 0.081635 0.081186
0.139800 0.140028 0.139271
0.167939 0.167759 0.170037
0.155749 0.153840 0.155697
0.133251 0.133454 0.132427
0.125545 0.126786 0.126515
0.223928 0.224386 0.224428
0.198212 0.199312 0.196728
0.146316 0.146961 0.148114
0.097767 0.097704 0.097706
0.141671 0.142970 0.143533
0.097807 0.099170 0.099191
0.170111 0.169900 0.169724
0.134726 0.133756 0.132675
0.141804 0.142780 0.144727
0.177503 0.177154 0.176715
0.231387 0.229445 0.228779
0.126346 0.127050 0.126561
0.193656 0.191858 0.186410
0.128535 0.128273 0.127971
0.146601 0.147767 0.148711
0.124844 0.125055 0.125253
0.118493 0.117925 0.118054
0.177230 0.176867 0.183292
0.162517 0.162759 0.164226
0.179331 0.180102 0.180005
0.103354 0.103489 0.103560
0.075179 0.075505 0.076634
0.144980 0.145187 0.145403
0.138630 0.138911 0.139211
0.191758 0.191638 0.191483
0.270925 0.268076 0.268162
0.123349 0.123325 0.123407
0.148479 0.149675 0.149845
0.146377 0.146176 0.144830
0.172879 0.173073 0.172642
0.126580 0.126832 0.126116
0.237162 0.234760 0.236096
0.100090 0.098447 0.096952
0.193093 0.194778 0.196078
0.156079 0.159065 0.160708
0.120758 0.120294 0.120627
0.117416 0.117011 0.117666
0.141507 0.142575 0.142716
0.125914 0.126850 0.130928
0.173983 0.168948 0.168045
0.131403 0.130938 0.130801
0.133796 0.134186 0.135160
0.267060 0.265974 0.264345
0.162506 0.165440 0.171266
0.127247 0.128597 0.130063
0.101811 0.101985 0.103636
0.171355 0.171216 0.171952
0.132174 0.132357 0.133055
0.098083 0.098334 0.098740
0.096965 0.098976 0.103407
0.113989 0.114806 0.117357
0.115341 0.119709 0.120768
0.209512 0.208150 0.208284
0.163475 0.161724 0.160980
0.141543 0.140565 0.139877
0.137487 0.137288 0.137684
0.148983 0.149342 0.150014
0.135055 0.132502 0.131572
0.177318 0.174706 0.174209
0.199766 0.203737 0.205417
0.128404 0.128728 0.129792
0.134425 0.133182 0.133120
0.145315 0.146375 0.147926
0.175847 0.176303 0.177469
0.118524 0.118684 0.118894
0.124807 0.125766 0.127115
0.155949 0.156660 0.156397
0.124931 0.124237 0.124504
0.123717 0.124919 0.123967
0.192020 0.192496 0.191964
0.107701 0.108060 0.107774
0.179265 0.178866 0.178429
0.180605 0.180477 0.181552
0.142937 0.143646 0.144246
0.129922 0.130123 0.130848
0.158028 0.157887 0.157681
0.145102 0.142707 0.141408
0.136546 0.136531 0.136462
0.126676 0.126193 0.125476
0.160916 0.160600 0.159649
0.134367 0.134604 0.134186
0.165797 0.166203 0.164960
0.126828 0.126533 0.126336
0.098788 0.098059 0.098245
0.130257 0.131003 0.130216
0.138656 0.138512 0.138175
0.135268 0.135944 0.134145
0.118421 0.118913 0.118803
0.140221 0.138630 0.138911
0.153613 0.153324 0.152155
0.114637 0.114944 0.114773
0.124527 0.124899 0.124580
0.119055 0.119005 0.119285
0.110787 0.110511 0.109468
0.195198 0.195135 0.196087
0.145566 0.145434 0.145610
0.204896 0.203931 0.203048
0.136412 0.134793 0.134836
0.131317 0.130975 0.129944
0.187156 0.191826 0.193880
