0.243206 0.242851 0.240630
0.179133 0.180565 0.180924
0.147550 0.148531 0.152640
0.192924 0.194561 0.193995
0.191354 0.192935 0.195331
0.188230 0.189811 0.187682
0.163756 0.163491 0.162831
0.239851 0.242337 0.242505
0.164211 0.164474 0.163950
0.181774 0.179808 0.179780
0.231116 0.231807 0.228003
0.139384 0.138461 0.135621
0.190939 0.190799 0.190229
0.229386 0.229547 0.226193
0.230344 0.240542 0.241500
0.179539 0.180568 0.180690
0.213239 0.213957 0.215444
0.092282 0.092888 0.093997
0.183694 0.183531 0.182694
0.186381 0.186238 0.183959
0.165032 0.165449 0.167080
0.165368 0.163340 0.163003
0.085603 0.085488 0.087114
0.090959 0.090675 0.087948
0.083831 0.082905 0.082714
0.158123 0.156992 0.156001
0.274912 0.279219 0.280568
0.120200 0.119475 0.119693
0.223742 0.225575 0.225829
0.253861 0.252867 0.249213
0.232564 0.239597 0.241354
0.228087 0.227519 0.225693
0.255598 0.256475 0.256581
0.245781 0.246477 0.245947
0.119824 0.119856 0.120014
0.287880 0.284442 0.280336
0.118710 0.119184 0.120098
0.220036 0.220175 0.221243
0.225743 0.224915 0.224467
0.167982 0.167808 0.166167
0.330855 0.330012 0.329645
0.217742 0.216460 0.215949
0.224962 0.224408 0.224946
0.158290 0.158199 0.158176
0.094880 0.095033 0.094744
0.179749 0.182957 0.183114
0.093262 0.094307 0.093609
0.192388 0.194856 0.195339
0.197220 0.197029 0.194830
0.215126 0.215946 0.216530
0.151072 0.151178 0.150182
0.078872 0.080335 0.081049
0.239552 0.242564 0.242887
0.151501 0.151097 0.150799
0.191120 0.191259 0.192591
0.116792 0.116022 0.115221
0.204203 0.204745 0.203955
0.163974 0.161972 0.162060
0.164444 0.163920 0.163586
0.220095 0.221234 0.222230
0.202133 0.202466 0.201007
0.196274 0.195726 0.196604
0.183761 0.184874 0.185967
0.171199 0.171046 0.171985
0.209448 0.209628 0.209644
0.205316 0.206375 0.210050
0.169950 0.169432 0.169735
0.175736 0.176331 0.176820
0.137175 0.137286 0.136462
0.196742 0.197305 0.196549
0.243129 0.242546 0.242110
0.183885 0.185500 0.185801
0.154421 0.149158 0.148970
0.184053 0.183737 0.182126
0.289186 0.289759 0.289603
0.219979 0.219373 0.218612
0.081889 0.082010 0.082395
0.188843 0.188888 0.189019
0.195563 0.195865 0.195763
0.164031 0.165496 0.166548
0.113970 0.114220 0.116653
0.164089 0.163588 0.163073
0.155270 0.155344 0.154215
0.185367 0.185557 0.185726
0.117976 0.117803 0.118009
0.223744 0.220774 0.217003
0.157093 0.155400 0.154696
0.082191 0.083581 0.084543
0.186602 0.186609 0.186506
0.223852 0.222273 0.223532
0.211997 0.212808 0.213303
0.299530 0.298934 0.297211
0.233035 0.238097 0.242614
0.113851 0.113752 0.114221
0.217028 0.218746 0.221191
0.144931 0.144851 0.143307
0.196431 0.196450 0.195669
0.184053 0.183448 0.181797
0.246954 0.247843 0.248320
0.180435 0.180754 0.181347
0.211550 0.211248 0.213180
0.280215 0.277517 0.274474
0.257108 0.263955 0.265339
0.154651 0.155097 0.156318
0.149257 0.149723 0.150323
0.163527 0.164348 0.167236
0.164960 0.165004 0.168104
0.188519 0.188725 0.190171
0.156649 0.159306 0.156436
0.184695 0.188780 0.189927
0.217040 0.214494 0.211353
0.198332 0.198037 0.200704
0.241436 0.247125 0.246020
0.255723 0.256772 0.252355
0.189255 0.186227 0.186597
0.231835 0.230369 0.228150
0.102121 0.102031 0.101585
0.156603 0.156451 0.156128
0.268141 0.268654 0.270397
0.163878 0.163982 0.163647
0.135662 0.131126 0.130117
0.265931 0.270326 0.278246
0.216771 0.215452 0.215195
0.173725 0.173598 0.172514
0.223323 0.224160 0.223177
0.203027 0.204487 0.198392
0.169580 0.169889 0.168577
0.118469 0.117633 0.116131
0.257100 0.258166 0.259009
0.296334 0.296527 0.295940
0.169223 0.168398 0.167953
0.156387 0.155761 0.156058
0.089474 0.090600 0.091768
0.284308 0.283615 0.283347
0.216208 0.216224 0.216127
0.178008 0.179326 0.183782
0.246669 0.242037 0.237268
0.217135 0.219401 0.219736
0.230369 0.231221 0.232488
0.084543 0.086315 0.086270
0.210242 0.210656 0.210193
0.161297 0.162549 0.164312
0.227610 0.225922 0.229071
0.195673 0.185488 0.185947
0.154112 0.154803 0.155213
0.184512 0.184391 0.184547
0.145872 0.147099 0.148320
0.179449 0.178657 0.177930
0.232620 0.229568 0.226845
0.179776 0.181457 0.184008
0.259627 0.255983 0.254551
0.172453 0.173626 0.174957
0.094382 0.093784 0.093589
0.208797 0.208041 0.208364
0.159133 0.159949 0.162244
0.265613 0.266899 0.270491
0.164533 0.163985 0.163824
0.120843 0.121218 0.121356
0.199426 0.198613 0.197800
0.197974 0.197109 0.197220
0.145797 0.146240 0.146073
0.219376 0.219589 0.220748
0.232924 0.233404 0.232228
0.179780 0.179464 0.179444
0.166150 0.167535 0.168946
0.235508 0.237938 0.238684
0.177134 0.178496 0.178866
0.168228 0.168683 0.168466
0.111557 0.112217 0.112693
0.218587 0.215566 0.219454
0.152399 0.152285 0.150584
0.220732 0.221520 0.221989
0.077819 0.077618 0.080284
0.107827 0.107633 0.108253
0.260377 0.257303 0.255345
0.294584 0.298009 0.302450
0.186119 0.185905 0.186831
0.288705 0.288235 0.287817
0.191384 0.192906 0.193016
0.100207 0.100185 0.100158
0.166257 0.166514 0.165292
0.232632 0.233417 0.245995
0.200091 0.199025 0.198994
0.177329 0.176127 0.175564
0.276401 0.273308 0.258455
0.190564 0.190155 0.190064
0.168210 0.168441 0.173470
0.266111 0.267523 0.266675
0.203200 0.202448 0.201271
0.107472 0.106990 0.107519
0.149085 0.149896 0.151058
0.230089 0.235538 0.236134
0.147103 0.143239 0.141344
0.077244 0.077255 0.077365
0.181735 0.182229 0.183653
0.119795 0.119758 0.119731
0.267017 0.266479 0.266616
0.153413 0.153362 0.153631
0.174298 0.172569 0.173105
0.161407 0.161831 0.163386
0.278583 0.277513 0.281853
0.267989 0.269366 0.268724
0.196223 0.195437 0.196832
0.235795 0.236060 0.237920
0.171315 0.171125 0.168394
0.228867 0.229075 0.223984
0.210193 0.207575 0.206340
0.216241 0.215242 0.216385
0.129991 0.129730 0.129083
0.247688 0.247582 0.246814
0.266530 0.266184 0.261239
0.123146 0.122603 0.122721
0.180498 0.180287 0.180020
0.167915 0.168079 0.169111
0.210473 0.210479 0.211581
0.146378 0.144931 0.144851
0.111531 0.111355 0.111803
0.161980 0.162824 0.163505
0.182061 0.181902 0.180926
0.221979 0.223385 0.223212
0.138389 0.137048 0.139501
0.231719 0.237306 0.262634
0.149411 0.153704 0.153243
0.221841 0.224258 0.224810
0.229820 0.230961 0.232417
0.249792 0.249359 0.248016
0.252658 0.247722 0.246088
0.277296 0.278031 0.278334
0.281109 0.268768 0.265174
0.270192 0.271293 0.272128
0.326416 0.324745 0.324564
0.289719 0.289141 0.288549
0.089089 0.089539 0.090575
0.083842 0.085799 0.087003
0.213870 0.214679 0.208388
0.191958 0.195380 0.195454
0.304791 0.307478 0.311994
0.128992 0.128818 0.128893
0.262401 0.265003 0.265434
0.150665 0.149858 0.149503
0.114321 0.115279 0.117722
0.270542 0.271399 0.277352
0.209101 0.210697 0.209297
0.242100 0.248476 0.249102
0.240611 0.242319 0.245914
0.188469 0.184775 0.184874
0.185234 0.185625 0.185577
0.176929 0.176976 0.177523
0.125159 0.125473 0.124717
0.272084 0.274511 0.274117
0.087985 0.087816 0.089486
0.148854 0.149218 0.151714
0.239373 0.237465 0.233498
0.217508 0.221530 0.228392
0.156169 0.156068 0.156141
0.281474 0.271916 0.266333
0.150386 0.151126 0.152118
0.163182 0.164016 0.163957
0.225023 0.225407 0.224710
0.212551 0.213824 0.215005
0.236673 0.236966 0.237133
0.211053 0.211908 0.212422
0.151732 0.150436 0.150821
0.152755 0.152468 0.151777
0.177523 0.178227 0.178232
0.228953 0.228006 0.231562
0.283279 0.282167 0.282540
0.224832 0.225120 0.227681
0.198426 0.199465 0.200783
0.189772 0.189520 0.189257
0.165009 0.163757 0.162171
0.262097 0.263210 0.263214
0.232864 0.233745 0.230368
0.181651 0.182065 0.182062
0.223880 0.223850 0.224083
0.155599 0.155014 0.150342
0.163429 0.162815 0.162566
0.179036 0.181588 0.181943
0.185653 0.187763 0.188792
0.180965 0.181854 0.183283
0.337159 0.337269 0.336893
0.225710 0.226539 0.226431
0.162571 0.159770 0.157513
0.077477 0.077030 0.077313
0.118694 0.118649 0.118966
0.198986 0.196510 0.195360
0.156357 0.156801 0.158652
0.207165 0.205988 0.204143
0.091940 0.089996 0.089066
0.149090 0.149481 0.149464
0.239714 0.240279 0.242425
0.188912 0.188873 0.188978
0.147331 0.147808 0.147708
0.181126 0.180924 0.179506
0.218052 0.220077 0.222355
0.185315 0.187010 0.186809
0.187862 0.187323 0.189317
0.173603 0.173575 0.173745
0.196912 0.197162 0.197748
0.169334 0.170865 0.170408
0.189106 0.193997 0.194730
0.138290 0.140848 0.142061
0.186096 0.185130 0.186412
0.236031 0.233479 0.234093
0.182406 0.184955 0.184802
0.151987 0.154217 0.154483
0.116633 0.116289 0.116230
0.241620 0.239365 0.236773
0.149117 0.147274 0.147090
0.196236 0.194573 0.194176
0.259369 0.258567 0.257957
0.188512 0.188186 0.187996
0.160441 0.161632 0.162273
0.096729 0.096773 0.096676
0.139368 0.139690 0.139763
0.216195 0.216355 0.216127
0.233656 0.231677 0.229450
0.259496 0.259661 0.258886
0.241856 0.241331 0.241626
0.226849 0.226779 0.218793
0.250646 0.250631 0.249915
0.189652 0.190442 0.187719
0.156891 0.156950 0.156078
0.208175 0.207835 0.207736
0.227701 0.227186 0.227163
0.173665 0.174521 0.175566
0.248534 0.248241 0.246598
0.166077 0.168504 0.169268
0.192726 0.193448 0.192933
0.232108 0.231729 0.234765
0.172185 0.172681 0.174907
0.086804 0.086481 0.085122
0.280882 0.282725 0.281965
0.182032 0.180885 0.180013
0.221273 0.221494 0.221550
0.218954 0.215415 0.215324
0.176773 0.173639 0.172242
0.269580 0.270105 0.267946
0.239034 0.234895 0.233893
0.148878 0.148759 0.148719
0.196930 0.198010 0.202657
0.161797 0.160871 0.160313
0.118774 0.118222 0.118418
0.178504 0.178804 0.180129
0.121630 0.117742 0.117037
0.155295 0.155626 0.155087
0.183599 0.184114 0.185376
0.271630 0.271040 0.272869
0.234939 0.231244 0.229263
0.177354 0.179168 0.178803
0.179489 0.178521 0.178115
0.091608 0.091685 0.091704
0.208309 0.209577 0.211081
0.202829 0.203983 0.204981
0.219525 0.219724 0.219812
0.209295 0.209394 0.209687
0.118831 0.119582 0.119414
0.104564 0.107015 0.108002
0.155443 0.155460 0.153874
0.169888 0.169862 0.168463
0.204463 0.208174 0.206310
0.200795 0.199979 0.200242
0.172817 0.171826 0.175579
0.144464 0.143720 0.143836
0.194492 0.197641 0.195929
0.142076 0.142281 0.142187
0.219155 0.218348 0.216058
0.211858 0.212147 0.211577
0.082337 0.082284 0.083287
0.210583 0.213918 0.214733
0.140486 0.140717 0.140878
0.205460 0.205703 0.205827
0.254367 0.253680 0.253577
0.276340 0.276525 0.276697
0.211119 0.210156 0.207781
0.208456 0.207906 0.206974
0.192706 0.188239 0.187151
0.157134 0.157717 0.156558
0.082898 0.082935 0.083788
0.212189 0.213048 0.214060
0.119376 0.119535 0.120461
0.159324 0.160153 0.161804
0.194321 0.193241 0.192468
0.158213 0.157901 0.159756
0.160156 0.161615 0.161751
0.181324 0.182615 0.182360
0.213988 0.216518 0.212886
0.156972 0.156922 0.157433
0.181850 0.183875 0.186508
0.223431 0.221329 0.219243
0.185834 0.186029 0.184762
0.156520 0.156120 0.157959
0.221388 0.219979 0.223152
0.187850 0.188827 0.188960
0.143462 0.142928 0.142055
0.206001 0.206369 0.213863
0.169983 0.169670 0.175605
0.215410 0.210829 0.209338
0.085605 0.084688 0.083831
0.221496 0.222065 0.221233
0.226097 0.223092 0.222370
0.193811 0.196862 0.197127
0.172799 0.169932 0.164909
0.116651 0.116202 0.116075
0.139352 0.139752 0.139990
0.160338 0.164250 0.166602
0.209095 0.211133 0.211868
0.184659 0.183297 0.182174
0.268724 0.263188 0.252491
0.243208 0.242832 0.236792
0.315756 0.311733 0.311466
0.172654 0.173737 0.174299
0.184704 0.185102 0.185319
0.268059 0.267321 0.261125
0.244958 0.246616 0.247669
0.172946 0.169931 0.164976
0.112598 0.115696 0.116474
0.173729 0.174798 0.175282
0.176534 0.176243 0.175957
0.171255 0.169993 0.166846
0.222838 0.222568 0.220268
0.249928 0.252170 0.256189
0.129677 0.130006 0.130517
0.229487 0.229548 0.228049
0.191721 0.195671 0.195508
0.122880 0.121233 0.119640
0.291233 0.289248 0.290777
0.218345 0.217292 0.218179
0.265388 0.278536 0.280338
0.180683 0.180426 0.181341
0.272063 0.271949 0.272006
0.220465 0.232320 0.234680
0.187837 0.189754 0.194453
0.159381 0.158856 0.159519
0.194632 0.194444 0.197726
0.213279 0.212942 0.207062
0.225048 0.224540 0.223716
0.181008 0.184435 0.184258
0.200559 0.202151 0.200893
0.137455 0.137257 0.137344
0.252673 0.247715 0.246123
0.243656 0.245195 0.246825
0.123890 0.124094 0.124759
0.246872 0.245690 0.244664
0.185939 0.185035 0.182324
0.239377 0.238441 0.237512
0.186167 0.185408 0.185346
0.173321 0.173998 0.176002
0.225555 0.223414 0.221933
0.153248 0.152518 0.151844
0.257117 0.254936 0.253259
0.180287 0.180020 0.180235
0.267518 0.263405 0.260520
0.216344 0.216800 0.218469
0.174926 0.174979 0.174758
0.185179 0.185150 0.185315
0.209688 0.209230 0.208212
0.177547 0.176626 0.174859
0.219050 0.219135 0.219328
0.232339 0.231275 0.231211
0.175171 0.177891 0.178688
0.150125 0.149983 0.150451
0.186612 0.188102 0.187730
0.248914 0.247514 0.249042
0.261161 0.262097 0.263210
0.171198 0.170638 0.171333
0.181629 0.184990 0.184299
0.150111 0.149934 0.148931
0.117363 0.117626 0.117765
0.197882 0.197511 0.198426
0.192586 0.194434 0.195052
0.094801 0.096131 0.097362
0.225511 0.230215 0.230768
0.204972 0.208778 0.210903
0.239365 0.236773 0.233522
0.164727 0.164244 0.165837
0.229032 0.230963 0.231162
0.227545 0.225386 0.221884
0.182822 0.183012 0.183378
0.191902 0.190865 0.189964
0.229054 0.231048 0.231548
0.241492 0.247479 0.249386
0.162903 0.159988 0.159989
0.188438 0.185927 0.184115
0.236055 0.233340 0.233730
0.225728 0.224059 0.224838
0.232480 0.233068 0.233392
0.231862 0.231345 0.230672
0.247581 0.248488 0.247191
0.166889 0.167058 0.167811
0.169215 0.168422 0.167879
0.163668 0.163012 0.163573
0.239913 0.240619 0.239976
0.240731 0.239422 0.239380
0.212591 0.213067 0.212905
0.184695 0.185333 0.187664
0.303080 0.304061 0.302724
0.118222 0.118418 0.118123
0.243675 0.243663 0.242959
0.161888 0.161196 0.161058
0.152281 0.152771 0.150698
0.167742 0.169173 0.170373
0.168310 0.168606 0.168419
0.168583 0.172950 0.172979
0.257160 0.256231 0.253820
0.213664 0.213588 0.215086
0.130068 0.130412 0.130511
0.215146 0.220241 0.221162
0.184365 0.180092 0.175573
0.268119 0.267661 0.267614
0.169345 0.169653 0.169967
0.183978 0.185602 0.186023
0.160878 0.159117 0.158137
0.218104 0.218980 0.219808
0.277475 0.280401 0.280461
0.184508 0.183618 0.184597
0.126981 0.127974 0.129221
0.242899 0.240215 0.240895
0.194035 0.192182 0.188144
0.291939 0.293983 0.296334
0.178770 0.179882 0.182612
0.163386 0.163788 0.163673
0.172545 0.171981 0.170486
0.190368 0.190683 0.191852
0.237854 0.237051 0.235385
0.212212 0.213016 0.213668
0.140594 0.142502 0.143567
0.156669 0.156470 0.156479
0.090102 0.088811 0.089049
0.256404 0.256413 0.254281
0.249691 0.249961 0.252081
0.085346 0.090670 0.094204
0.208829 0.208716 0.208676
0.258318 0.258130 0.257877
0.244173 0.244678 0.245373
0.141367 0.141044 0.134650
0.274570 0.276641 0.282841
0.093274 0.093873 0.094457
0.255923 0.255117 0.255172
0.216336 0.215584 0.212064
0.231899 0.231973 0.231069
0.169111 0.169240 0.171203
0.158041 0.158127 0.158267
0.196511 0.197140 0.196707
0.161601 0.159069 0.158103
0.172985 0.171591 0.169886
0.148602 0.149246 0.149286
0.210729 0.207800 0.207633
0.102418 0.102563 0.103451
0.169565 0.170173 0.170441
0.179576 0.180794 0.182952
0.237362 0.239506 0.238545
0.142515 0.142244 0.141730
0.193803 0.194127 0.193858
0.092388 0.090765 0.090542
0.247384 0.248309 0.248113
0.221098 0.221293 0.221324
0.162664 0.162290 0.161659
0.178960 0.178948 0.178217
0.206989 0.207145 0.207383
0.274024 0.274840 0.274378
0.167560 0.166098 0.164952
0.145659 0.145284 0.148160
0.210156 0.207781 0.207230
0.193047 0.193621 0.193879
0.192802 0.194299 0.196397
0.201328 0.201963 0.208487
0.235087 0.240099 0.241207
0.177423 0.175940 0.174652
0.220449 0.219841 0.221571
0.169824 0.170510 0.170811
0.191731 0.190563 0.189269
0.278877 0.277249 0.276674
0.235306 0.235608 0.235590
0.102141 0.101779 0.101572
0.237631 0.235937 0.236259
0.317762 0.316323 0.309480
0.155274 0.155913 0.156391
0.200849 0.202782 0.202528
0.183767 0.183057 0.182329
0.189763 0.189772 0.189520
0.245335 0.245680 0.245925
0.131671 0.132180 0.132696
0.167536 0.167234 0.167389
0.262680 0.262818 0.263320
0.207821 0.207810 0.206563
0.168947 0.170701 0.170129
0.161007 0.160609 0.161118
0.280062 0.280592 0.284575
0.223902 0.221534 0.219979
0.159446 0.160094 0.160495
0.160906 0.163272 0.163120
0.172803 0.170561 0.168791
0.226375 0.224545 0.224058
0.165340 0.164836 0.164322
0.201728 0.201637 0.203251
0.278900 0.278127 0.276878
0.213109 0.210887 0.211385
0.178554 0.181099 0.180782
0.309422 0.309441 0.309149
0.140097 0.140419 0.141097
0.182789 0.182240 0.182533
0.215255 0.215076 0.216866
0.222884 0.224510 0.225048
0.179203 0.179037 0.182994
0.193388 0.195386 0.196094
0.247535 0.245891 0.242203
0.169776 0.171023 0.171444
0.288802 0.288778 0.292860
0.282780 0.283366 0.280982
0.156718 0.156753 0.156542
0.167680 0.166742 0.165846
0.218589 0.218132 0.218333
0.209913 0.210325 0.210320
0.255163 0.255491 0.260595
0.189566 0.188144 0.190381
0.211285 0.211884 0.212967
0.077228 0.077227 0.077477
0.209872 0.209182 0.210275
0.163420 0.163957 0.163081
0.140949 0.140534 0.140171
0.265226 0.265125 0.264913
0.176545 0.176676 0.177030
0.174240 0.174622 0.174596
0.160228 0.159521 0.159352
0.220187 0.220195 0.220723
0.220897 0.220167 0.220843
0.246349 0.246154 0.246931
0.202253 0.201262 0.198986
0.169348 0.171996 0.170389
0.183015 0.183606 0.183984
0.247542 0.235994 0.232121
0.274171 0.275178 0.275125
0.195697 0.194127 0.193549
0.183692 0.186807 0.188241
0.239669 0.236972 0.234521
0.279685 0.280326 0.283259
0.167389 0.167876 0.168043
0.196119 0.194631 0.193794
0.288004 0.291000 0.291209
0.224420 0.224221 0.222298
0.262180 0.263440 0.264987
0.159034 0.159494 0.161861
0.166961 0.167632 0.166334
0.101620 0.102634 0.101636
0.215931 0.218051 0.218029
0.225991 0.226307 0.226270
0.100148 0.100193 0.100202
0.120102 0.120336 0.119100
0.161711 0.162219 0.162983
0.282398 0.282956 0.283614
0.239271 0.241343 0.241266
0.206683 0.211832 0.212463
0.181333 0.181909 0.181820
0.283192 0.285752 0.286314
0.282302 0.282419 0.283558
0.198696 0.197267 0.196821
0.148452 0.149234 0.148597
0.315213 0.318132 0.319441
0.157888 0.157854 0.157925
0.278803 0.270286 0.257722
0.205469 0.205817 0.205198
0.155488 0.154723 0.154124
0.259691 0.259435 0.257133
0.233737 0.233919 0.234513
0.170482 0.172937 0.173264
0.261519 0.261266 0.261663
0.187106 0.190291 0.191474
0.231247 0.229515 0.225656
0.168456 0.167498 0.167665
0.210097 0.212977 0.214996
0.251229 0.252593 0.253036
0.252314 0.255003 0.254563
0.187903 0.186963 0.187413
0.210280 0.210826 0.210310
0.229249 0.229882 0.230246
0.254851 0.254819 0.255058
0.215269 0.216016 0.216259
0.217134 0.213833 0.211716
0.241243 0.241616 0.239207
0.163609 0.163900 0.164833
0.167451 0.168034 0.167895
0.183448 0.181797 0.182624
0.193195 0.188709 0.184501
0.186326 0.193098 0.192971
0.244664 0.243543 0.242883
0.247182 0.248005 0.247175
0.171775 0.172047 0.174673
0.185668 0.185611 0.185570
0.213093 0.213556 0.214697
0.097054 0.097200 0.097414
0.263088 0.262713 0.266102
0.193886 0.192490 0.191338
0.187192 0.186981 0.188048
0.180627 0.180321 0.180721
0.239662 0.245615 0.243356
0.158334 0.157917 0.158023
0.251776 0.249883 0.250727
0.223860 0.223030 0.220084
0.222291 0.221678 0.220167
0.137284 0.137072 0.137763
0.279917 0.279729 0.280144
0.177178 0.176844 0.176932
0.260529 0.261388 0.262642
0.150541 0.150147 0.150296
0.170174 0.169874 0.169770
0.277314 0.277978 0.277065
0.151108 0.151329 0.152921
0.178665 0.182101 0.186629
0.199649 0.199961 0.207218
0.247411 0.246550 0.244539
0.212622 0.209281 0.208437
0.275106 0.275158 0.273701
0.276220 0.277459 0.280961
0.241555 0.240128 0.238398
0.249642 0.249691 0.249961
0.183509 0.183973 0.184857
0.180509 0.179735 0.178932
0.208787 0.211666 0.211893
0.220923 0.221468 0.221106
0.173078 0.170483 0.170059
0.239238 0.238952 0.238810
0.186551 0.186602 0.186609
0.213736 0.217411 0.220149
0.211659 0.211032 0.210501
0.123085 0.125291 0.128892
0.115657 0.115685 0.113643
0.228193 0.223756 0.223773
0.187543 0.187366 0.187973
0.120322 0.119051 0.118470
0.218416 0.218866 0.218786
0.162746 0.162969 0.162894
0.236042 0.233360 0.233809
0.230656 0.229422 0.228924
0.226307 0.226270 0.224336
0.137399 0.136925 0.136637
0.163887 0.162547 0.160701
0.224670 0.225126 0.225957
0.145597 0.139691 0.139314
0.154095 0.155423 0.159217
0.213949 0.213087 0.212566
0.181380 0.182706 0.184414
0.166754 0.167386 0.167878
0.109099 0.112077 0.116320
0.175442 0.174446 0.174198
0.096038 0.096635 0.096751
0.234374 0.233848 0.231610
0.209714 0.208699 0.207313
0.290935 0.291689 0.289447
0.208316 0.208127 0.207916
0.153751 0.154851 0.155481
0.180704 0.180789 0.182779
0.225021 0.225612 0.227540
0.285243 0.289938 0.289703
0.091456 0.089666 0.089310
0.161754 0.162271 0.162994
0.139236 0.140159 0.140813
0.185224 0.184580 0.187634
0.214605 0.212549 0.214264
0.181928 0.183179 0.185191
0.192711 0.194838 0.194379
0.219498 0.219386 0.220157
0.178702 0.180203 0.181370
0.181849 0.182215 0.182919
0.278157 0.278348 0.277896
0.117934 0.118083 0.118450
0.212331 0.213068 0.214353
0.184336 0.183641 0.185969
0.167368 0.168291 0.168004
0.077391 0.077212 0.077630
0.199856 0.200167 0.200544
0.185476 0.184662 0.181951
0.206337 0.207076 0.207449
0.150900 0.150430 0.148682
0.200581 0.199766 0.199085
0.122126 0.124532 0.125441
0.283796 0.284823 0.287601
0.281041 0.282015 0.282498
0.097263 0.104513 0.106535
0.086332 0.086206 0.087363
0.199691 0.200130 0.199868
0.210523 0.211766 0.212051
0.277244 0.276717 0.276355
0.177783 0.178499 0.178665
0.116320 0.121368 0.123097
0.196106 0.200342 0.201679
0.166875 0.166126 0.166056
0.249629 0.248535 0.243980
0.205782 0.205524 0.205290
0.116397 0.116639 0.116053
0.232829 0.232422 0.231132
0.190083 0.189175 0.185108
0.235016 0.232762 0.228600
0.149900 0.149644 0.149584
0.145284 0.148160 0.148706
0.097458 0.097586 0.098363
0.188175 0.186321 0.186471
0.211989 0.210335 0.211318
0.201262 0.198986 0.196510
0.115696 0.116474 0.117090
0.248892 0.248124 0.244841
0.230492 0.231375 0.231671
0.264129 0.261217 0.259578
0.236966 0.237133 0.239103
0.221374 0.221311 0.221576
0.208055 0.206658 0.204431
0.224423 0.224720 0.225399
0.164836 0.164322 0.163869
0.179066 0.175824 0.171627
0.120075 0.120750 0.121384
0.218442 0.219062 0.219161
0.103336 0.103826 0.104043
0.147408 0.145848 0.146304
0.219842 0.220431 0.222731
0.163948 0.163817 0.162866
0.183488 0.182929 0.181450
0.212527 0.211378 0.210850
0.229411 0.231051 0.230416
0.198680 0.197828 0.197648
0.196038 0.195931 0.195243
0.221247 0.221856 0.222004
0.245490 0.246237 0.244840
0.151175 0.151987 0.151696
0.168149 0.171330 0.172052
0.163036 0.163248 0.162643
0.207704 0.208751 0.208850
0.236465 0.236576 0.234936
0.176741 0.176808 0.175542
0.249679 0.248163 0.245858
0.165453 0.163186 0.161407
0.235497 0.235437 0.233465
0.156814 0.157563 0.156362
0.283109 0.281777 0.281887
0.158128 0.157969 0.157963
0.226245 0.226358 0.225049
0.238162 0.236972 0.235833
0.225265 0.223457 0.221388
0.168278 0.167558 0.166440
0.120591 0.120202 0.119118
0.181388 0.178957 0.177885
0.226002 0.224770 0.224331
0.128941 0.129636 0.130547
0.115626 0.115635 0.111846
0.200589 0.200778 0.200794
0.217120 0.216713 0.215572
0.204846 0.204842 0.203086
0.162831 0.164162 0.165120
0.101567 0.101003 0.101054
0.204446 0.207311 0.210303
0.204099 0.204633 0.205141
0.231308 0.232453 0.232196
0.223726 0.229660 0.228167
0.309167 0.305933 0.298343
0.247901 0.248051 0.243713
0.227008 0.227153 0.227875
0.309474 0.309353 0.309422
0.316209 0.319001 0.321818
0.123077 0.124507 0.128897
0.156950 0.156078 0.155938
0.215460 0.214900 0.214293
0.179202 0.180763 0.182892
0.172196 0.168373 0.165727
0.119768 0.121122 0.122529
0.189518 0.188001 0.185857
0.205850 0.207355 0.208999
0.210100 0.209341 0.208665
0.273556 0.270179 0.266580
0.218802 0.219133 0.216977
0.116637 0.116649 0.118670
0.186557 0.186690 0.185563
0.147597 0.143829 0.144521
0.210236 0.208840 0.210781
0.218250 0.218289 0.220271
0.161319 0.162138 0.163990
0.194453 0.193241 0.195886
0.200758 0.199839 0.198922
0.102159 0.101544 0.101608
0.179822 0.179478 0.178063
0.092937 0.092980 0.093274
0.172342 0.170834 0.169886
0.276729 0.276051 0.273013
0.247012 0.246732 0.247424
0.217761 0.221491 0.224286
0.228187 0.229024 0.229256
0.170744 0.171770 0.173061
0.229038 0.229697 0.228051
0.237393 0.242715 0.241457
0.181454 0.180848 0.179590
0.222719 0.222544 0.221506
0.131141 0.131703 0.131912
0.185073 0.184698 0.185290
0.139635 0.139159 0.139937
0.238491 0.243440 0.242487
0.244908 0.244996 0.243740
0.221936 0.222990 0.223515
0.247479 0.249386 0.249096
0.168871 0.168740 0.169584
0.170059 0.169647 0.169396
0.121462 0.121048 0.121829
0.256626 0.255060 0.252916
0.113031 0.113014 0.112914
0.232063 0.233248 0.233681
0.295484 0.294884 0.294823
0.222309 0.223071 0.222276
0.142305 0.142507 0.143145
0.158713 0.159736 0.161355
0.195471 0.196960 0.203831
0.198100 0.197853 0.202294
0.131664 0.131596 0.132023
0.291914 0.293529 0.294612
0.164510 0.166875 0.166126
0.225971 0.225272 0.224647
0.139755 0.139985 0.140010
0.247991 0.247561 0.247282
0.282425 0.281396 0.279720
0.149896 0.151316 0.152689
0.191972 0.191823 0.192869
0.265368 0.264639 0.265413
0.247041 0.246324 0.244323
0.170274 0.172173 0.174491
0.268883 0.268754 0.266041
0.181722 0.181600 0.181730
0.174317 0.174027 0.173938
0.226645 0.224636 0.224489
0.182879 0.181684 0.182819
0.280125 0.281337 0.282094
0.157824 0.158075 0.158191
0.130588 0.131141 0.131703
0.196506 0.199059 0.200165
0.185774 0.183748 0.184328
0.173714 0.173635 0.173990
0.236112 0.234343 0.232906
0.191970 0.192888 0.195239
0.231180 0.235860 0.237248
0.081883 0.085593 0.085664
0.266085 0.265250 0.264225
0.100787 0.100862 0.100929
0.222743 0.221835 0.219931
0.150018 0.150574 0.151349
0.212966 0.210148 0.210022
0.161639 0.161590 0.161508
0.195227 0.196358 0.197398
0.161391 0.161296 0.161625
0.161010 0.163522 0.163710
0.222544 0.222552 0.222037
0.147128 0.149083 0.151985
0.256163 0.256659 0.256892
0.281802 0.283938 0.281240
0.217338 0.213862 0.215239
0.174888 0.174089 0.172166
0.227634 0.226071 0.222897
0.257487 0.259075 0.261269
0.120977 0.120776 0.119800
0.157403 0.155839 0.153396
0.118696 0.118247 0.118178
0.149362 0.148905 0.149182
0.215144 0.215375 0.216421
0.085351 0.087044 0.088264
0.267617 0.266141 0.265415
0.154497 0.154303 0.154394
0.229284 0.231774 0.235397
0.201638 0.201365 0.200892
0.187619 0.187923 0.188325
0.162060 0.163687 0.172002
0.263185 0.260197 0.260980
0.207729 0.208246 0.208768
0.182437 0.182781 0.182993
0.211663 0.211091 0.210551
0.093627 0.091253 0.091076
0.169983 0.169362 0.168713
0.236801 0.236096 0.233377
0.218933 0.218793 0.215853
0.283103 0.283783 0.282392
0.119414 0.118769 0.118658
0.173919 0.174270 0.174390
0.153553 0.155089 0.158335
0.179278 0.182585 0.183330
0.184451 0.182482 0.181399
0.219777 0.219405 0.218656
0.198299 0.202876 0.202537
0.185460 0.185961 0.185610
0.190222 0.189683 0.190128
0.215564 0.216627 0.216453
0.124528 0.125140 0.125247
0.088812 0.088286 0.087673
0.170123 0.170102 0.170541
0.209557 0.203771 0.199108
0.210349 0.211248 0.214865
0.211543 0.210793 0.212221
0.206974 0.207038 0.207197
0.227522 0.224718 0.216780
0.187496 0.187496 0.185673
0.171661 0.172280 0.174562
0.246395 0.246159 0.245772
0.214950 0.214799 0.214114
0.236001 0.223782 0.221773
0.171219 0.170923 0.170189
0.206340 0.206450 0.206259
0.148598 0.148899 0.149938
0.215917 0.216598 0.217675
