0.399208 0.398259 0.399283
0.363684 0.368273 0.368588
0.387777 0.390654 0.389960
0.404032 0.402634 0.405982
0.360721 0.360974 0.360451
0.385720 0.388014 0.385525
0.390012 0.381704 0.374401
0.405255 0.405012 0.404859
0.362868 0.369764 0.372419
0.409589 0.410892 0.410453
0.392109 0.400466 0.402267
0.395129 0.390895 0.392630
0.402509 0.402799 0.400936
0.376007 0.374502 0.374630
0.341118 0.344500 0.341216
0.375298 0.377792 0.377166
0.366379 0.367769 0.368392
0.413661 0.413435 0.412922
0.397488 0.392589 0.390909
0.366366 0.366812 0.361981
0.410568 0.410256 0.411791
0.420802 0.417537 0.417535
0.418284 0.423118 0.419706
0.378214 0.378603 0.378396
0.388406 0.387132 0.387200
0.300617 0.297464 0.297511
0.404268 0.404477 0.406139
0.377969 0.378240 0.373857
0.437274 0.440439 0.439270
0.394348 0.394919 0.401946
0.450467 0.448416 0.449812
0.419804 0.418637 0.418468
0.389834 0.388824 0.389362
0.322394 0.323797 0.324874
0.341650 0.343274 0.342919
0.369347 0.367785 0.366642
0.339599 0.341456 0.346733
0.371432 0.367844 0.366835
0.397741 0.396659 0.396999
0.405362 0.386383 0.384131
0.385735 0.386418 0.383401
0.384189 0.384981 0.385495
0.365321 0.369482 0.369325
0.385329 0.385910 0.385662
0.361467 0.364119 0.366695
0.394960 0.393636 0.391650
0.399430 0.394741 0.394308
0.355404 0.351617 0.351436
0.337807 0.338804 0.338498
0.360192 0.359709 0.360615
0.374457 0.372113 0.371730
0.337275 0.337317 0.336172
0.352288 0.353316 0.348806
0.379581 0.378762 0.379100
0.376377 0.376135 0.379100
0.427260 0.426644 0.425264
0.309823 0.308972 0.307908
0.353061 0.351518 0.349762
0.450610 0.451231 0.449188
0.354560 0.357898 0.357036
0.363681 0.364202 0.363803
0.361633 0.360735 0.361388
0.387366 0.387353 0.387211
0.391981 0.392353 0.387539
0.341600 0.337673 0.336541
0.413548 0.414528 0.418098
0.348567 0.347547 0.348986
0.391040 0.390848 0.391392
0.388383 0.386402 0.386399
0.406767 0.409187 0.409937
0.358087 0.354972 0.352077
0.397326 0.398553 0.399107
0.442733 0.440938 0.431612
0.413526 0.414503 0.414659
0.380181 0.376295 0.388910
0.413642 0.408078 0.409191
0.321527 0.321300 0.319446
0.394373 0.402777 0.401126
0.369457 0.366179 0.365069
0.370413 0.370854 0.370844
0.384195 0.380597 0.374058
0.383652 0.380242 0.377203
0.414464 0.411141 0.411052
0.413709 0.417839 0.418412
0.396330 0.396575 0.397466
0.386090 0.387508 0.387813
0.366065 0.364785 0.365469
0.381931 0.382679 0.380863
0.387795 0.388133 0.385397
0.425486 0.422290 0.423371
0.397159 0.398450 0.396184
0.424564 0.424234 0.421888
0.383036 0.383651 0.383329
0.394761 0.397052 0.397524
0.337807 0.337735 0.339758
0.358455 0.354684 0.357440
0.375744 0.375017 0.377417
0.379294 0.379392 0.380351
0.352616 0.351406 0.351938
0.419552 0.420835 0.413782
0.379834 0.379814 0.378895
0.370255 0.359881 0.351555
0.401861 0.402981 0.404831
0.333516 0.333267 0.328140
0.376668 0.376513 0.374847
0.488011 0.485778 0.486791
0.415987 0.409496 0.407543
0.413413 0.412584 0.405789
0.348437 0.348882 0.346078
0.400400 0.400583 0.401759
0.300934 0.302782 0.302236
0.382709 0.383311 0.381534
0.348930 0.350946 0.349348
0.344959 0.362409 0.365891
0.382252 0.387158 0.385146
0.361405 0.359092 0.358983
0.375478 0.371432 0.367844
0.393598 0.393546 0.386733
0.382744 0.387310 0.390457
0.398042 0.398914 0.400824
0.362763 0.358657 0.358841
0.370405 0.371110 0.370256
0.395662 0.394275 0.397057
0.348148 0.346580 0.344851
0.383864 0.380777 0.380018
0.353619 0.364070 0.370882
0.371996 0.370120 0.372771
0.449678 0.447832 0.445710
0.399770 0.399025 0.396038
0.343897 0.340599 0.341702
0.392619 0.392371 0.392155
0.395487 0.394166 0.389146
0.390528 0.386552 0.381228
0.399428 0.396433 0.396678
0.310950 0.310055 0.310476
0.401697 0.404264 0.406258
0.289455 0.291893 0.292325
0.405779 0.397536 0.391105
0.369235 0.370747 0.374085
0.425680 0.430710 0.431417
0.348901 0.348093 0.348946
0.380555 0.378051 0.383978
0.359012 0.357697 0.356355
0.410982 0.410577 0.415614
0.403744 0.400581 0.400423
0.372068 0.375108 0.374737
0.396481 0.396994 0.397499
0.359454 0.362474 0.364693
0.358257 0.365543 0.369119
0.397035 0.399755 0.400227
0.337305 0.334907 0.322184
0.403602 0.403609 0.404965
0.439886 0.437306 0.434368
0.392042 0.393105 0.391382
0.362346 0.357533 0.355148
0.349139 0.355116 0.358034
0.363531 0.363067 0.363267
0.371614 0.374880 0.377054
0.403179 0.401340 0.399634
0.424558 0.426576 0.430961
0.398197 0.395603 0.387339
0.403104 0.400721 0.401857
0.389141 0.387471 0.386711
0.411126 0.411124 0.411758
0.401148 0.400745 0.402864
0.383848 0.381725 0.380178
0.405861 0.399406 0.402798
0.381400 0.382110 0.383800
0.362572 0.357246 0.362915
0.387935 0.387683 0.376932
0.351603 0.352608 0.357076
0.363562 0.362693 0.367339
0.396297 0.396615 0.394328
0.472781 0.479953 0.477960
0.409696 0.413898 0.418541
0.360079 0.361815 0.355204
0.394905 0.395239 0.385007
0.332418 0.333404 0.336501
0.404237 0.404626 0.399173
0.346896 0.345445 0.345320
0.421189 0.420600 0.420455
0.360777 0.362228 0.362350
0.310584 0.310556 0.308917
0.377960 0.380095 0.388938
0.391643 0.391831 0.389815
0.410516 0.411237 0.414315
0.384707 0.384213 0.380207
0.339182 0.344150 0.343050
0.342101 0.342348 0.341688
0.342376 0.341850 0.342208
0.367509 0.363296 0.364775
0.374384 0.374486 0.379864
0.427343 0.425368 0.424516
0.393988 0.394478 0.394872
0.386798 0.388909 0.388875
0.374440 0.374220 0.373669
0.321418 0.314521 0.313805
0.389281 0.392410 0.397676
0.412139 0.411541 0.413399
0.370263 0.371592 0.370480
0.338278 0.334315 0.336600
0.381794 0.383167 0.382739
0.392903 0.394637 0.396845
0.350475 0.350867 0.350871
0.442751 0.444556 0.443406
0.424491 0.429189 0.430154
0.363142 0.363919 0.359311
0.374644 0.378930 0.379261
0.322549 0.321751 0.319784
0.350900 0.350435 0.351112
0.408950 0.410313 0.408512
0.366078 0.359403 0.358123
0.407017 0.407274 0.408603
0.409066 0.407647 0.409307
0.398442 0.397594 0.397517
0.410548 0.407411 0.407010
0.430609 0.429644 0.430680
0.348745 0.347233 0.352520
0.406749 0.409801 0.407192
0.345568 0.348961 0.353528
0.404220 0.402920 0.399441
0.416619 0.421066 0.413629
0.392681 0.394985 0.391697
0.341750 0.341636 0.338982
0.383260 0.386986 0.379408
0.400306 0.397190 0.408968
0.355012 0.359501 0.359821
0.367769 0.368392 0.370814
0.370908 0.370263 0.371592
0.352540 0.354346 0.356989
0.350083 0.352533 0.353455
0.364629 0.362040 0.361853
0.357622 0.355887 0.356035
0.393562 0.395651 0.394693
0.385521 0.385346 0.382860
0.414322 0.411660 0.410416
0.346392 0.340696 0.339362
0.328338 0.328398 0.328885
0.383396 0.384597 0.390974
0.320162 0.319284 0.318562
0.400321 0.401763 0.402437
0.349085 0.347240 0.347725
0.390025 0.389886 0.387637
0.405367 0.402752 0.406835
0.393126 0.387388 0.382411
0.335371 0.334608 0.330521
0.384484 0.384448 0.386788
0.416734 0.419594 0.414710
0.377214 0.379130 0.381888
0.385557 0.384017 0.385492
0.351390 0.349447 0.351573
0.408304 0.407827 0.404150
0.336417 0.338317 0.334157
0.408839 0.412744 0.413502
0.394711 0.395671 0.407184
0.383000 0.378109 0.375904
0.367363 0.373069 0.375076
0.416265 0.413022 0.411799
0.408046 0.414974 0.418959
0.339098 0.338344 0.338090
0.346811 0.344118 0.340568
0.434082 0.436787 0.436330
0.366251 0.364980 0.365195
0.400348 0.400321 0.401763
0.391385 0.399103 0.393069
0.367236 0.367325 0.363127
0.419359 0.419256 0.418155
0.402573 0.405418 0.405781
0.355344 0.356954 0.356529
0.366512 0.367084 0.368479
0.328123 0.328591 0.332822
0.336556 0.338137 0.339567
0.373723 0.373004 0.376918
0.422079 0.419377 0.412924
0.369859 0.371357 0.366706
0.380079 0.380060 0.379304
0.394941 0.400167 0.401591
0.410723 0.410896 0.411816
0.366635 0.365060 0.363488
0.400394 0.403456 0.401984
0.372994 0.376039 0.377755
0.431751 0.434194 0.432214
0.379379 0.380092 0.380291
0.378867 0.380294 0.380044
0.372175 0.373696 0.368603
0.407224 0.410720 0.416372
0.379685 0.381263 0.383711
0.329793 0.329639 0.335638
0.393630 0.396843 0.400144
0.354868 0.353011 0.352762
0.398164 0.396243 0.394233
0.389903 0.389989 0.387925
0.432916 0.433770 0.434526
0.384878 0.390652 0.390177
0.367503 0.366602 0.363435
0.401737 0.401868 0.402459
0.390303 0.393772 0.393694
0.400317 0.402534 0.410687
0.400368 0.389153 0.386213
0.357477 0.359548 0.369797
0.396139 0.398540 0.399608
0.395926 0.391856 0.389307
0.305321 0.305073 0.307004
0.405381 0.404527 0.407488
0.391045 0.390503 0.391367
0.414096 0.416447 0.417621
0.390194 0.389617 0.388630
0.348012 0.355510 0.360038
0.372872 0.374065 0.370284
0.413330 0.412997 0.410182
0.300207 0.298076 0.303236
0.399516 0.400523 0.396401
0.373257 0.373229 0.372035
0.402188 0.396002 0.395758
0.413367 0.413887 0.409448
0.392957 0.389504 0.388757
0.367454 0.369081 0.367839
0.398477 0.399129 0.398126
0.384464 0.385597 0.386740
0.418268 0.415254 0.414835
0.413068 0.412135 0.410798
0.368088 0.365452 0.366177
0.390561 0.389199 0.388336
0.391838 0.391415 0.388332
0.379747 0.381577 0.378801
0.373416 0.373225 0.376556
0.384868 0.385047 0.382405
0.312234 0.310447 0.311873
0.414041 0.412963 0.409466
0.412662 0.409895 0.410009
0.352333 0.353853 0.355401
0.361697 0.361142 0.360913
0.355510 0.360038 0.370519
0.353791 0.358892 0.357255
0.327640 0.329106 0.328488
0.363100 0.362509 0.363074
0.332969 0.333387 0.337090
0.373981 0.372311 0.372073
0.341216 0.344100 0.346351
0.487812 0.484347 0.487807
0.389924 0.389299 0.389732
0.392546 0.397643 0.400121
0.362714 0.362867 0.365219
0.409582 0.406772 0.400029
0.397416 0.399941 0.390469
0.424098 0.422328 0.419035
0.369495 0.365802 0.362076
0.418642 0.416936 0.418212
0.427564 0.424473 0.428404
0.374600 0.373453 0.378687
0.388320 0.389990 0.389942
0.378712 0.381332 0.382474
0.360895 0.360171 0.359626
0.355075 0.353041 0.352133
0.372199 0.374333 0.372750
0.372949 0.372747 0.374980
0.383226 0.379821 0.379593
0.401205 0.399012 0.391267
0.351882 0.354472 0.357550
0.399721 0.398937 0.395171
0.400554 0.399236 0.399208
0.369107 0.369722 0.370003
0.386436 0.389563 0.390577
0.333142 0.333222 0.333980
0.389547 0.389314 0.389060
0.387765 0.387607 0.388168
0.341684 0.339626 0.341448
0.322268 0.319719 0.319694
0.396901 0.387871 0.384771
0.403263 0.406453 0.402140
0.370973 0.370907 0.368671
0.400794 0.398028 0.397416
0.397426 0.396557 0.393718
0.409346 0.407239 0.405814
0.333786 0.333721 0.332384
0.409640 0.418739 0.418709
0.412573 0.413386 0.415289
0.329373 0.331058 0.333571
0.354588 0.356422 0.353963
0.373082 0.370727 0.370904
0.374578 0.372613 0.376035
0.418036 0.418162 0.418183
0.391972 0.394106 0.395833
0.378556 0.379136 0.380353
0.368653 0.372388 0.371911
0.397467 0.395447 0.389683
0.378546 0.381324 0.377732
0.351334 0.361136 0.373197
0.410060 0.409942 0.409258
0.382595 0.387473 0.386877
0.312661 0.312363 0.312866
0.374407 0.374469 0.371207
0.378267 0.381699 0.382406
0.380604 0.380987 0.379723
0.357764 0.357698 0.355266
0.330950 0.331140 0.329654
0.404674 0.411632 0.412652
0.402967 0.404165 0.407909
0.382546 0.379483 0.379490
0.372517 0.375991 0.379152
0.346783 0.347589 0.345802
0.378203 0.374437 0.380377
0.360213 0.360689 0.361734
0.421007 0.423318 0.421259
0.387158 0.388079 0.388167
0.328958 0.330928 0.330953
0.313805 0.314908 0.313832
0.446945 0.448845 0.449165
0.327642 0.328143 0.330482
0.387536 0.387485 0.385792
0.368817 0.369299 0.368508
0.371939 0.375112 0.372645
0.368157 0.364531 0.359534
0.333010 0.332987 0.334284
0.377619 0.375126 0.368906
0.324491 0.325403 0.324975
0.357484 0.362130 0.362125
0.408759 0.407858 0.407986
0.393223 0.393063 0.392424
0.398358 0.397049 0.394917
0.307951 0.309351 0.313404
0.395764 0.396986 0.396989
0.421213 0.419545 0.420292
0.377286 0.366011 0.372431
0.414939 0.413854 0.411820
0.354077 0.357477 0.359548
0.395862 0.393827 0.389040
0.328972 0.328848 0.329711
0.398346 0.398431 0.396759
0.446678 0.451573 0.459941
0.354847 0.353040 0.350110
0.371859 0.373998 0.379743
0.370755 0.373699 0.372886
0.396905 0.397871 0.393558
0.365916 0.360845 0.357923
0.401227 0.400180 0.399180
0.366226 0.365678 0.366531
0.388969 0.388917 0.384571
0.399547 0.402656 0.398916
0.340874 0.338623 0.343833
0.341847 0.345414 0.346545
0.356008 0.354096 0.352354
0.412072 0.413084 0.414165
0.360796 0.358375 0.355230
0.357507 0.360417 0.360168
0.370303 0.373026 0.369168
0.372453 0.373012 0.373651
0.409611 0.410366 0.410508
0.379652 0.372278 0.371114
0.370790 0.369913 0.370926
0.394085 0.397855 0.396660
0.414472 0.413762 0.413628
0.305306 0.307002 0.307173
0.389533 0.390307 0.391353
0.414993 0.414870 0.414005
0.305020 0.307619 0.305822
0.410668 0.409385 0.411558
0.361412 0.357398 0.357285
0.407639 0.407784 0.406572
0.346513 0.340817 0.340762
0.392381 0.394847 0.394270
0.366498 0.365472 0.369877
0.393174 0.392626 0.389483
0.356330 0.356509 0.356096
0.327458 0.333404 0.331597
0.417905 0.412272 0.411055
0.388571 0.387704 0.388838
0.395032 0.394790 0.393691
0.351023 0.348338 0.346979
0.298154 0.296054 0.294655
0.394623 0.391269 0.388861
0.391180 0.388178 0.388851
0.380699 0.381165 0.381314
0.397058 0.398668 0.398400
0.421320 0.421431 0.423112
0.396629 0.397354 0.398472
0.366384 0.365664 0.366169
0.463001 0.461609 0.458747
0.312954 0.311647 0.312937
0.360971 0.361332 0.356657
0.365722 0.366226 0.365935
0.487921 0.487146 0.486623
0.379571 0.379849 0.380862
0.410292 0.413950 0.402305
0.367023 0.368468 0.371291
0.321682 0.319693 0.319352
0.352897 0.355502 0.357924
0.391950 0.392004 0.395342
0.356500 0.360545 0.358830
0.407550 0.408662 0.410061
0.341914 0.341787 0.337694
0.384740 0.387535 0.389891
0.315073 0.314945 0.317789
0.412946 0.415244 0.414885
0.297663 0.298924 0.295399
0.445161 0.440357 0.444945
0.343038 0.342942 0.344567
0.348103 0.352012 0.351266
0.348954 0.350927 0.362130
0.407985 0.409767 0.405921
0.428830 0.430639 0.430808
0.320086 0.320844 0.320716
0.320065 0.316743 0.314742
0.373240 0.384362 0.384131
0.394998 0.395896 0.398996
0.388818 0.394100 0.395312
0.387275 0.388503 0.385485
0.362840 0.364858 0.366257
0.385717 0.389111 0.386791
0.412182 0.413028 0.412994
0.343806 0.346582 0.352780
0.368144 0.370491 0.369177
0.383251 0.378261 0.377085
0.347650 0.347877 0.349110
0.331275 0.332630 0.331996
0.354504 0.353267 0.350767
0.384443 0.384076 0.379782
0.344346 0.341102 0.338371
0.383230 0.383282 0.382883
0.399747 0.400807 0.399920
0.392169 0.391877 0.395690
0.442125 0.442712 0.442551
0.376021 0.375596 0.382216
0.390502 0.390634 0.387868
0.334115 0.336518 0.335531
0.351472 0.351990 0.352035
0.393496 0.391924 0.388434
0.393825 0.391624 0.389827
0.366634 0.367606 0.369607
0.373171 0.372256 0.373267
0.411013 0.412240 0.412063
0.388758 0.389540 0.390969
0.453427 0.452006 0.449757
0.386453 0.387743 0.386519
0.401328 0.395387 0.396028
0.362049 0.361499 0.365798
0.373697 0.375265 0.377030
0.410419 0.409579 0.412685
0.330299 0.328900 0.328499
0.379404 0.379840 0.380286
0.415090 0.415246 0.415165
0.377542 0.376412 0.375511
0.409722 0.406340 0.406239
0.376726 0.379861 0.383181
0.399584 0.400004 0.404449
0.405239 0.404422 0.403282
0.397586 0.389512 0.384603
0.377378 0.377502 0.379523
0.411836 0.410711 0.410685
0.391593 0.394768 0.395764
0.367625 0.370563 0.371069
0.383905 0.383431 0.377025
0.342402 0.342562 0.341342
0.393278 0.400275 0.401789
0.386176 0.385921 0.392505
0.377094 0.377129 0.374214
0.384993 0.391693 0.390988
0.396796 0.397318 0.392899
0.380441 0.381896 0.387558
0.354713 0.353557 0.353561
0.379278 0.384335 0.383557
0.363099 0.361934 0.366755
0.403241 0.398428 0.398789
0.343269 0.340024 0.339787
0.343152 0.341990 0.342678
0.389447 0.386359 0.380147
0.343163 0.334903 0.325611
0.373318 0.372570 0.373814
0.389453 0.388682 0.389691
0.359042 0.361315 0.362065
0.361945 0.362083 0.365974
0.359822 0.359100 0.355954
0.365334 0.367183 0.370839
0.379020 0.378214 0.378603
0.440430 0.439658 0.442231
0.386361 0.381657 0.380649
0.435808 0.435509 0.432179
0.340366 0.336695 0.340500
0.407267 0.397047 0.388046
0.385877 0.384079 0.380478
0.407557 0.409938 0.413088
0.387108 0.384880 0.382159
0.429828 0.429823 0.429739
0.405744 0.406930 0.407182
0.409234 0.408494 0.407866
0.382350 0.383937 0.383995
0.410938 0.409589 0.410892
0.364585 0.365999 0.368488
0.427050 0.426723 0.427950
0.334082 0.335276 0.334216
0.402453 0.401990 0.402617
0.366342 0.367760 0.367121
0.400028 0.398876 0.401512
0.383471 0.379285 0.380304
0.338725 0.338941 0.338542
0.449494 0.448121 0.450170
0.360539 0.360165 0.360362
0.351237 0.352971 0.353544
0.344157 0.345670 0.349531
0.378116 0.379447 0.378793
0.367325 0.363127 0.363017
0.393924 0.398073 0.399032
0.353109 0.354418 0.353859
0.377139 0.374211 0.375516
0.391368 0.392636 0.396701
0.388578 0.389756 0.389317
0.366362 0.366996 0.365824
0.377656 0.376071 0.375767
0.404593 0.404851 0.403960
0.386949 0.387175 0.387511
0.377689 0.379192 0.379168
0.315573 0.316413 0.316883
0.376554 0.377513 0.380475
0.382935 0.382464 0.382770
0.380017 0.379227 0.379259
0.383858 0.383074 0.382892
0.394985 0.400155 0.398664
0.390485 0.390521 0.396636
0.379026 0.378695 0.376703
0.402885 0.405171 0.408688
0.392962 0.395769 0.396404
0.352562 0.353111 0.357395
0.382584 0.374741 0.376740
0.398788 0.400028 0.398876
0.363799 0.355075 0.353041
0.400276 0.404312 0.404414
0.340450 0.342223 0.342673
0.397158 0.396013 0.395508
0.433098 0.434593 0.434244
0.387448 0.386601 0.386535
0.333982 0.334772 0.335864
0.358203 0.351942 0.348636
0.366449 0.370855 0.363277
0.436870 0.439405 0.439587
0.398051 0.394327 0.395434
0.372599 0.368452 0.361352
0.390079 0.389987 0.389156
0.401734 0.401115 0.397067
0.388786 0.389577 0.391815
0.390350 0.393667 0.392375
0.340107 0.340687 0.346244
0.382398 0.383972 0.385695
0.451899 0.449009 0.449328
0.380347 0.380768 0.380951
0.380475 0.374992 0.372915
0.376643 0.376313 0.377251
0.378686 0.378326 0.380234
0.382372 0.382351 0.381628
0.410313 0.408512 0.410803
0.378829 0.378914 0.379551
0.365403 0.367486 0.370008
0.383680 0.384735 0.387683
0.354634 0.353627 0.352630
0.416463 0.412235 0.413171
0.397469 0.405211 0.405308
0.413143 0.412616 0.412123
0.299472 0.300746 0.309664
0.403813 0.402982 0.397933
0.416552 0.417917 0.410876
0.387179 0.386992 0.387663
0.368203 0.365032 0.361894
0.385851 0.386072 0.386131
0.414043 0.409619 0.408866
0.420443 0.420525 0.420464
0.291525 0.291582 0.297390
0.351464 0.351057 0.349628
0.380260 0.383780 0.385266
0.437603 0.436831 0.437760
0.408313 0.407557 0.409938
0.360766 0.359733 0.360464
0.319951 0.316634 0.313099
0.368950 0.367515 0.364047
0.344324 0.343432 0.345619
0.414712 0.413947 0.414521
0.345142 0.344721 0.343352
0.398650 0.396303 0.394254
0.370994 0.369647 0.366451
0.383359 0.379335 0.378950
0.333444 0.343404 0.339987
0.327351 0.327369 0.328265
0.340262 0.337944 0.334598
0.432374 0.427050 0.426723
0.382425 0.379878 0.377814
0.400086 0.405820 0.412383
0.368303 0.366406 0.364911
0.385271 0.384073 0.381831
0.364506 0.359529 0.353711
0.327451 0.325272 0.318435
0.395554 0.392420 0.390588
0.391702 0.398217 0.404458
0.324145 0.325410 0.327801
0.392749 0.392495 0.392012
0.354160 0.354200 0.349283
0.378191 0.377932 0.376178
0.314693 0.319226 0.320529
0.324698 0.325384 0.325061
0.406270 0.417397 0.418743
0.356771 0.355937 0.355595
0.410997 0.412532 0.411863
0.346446 0.346169 0.345369
0.340966 0.334059 0.326178
0.371817 0.370832 0.370992
0.383947 0.385005 0.385556
0.399145 0.399981 0.397974
0.388782 0.385496 0.386715
0.357654 0.354359 0.346426
0.445354 0.443704 0.446734
0.417398 0.416441 0.414250
0.363981 0.368698 0.366461
0.378358 0.380470 0.379989
0.366685 0.366650 0.366374
0.370017 0.372579 0.373136
0.355056 0.356450 0.355041
0.381062 0.380893 0.381558
0.366630 0.364933 0.369971
0.374688 0.374345 0.375454
0.386573 0.387797 0.388307
0.379566 0.376331 0.385141
0.402183 0.401148 0.400745
0.442877 0.442872 0.443236
0.377724 0.379032 0.379909
0.406309 0.407345 0.393178
0.381780 0.385460 0.386475
0.351870 0.356818 0.357654
0.382317 0.390138 0.392624
0.323591 0.323919 0.322382
0.363675 0.365904 0.373597
0.408992 0.409584 0.410935
0.361051 0.361872 0.362421
0.369193 0.370581 0.371532
0.371323 0.371707 0.374591
0.387158 0.388396 0.388358
0.335613 0.336934 0.335414
0.407285 0.406269 0.407820
0.357493 0.357526 0.358999
0.313008 0.312165 0.319089
0.401931 0.403871 0.401494
0.348338 0.346979 0.346924
0.393715 0.391592 0.391565
0.349139 0.350639 0.352311
0.364020 0.363651 0.363980
0.384671 0.392161 0.386055
0.419252 0.417592 0.414898
0.376361 0.377564 0.376045
0.412587 0.416777 0.414365
0.374951 0.370502 0.370459
0.377393 0.377665 0.379337
0.391406 0.387213 0.388977
0.377344 0.377619 0.375126
0.415333 0.414579 0.417369
0.322657 0.326909 0.327183
0.370386 0.365117 0.357299
0.320092 0.319718 0.320618
0.464815 0.465683 0.465469
0.385526 0.389372 0.391862
0.352932 0.355765 0.354223
0.398567 0.398933 0.401872
0.316920 0.316527 0.315301
0.323495 0.324020 0.324718
0.382597 0.380431 0.381006
0.365606 0.363100 0.362509
0.386838 0.386374 0.384688
0.402864 0.402769 0.402133
0.366326 0.364847 0.363776
0.368616 0.372788 0.370929
0.382619 0.380405 0.380452
0.389530 0.388289 0.386636
0.399608 0.395379 0.392083
0.398973 0.398588 0.396136
0.335531 0.334091 0.334636
0.406934 0.405959 0.405039
0.384588 0.383991 0.385007
0.359110 0.355800 0.356816
0.408409 0.409147 0.409309
0.370515 0.365224 0.364062
0.324336 0.322585 0.320642
0.361243 0.365916 0.360845
0.369305 0.367006 0.359886
0.394532 0.396744 0.398112
0.351138 0.352038 0.351831
0.370676 0.371060 0.371769
0.408431 0.408442 0.410088
0.353346 0.352711 0.352866
0.396118 0.400640 0.404423
0.413512 0.412612 0.414017
0.312404 0.311563 0.315103
0.319273 0.318203 0.315073
0.332152 0.332548 0.335744
0.384125 0.374192 0.373392
0.414190 0.412104 0.412526
0.396132 0.397922 0.397886
0.422958 0.420775 0.421029
0.367768 0.370471 0.369132
0.418103 0.426910 0.430978
0.397457 0.398160 0.396635
0.408667 0.408176 0.404077
0.388148 0.387275 0.388503
0.372213 0.369403 0.371057
0.341742 0.339494 0.338065
0.368422 0.376490 0.375831
0.346018 0.341821 0.343242
0.391591 0.391068 0.383331
0.411632 0.408542 0.407085
0.329675 0.329525 0.331054
0.343013 0.349042 0.350384
0.325432 0.328958 0.330928
0.358897 0.355771 0.355638
0.433387 0.437472 0.436842
0.349178 0.348623 0.348890
0.377105 0.374123 0.370693
0.426412 0.429292 0.435029
0.388325 0.390390 0.386424
0.418168 0.417785 0.418081
0.400560 0.391626 0.384201
0.418872 0.421324 0.422509
0.369756 0.370467 0.370857
0.399368 0.398277 0.396980
0.366973 0.366251 0.360305
0.396007 0.392584 0.390550
0.412228 0.412605 0.417283
0.411025 0.406283 0.406868
0.397614 0.395986 0.395472
0.373019 0.372356 0.373266
0.345890 0.349531 0.347601
0.400906 0.395926 0.391856
0.380577 0.379936 0.380907
0.379063 0.381502 0.374750
0.361545 0.361553 0.364241
0.351662 0.351044 0.353201
0.423201 0.422380 0.421595
0.399510 0.398877 0.400467
0.384200 0.385066 0.387422
0.325466 0.323399 0.323964
0.397640 0.400287 0.403968
0.381448 0.380885 0.378404
0.365893 0.366490 0.367348
0.379470 0.378948 0.376082
0.383891 0.384331 0.385633
0.410799 0.413001 0.414170
0.358000 0.358075 0.358744
0.346101 0.343149 0.341442
0.418974 0.430522 0.432702
0.371195 0.369999 0.369637
0.346983 0.347734 0.349460
0.399771 0.396460 0.395143
0.337508 0.342804 0.342200
0.393077 0.392957 0.389504
0.390151 0.389091 0.381842
0.385662 0.386654 0.385456
0.352054 0.353165 0.352921
0.331764 0.344607 0.358257
0.413421 0.410485 0.408850
0.368306 0.368546 0.373666
0.357126 0.351630 0.346826
0.348262 0.349340 0.348378
0.350725 0.351758 0.351453
0.380221 0.382175 0.379724
0.402422 0.402219 0.401105
0.385354 0.386475 0.385965
0.356125 0.357967 0.358523
0.346576 0.347614 0.347356
0.374603 0.373494 0.373404
0.395556 0.394527 0.395123
0.341939 0.335205 0.329735
0.427714 0.422514 0.420355
0.371250 0.370805 0.373160
0.380929 0.379454 0.381217
0.372272 0.372937 0.374311
0.375556 0.374827 0.373401
0.416534 0.417740 0.419878
0.325535 0.325787 0.328596
0.385950 0.387179 0.386992
0.443475 0.443571 0.434771
0.338483 0.343073 0.344437
0.358312 0.358031 0.357503
0.399827 0.397977 0.395040
0.356529 0.356695 0.357902
0.382353 0.380010 0.374802
0.403145 0.400777 0.401891
0.385028 0.386602 0.386109
0.346244 0.350092 0.354930
0.363132 0.369149 0.370226
0.339530 0.338487 0.338412
0.384660 0.384863 0.383516
0.307421 0.307694 0.307527
0.416513 0.415683 0.415733
0.388079 0.388167 0.389483
0.345688 0.349778 0.342827
0.456112 0.451633 0.451822
0.367276 0.361012 0.361432
0.390066 0.391337 0.393439
0.380593 0.382540 0.382543
0.387591 0.393126 0.398721
0.337014 0.335659 0.336372
0.340895 0.340660 0.344459
0.396835 0.398497 0.394854
0.337318 0.337079 0.336956
0.411270 0.413939 0.415615
0.371654 0.371482 0.373770
0.376755 0.376333 0.375072
0.379842 0.380215 0.377774
0.339707 0.340201 0.338466
0.382635 0.379396 0.381963
0.343056 0.344331 0.344875
0.403617 0.403764 0.404231
0.411496 0.411715 0.411590
0.375142 0.375592 0.372250
0.417852 0.414992 0.413632
0.382756 0.383928 0.380929
0.357709 0.357129 0.357949
0.413927 0.413501 0.413348
0.354239 0.355377 0.357729
0.395015 0.396103 0.397412
0.338398 0.337048 0.336200
0.346435 0.343768 0.343912
0.381735 0.381164 0.382653
0.375369 0.375416 0.373720
0.419114 0.427437 0.430597
0.390023 0.389102 0.389645
0.393217 0.391747 0.391368
0.342563 0.339818 0.341905
0.342954 0.341825 0.337341
0.412491 0.410852 0.408277
0.350495 0.351237 0.353556
0.380747 0.384444 0.387964
0.365763 0.366278 0.364976
0.378402 0.378490 0.371065
0.372393 0.373875 0.374402
0.402644 0.402131 0.398632
0.379710 0.373688 0.378498
0.337032 0.337476 0.338267
0.388254 0.389888 0.390759
0.448860 0.450297 0.443717
0.364800 0.365040 0.367734
0.399111 0.394785 0.396381
0.345781 0.345023 0.343865
0.386603 0.390381 0.393783
0.427999 0.426261 0.425592
0.415258 0.415033 0.418763
0.374863 0.378257 0.373097
0.308150 0.309301 0.314801
0.364187 0.361682 0.358769
0.379491 0.378746 0.380506
0.373875 0.373870 0.373838
0.411734 0.411564 0.407965
0.337331 0.340969 0.341438
0.370253 0.370767 0.367919
0.360779 0.363201 0.364747
0.411736 0.410748 0.411966
0.373599 0.374366 0.376983
0.391114 0.392850 0.392107
0.373913 0.372895 0.374124
0.401822 0.405949 0.406558
0.387509 0.387169 0.385163
0.375355 0.375097 0.375538
0.403099 0.404862 0.405994
0.397719 0.396294 0.396350
0.366107 0.370161 0.380360
0.375456 0.375459 0.375740
0.385423 0.385247 0.386433
0.364026 0.364790 0.363212
0.386454 0.385909 0.385385
0.317343 0.304991 0.303039
0.341242 0.345402 0.347721
0.367789 0.366744 0.364168
0.475571 0.480011 0.482475
0.423172 0.421857 0.421400
0.339761 0.342013 0.342427
0.376496 0.368891 0.365941
0.320440 0.318028 0.318433
0.410920 0.413955 0.413992
0.381492 0.379630 0.377862
0.342726 0.343414 0.341577
0.363475 0.357796 0.359046
0.371555 0.365693 0.364288
0.377193 0.378135 0.378467
0.310888 0.309615 0.310640
0.378975 0.377864 0.379523
0.388395 0.385426 0.382165
0.352553 0.352330 0.349176
0.370709 0.366734 0.362810
0.342744 0.341684 0.339626
0.390351 0.391029 0.390131
0.342219 0.342277 0.341916
0.388450 0.387379 0.388612
0.371895 0.371116 0.371537
0.359811 0.360917 0.361494
0.364591 0.366052 0.366667
0.379610 0.382364 0.382424
0.363289 0.365191 0.367320
0.374587 0.377132 0.378022
0.369164 0.367907 0.372317
0.375773 0.372321 0.375586
0.346118 0.345583 0.344876
0.371342 0.367187 0.365702
0.352192 0.354099 0.357954
0.370232 0.370172 0.370950
0.378594 0.378737 0.379897
0.365531 0.363575 0.368675
0.338614 0.338359 0.342290
