0.449938 0.450081 0.450140
0.413676 0.410168 0.405798
0.401414 0.401304 0.401246
0.369437 0.368365 0.371573
0.444856 0.444614 0.442781
0.446524 0.448224 0.439228
0.391811 0.390492 0.393184
0.377107 0.377362 0.376962
0.443519 0.452429 0.451814
0.341947 0.337811 0.338135
0.344370 0.345372 0.349421
0.451485 0.452555 0.450941
0.465159 0.466439 0.467092
0.354342 0.357936 0.357148
0.492700 0.494144 0.496653
0.414347 0.418986 0.424996
0.347696 0.349066 0.349491
0.428525 0.432099 0.431798
0.492165 0.489064 0.483402
0.424326 0.425293 0.424921
0.437327 0.436944 0.440469
0.468542 0.466752 0.468327
0.360335 0.356317 0.349926
0.442000 0.437769 0.435141
0.369514 0.365880 0.360747
0.381912 0.385863 0.386380
0.468610 0.466866 0.467234
0.457079 0.461163 0.465050
0.455807 0.455501 0.455037
0.457650 0.454554 0.455875
0.408727 0.410575 0.411976
0.379776 0.382632 0.383173
0.355509 0.356142 0.359322
0.450339 0.450392 0.446031
0.513064 0.511747 0.509323
0.376930 0.379351 0.375177
0.364803 0.365843 0.359444
0.400682 0.400167 0.398258
0.447339 0.438547 0.440121
0.358647 0.357887 0.359656
0.404966 0.407141 0.412077
0.462987 0.458979 0.462863
0.403906 0.402188 0.397855
0.389990 0.390257 0.381021
0.425793 0.430871 0.432024
0.400151 0.403479 0.402782
0.448129 0.447342 0.456934
0.454088 0.451833 0.447900
0.461615 0.463967 0.464623
0.432953 0.433303 0.431553
0.376529 0.373384 0.376769
0.414424 0.414904 0.412899
0.422519 0.420318 0.416894
0.369081 0.369701 0.369334
0.475911 0.478086 0.478010
0.437348 0.433469 0.432717
0.429016 0.431343 0.434359
0.325749 0.325816 0.325559
0.398612 0.401454 0.400325
0.411218 0.410873 0.409883
0.421161 0.421653 0.421755
0.340874 0.341351 0.345339
0.424015 0.425056 0.426576
0.426967 0.425088 0.419584
0.351118 0.352972 0.355905
0.444356 0.443013 0.439520
0.420215 0.419096 0.414971
0.441276 0.437480 0.439943
0.458634 0.458889 0.458822
0.480628 0.479954 0.472914
0.395637 0.391669 0.390718
0.458743 0.452100 0.456498
0.385125 0.385240 0.388636
0.431285 0.431632 0.430940
0.375111 0.373721 0.369912
0.389166 0.373879 0.380615
0.471883 0.471580 0.471079
0.403823 0.402636 0.402734
0.483247 0.479704 0.478640
0.472706 0.472796 0.470428
0.515805 0.516323 0.513307
0.419796 0.427011 0.426963
0.393076 0.391964 0.394056
0.480850 0.482213 0.489494
0.440572 0.440523 0.445227
0.408191 0.409839 0.411630
0.458675 0.460159 0.463268
0.362819 0.363291 0.364039
0.435564 0.443309 0.442594
0.390989 0.392103 0.398217
0.587472 0.587151 0.582112
0.351054 0.343915 0.344174
0.347992 0.343772 0.340270
0.388267 0.387359 0.387558
0.416412 0.419637 0.419659
0.388808 0.386865 0.385998
0.457403 0.457518 0.461846
0.470951 0.468649 0.466737
0.429660 0.429666 0.425797
0.530471 0.528911 0.529862
0.438178 0.436060 0.434659
0.375219 0.365812 0.362823
0.484678 0.483720 0.483842
0.429462 0.431025 0.431234
0.662139 0.665760 0.668411
0.387814 0.394761 0.392389
0.620467 0.621891 0.631931
0.621976 0.630336 0.632437
0.381181 0.381904 0.381235
0.405641 0.408444 0.406706
0.317393 0.319062 0.323208
0.426922 0.424228 0.426539
0.426554 0.430976 0.432393
0.405448 0.403417 0.403720
0.393868 0.394608 0.398158
0.347990 0.347193 0.347500
0.440424 0.441289 0.442403
0.438786 0.438764 0.433661
0.365728 0.368353 0.370375
0.353256 0.364888 0.365296
0.416074 0.418901 0.418504
0.414356 0.413293 0.409069
0.353166 0.353881 0.358158
0.355707 0.354971 0.354762
0.411817 0.412141 0.412549
0.395207 0.391504 0.388967
0.324330 0.324102 0.325895
0.474021 0.474751 0.477154
0.399441 0.399405 0.396928
0.397899 0.401610 0.407266
0.409195 0.407344 0.407510
0.454128 0.455456 0.449275
0.476845 0.475445 0.470455
0.392482 0.395970 0.394897
0.335545 0.335390 0.334623
0.380171 0.376010 0.377348
0.366981 0.367981 0.368967
0.351256 0.351867 0.347077
0.430606 0.429380 0.426634
0.513379 0.513403 0.514912
0.384341 0.381995 0.384424
0.478416 0.478686 0.476973
0.504806 0.491261 0.490856
0.389962 0.388783 0.390134
0.329707 0.330305 0.334636
0.479858 0.479843 0.482022
0.531427 0.533498 0.534054
0.410166 0.413783 0.414194
0.497972 0.497088 0.501649
0.416699 0.414251 0.412454
0.498877 0.500996 0.501482
0.439223 0.440466 0.437770
0.391413 0.390049 0.394912
0.475289 0.477791 0.478812
0.467909 0.471285 0.472947
0.399856 0.398650 0.399633
0.413975 0.419787 0.430374
0.467677 0.468925 0.468848
0.409758 0.409819 0.413582
0.360105 0.361972 0.361672
0.401500 0.405358 0.407753
0.421646 0.421037 0.414319
0.468109 0.474480 0.472997
0.430779 0.429230 0.431063
0.373055 0.376371 0.376362
0.404275 0.408508 0.409062
0.429047 0.430793 0.430187
0.435947 0.436743 0.433395
0.426473 0.423813 0.424069
0.389027 0.389976 0.390833
0.396774 0.392079 0.391524
0.461339 0.462608 0.457717
0.530075 0.526170 0.517471
0.395700 0.396710 0.395925
0.357495 0.358277 0.356355
0.475868 0.472238 0.469575
0.460887 0.462220 0.463001
0.431513 0.433658 0.432348
0.452892 0.452710 0.451095
0.392389 0.393955 0.389230
0.516610 0.538528 0.546936
0.460203 0.458942 0.455140
0.406052 0.404998 0.408685
0.363088 0.364571 0.366192
0.388911 0.387203 0.385181
0.374816 0.363500 0.363051
0.446235 0.447304 0.444195
0.380243 0.381357 0.382679
0.460343 0.460161 0.460576
0.365558 0.372928 0.374841
0.368421 0.368152 0.367027
0.422520 0.420944 0.423202
0.421609 0.419881 0.421182
0.430711 0.431696 0.427660
0.427381 0.429000 0.427271
0.489968 0.488269 0.488117
0.347511 0.349372 0.350258
0.432162 0.432652 0.431455
0.349815 0.350367 0.350031
0.456420 0.453800 0.453273
0.433774 0.423072 0.421801
0.373942 0.379702 0.375264
0.444084 0.448187 0.445308
0.474582 0.475530 0.472285
0.458227 0.458762 0.456581
0.359675 0.357214 0.356241
0.357531 0.357508 0.357462
0.348842 0.349212 0.349587
0.359337 0.357387 0.356379
0.454762 0.454331 0.455210
0.352708 0.346979 0.344286
0.417696 0.415444 0.415649
0.442486 0.441526 0.440628
0.419382 0.418321 0.423796
0.482492 0.471920 0.472125
0.404784 0.408327 0.412465
0.542217 0.540549 0.538203
0.425290 0.420854 0.413870
0.483626 0.486095 0.486881
0.362058 0.365380 0.365882
0.435681 0.436968 0.437970
0.475518 0.471909 0.460566
0.369836 0.365667 0.365313
0.410997 0.414014 0.419588
0.462911 0.463102 0.463328
0.492584 0.487840 0.494550
0.484718 0.485993 0.480237
0.482949 0.465803 0.466585
0.383298 0.381426 0.381321
0.407007 0.401752 0.402686
0.399393 0.407792 0.407234
0.460704 0.459210 0.459159
0.468140 0.470799 0.471230
0.411618 0.409067 0.409601
0.415494 0.415744 0.417150
0.488382 0.489257 0.493889
0.468574 0.464186 0.460305
0.508883 0.503394 0.487440
0.355559 0.355590 0.355326
0.375326 0.375627 0.374485
0.427224 0.424857 0.424730
0.405121 0.407964 0.406861
0.404768 0.403472 0.402464
0.449221 0.449858 0.450591
0.493136 0.497107 0.496073
0.375242 0.374766 0.375777
0.376784 0.378033 0.380435
0.471655 0.470906 0.469167
0.429940 0.428997 0.429600
0.473824 0.474394 0.470981
0.415146 0.416486 0.417059
0.392985 0.392122 0.392385
0.390806 0.395178 0.387700
0.424365 0.423132 0.424406
0.386227 0.388396 0.385193
0.358965 0.362716 0.370913
0.357347 0.355970 0.352460
0.388384 0.393857 0.394016
0.404051 0.400610 0.399094
0.407415 0.406134 0.402975
0.348444 0.347026 0.347277
0.374189 0.371513 0.370076
0.395996 0.397437 0.395161
0.387782 0.387758 0.385147
0.427887 0.426290 0.424492
0.491030 0.490327 0.489737
0.430275 0.420282 0.422102
0.372270 0.375721 0.376897
0.473528 0.472028 0.470793
0.447428 0.444467 0.449393
0.387747 0.383799 0.385789
0.427134 0.434248 0.431615
0.417622 0.419812 0.417625
0.450075 0.447805 0.444971
0.410564 0.411687 0.413155
0.455296 0.460516 0.458813
0.421596 0.425768 0.428012
0.469252 0.471087 0.464035
0.409069 0.404003 0.404431
0.375221 0.369011 0.369083
0.408475 0.407255 0.404037
0.402353 0.396799 0.395419
0.384033 0.385729 0.386759
0.386731 0.386523 0.387985
0.470959 0.471241 0.471558
0.402991 0.403324 0.402953
0.475680 0.474389 0.470185
0.369145 0.372327 0.372507
0.381446 0.377722 0.373526
0.383873 0.383101 0.387560
0.355850 0.356171 0.356546
0.434945 0.435213 0.435352
0.528753 0.526768 0.527275
0.445213 0.458557 0.464758
0.426723 0.431638 0.431212
0.381408 0.381233 0.381756
0.529191 0.534046 0.531495
0.478399 0.477985 0.478968
0.475793 0.475586 0.465922
0.455484 0.457646 0.456164
0.516919 0.517062 0.517593
0.429536 0.428547 0.428110
0.484987 0.482923 0.482875
0.470800 0.473030 0.473310
0.406075 0.407696 0.412835
0.352671 0.352715 0.351684
0.457370 0.459288 0.455340
0.393947 0.398040 0.400370
0.387023 0.386506 0.384508
0.377337 0.378815 0.375372
0.455485 0.455974 0.453446
0.391080 0.391719 0.390757
0.434052 0.430701 0.429719
0.436824 0.434847 0.431844
0.382334 0.378855 0.379980
0.450355 0.456599 0.456519
0.430154 0.431975 0.428336
0.432559 0.431026 0.430632
0.357633 0.357254 0.340027
0.425778 0.420801 0.418852
0.444588 0.445219 0.444957
0.351100 0.348762 0.346671
0.463478 0.463146 0.456680
0.455437 0.444483 0.442507
0.442691 0.432859 0.426920
0.482863 0.483419 0.482312
0.381781 0.381674 0.379039
0.511216 0.505802 0.499951
0.447206 0.442616 0.442555
0.355271 0.355125 0.355427
0.431452 0.431912 0.426378
0.400259 0.403396 0.404359
0.400819 0.397793 0.396523
0.415108 0.410136 0.403151
0.474556 0.474757 0.479812
0.496772 0.497338 0.494272
0.442824 0.441828 0.440960
0.374605 0.375219 0.365812
0.465845 0.465177 0.464831
0.408570 0.407527 0.403383
0.442869 0.443902 0.440297
0.465625 0.472711 0.480130
0.395059 0.397595 0.391438
0.398815 0.394940 0.395059
0.443227 0.443730 0.439108
0.473644 0.466085 0.464768
0.482626 0.489816 0.490113
0.371765 0.371207 0.367539
0.421067 0.417688 0.408387
0.409852 0.409599 0.408905
0.432064 0.430324 0.430989
0.375678 0.375114 0.375630
0.487840 0.494550 0.498569
0.461697 0.461454 0.458133
0.429362 0.424868 0.411741
0.455068 0.459687 0.466885
0.529186 0.531574 0.530998
0.471815 0.471377 0.475546
0.385922 0.385946 0.387474
0.387495 0.387692 0.386874
0.439871 0.439928 0.441203
0.463037 0.461738 0.458213
0.405204 0.402747 0.398636
0.407102 0.407253 0.408678
0.350763 0.352886 0.356130
0.371337 0.370986 0.369736
0.405482 0.407007 0.401752
0.405207 0.404464 0.404202
0.384388 0.382771 0.381102
0.447631 0.446282 0.444353
0.468018 0.470464 0.470701
0.379930 0.380297 0.379532
0.410149 0.407701 0.403996
0.455882 0.456538 0.458089
0.314102 0.312957 0.312876
0.411610 0.413913 0.418032
0.478743 0.480701 0.479175
0.413257 0.415775 0.436319
0.450503 0.449266 0.448153
0.364194 0.365949 0.373607
0.421589 0.422541 0.426948
0.523547 0.521915 0.523141
0.357813 0.358455 0.357696
0.378132 0.380273 0.381570
0.410327 0.409932 0.410924
0.393183 0.393727 0.395277
0.371712 0.369431 0.371122
0.526283 0.525384 0.525454
0.497454 0.496745 0.498749
0.416476 0.413183 0.412670
0.391234 0.394973 0.393832
0.474183 0.477259 0.468695
0.360795 0.361523 0.361652
0.434483 0.435015 0.431552
0.414671 0.405494 0.400390
0.337240 0.335175 0.339457
0.400331 0.403155 0.393616
0.435564 0.433773 0.432029
0.387971 0.387641 0.387126
0.371158 0.368722 0.367079
0.421895 0.416686 0.408723
0.409599 0.410729 0.411721
0.477740 0.483572 0.486813
0.392075 0.394940 0.395200
0.448039 0.451943 0.452875
0.417625 0.416975 0.415265
0.405485 0.406323 0.404084
0.453988 0.458803 0.458581
0.430753 0.430162 0.428576
0.444732 0.443954 0.443751
0.407052 0.413867 0.415238
0.401691 0.401862 0.406258
0.441662 0.445206 0.446533
0.377230 0.380427 0.387302
0.390497 0.396439 0.399129
0.451391 0.450025 0.447908
0.492184 0.490576 0.493138
0.405053 0.406914 0.403761
0.427044 0.423824 0.420933
0.484406 0.485223 0.483379
0.397270 0.397864 0.396735
0.409634 0.403561 0.398191
0.448060 0.451664 0.453178
0.399938 0.399270 0.397188
0.411622 0.412458 0.414365
0.479465 0.478734 0.480202
0.393648 0.394043 0.393909
0.464290 0.464245 0.461277
0.396000 0.396631 0.395310
0.415268 0.434348 0.435247
0.421273 0.420793 0.419990
0.466176 0.469633 0.471108
0.349526 0.351340 0.347233
0.417486 0.417750 0.415856
0.429181 0.430813 0.432544
0.411047 0.410425 0.409709
0.460250 0.458927 0.451223
0.368932 0.367851 0.366747
0.410019 0.410635 0.410066
0.402645 0.402931 0.415079
0.473382 0.474815 0.476032
0.420322 0.420978 0.422041
0.360604 0.358993 0.357813
0.399444 0.400986 0.399307
0.345030 0.343412 0.336783
0.429074 0.429393 0.424167
0.397492 0.400415 0.397328
0.442193 0.444235 0.445590
0.388072 0.388580 0.387600
0.324743 0.324179 0.324254
0.376703 0.374907 0.377461
0.582112 0.580060 0.573579
0.397350 0.399154 0.399727
0.462874 0.462831 0.456954
0.399862 0.400009 0.399317
0.433374 0.432296 0.430518
0.377966 0.381667 0.381038
0.386955 0.387286 0.386760
0.440602 0.440515 0.438244
0.431459 0.430830 0.430993
0.376747 0.375771 0.374884
0.397016 0.396389 0.396244
0.451499 0.455670 0.457607
0.387729 0.388199 0.387122
0.423541 0.422474 0.422067
0.396095 0.397602 0.390530
0.342268 0.345169 0.348131
0.477902 0.475877 0.474947
0.357425 0.358066 0.351284
0.391857 0.392888 0.394933
0.453800 0.453273 0.459004
0.380281 0.380206 0.377954
0.415987 0.404559 0.403664
0.357813 0.360964 0.362302
0.369272 0.358528 0.359396
0.351913 0.351348 0.352324
0.513817 0.511593 0.509865
0.376269 0.378340 0.377477
0.409655 0.425026 0.422856
0.367711 0.366215 0.358843
0.362333 0.363213 0.363605
0.409552 0.411335 0.411128
0.485536 0.486622 0.481571
0.419539 0.419879 0.420192
0.433804 0.435630 0.435787
0.477339 0.474199 0.474793
0.505710 0.505740 0.502816
0.428923 0.429765 0.431463
0.328461 0.325853 0.321901
0.424319 0.422759 0.422818
0.391717 0.392020 0.391346
0.385800 0.386285 0.387810
0.475481 0.478895 0.474705
0.359573 0.363441 0.367474
0.399336 0.396967 0.396091
0.436185 0.436358 0.434753
0.369576 0.369168 0.367551
0.390995 0.392161 0.398052
0.359533 0.360132 0.360016
0.389978 0.389905 0.390375
0.359298 0.357509 0.357349
0.383992 0.386016 0.388117
0.446034 0.445733 0.443593
0.478871 0.477983 0.474339
0.395384 0.397603 0.396226
0.386960 0.388573 0.385475
0.389856 0.394949 0.395168
0.428396 0.427986 0.428244
0.439322 0.444303 0.445180
0.380849 0.389472 0.387504
0.438043 0.443994 0.449559
0.459615 0.458302 0.461450
0.424474 0.421103 0.421099
0.321091 0.323592 0.327360
0.356697 0.352915 0.355617
0.444759 0.443781 0.443312
0.384093 0.384781 0.382342
0.367217 0.366976 0.368809
0.421175 0.421374 0.421675
0.417205 0.416784 0.416274
0.416439 0.414503 0.409064
0.368142 0.373626 0.375307
0.381431 0.384785 0.388598
0.414028 0.415358 0.412144
0.459657 0.457932 0.454375
0.389642 0.390122 0.390896
0.317343 0.331972 0.339130
0.442922 0.443804 0.450649
0.510781 0.505718 0.504860
0.447228 0.449550 0.445703
0.417473 0.418783 0.419952
0.434787 0.434244 0.433762
0.427194 0.430666 0.429931
0.387379 0.386539 0.384439
0.384439 0.389831 0.392907
0.403408 0.406261 0.405618
0.372208 0.372750 0.378457
0.319416 0.316842 0.317742
0.378095 0.382510 0.394130
0.380080 0.379999 0.383029
0.422930 0.427734 0.426833
0.359068 0.358678 0.357396
0.420576 0.421915 0.420789
0.467336 0.464014 0.458384
0.350203 0.348639 0.354819
0.405609 0.405407 0.407049
0.422820 0.426613 0.430359
0.416871 0.422383 0.416692
0.478746 0.473598 0.471240
0.417895 0.414395 0.415547
0.403501 0.400777 0.403173
0.357736 0.358662 0.356426
0.392181 0.394210 0.393194
0.415263 0.415942 0.416512
0.502007 0.497404 0.496489
0.351117 0.357916 0.360960
0.429099 0.432258 0.432141
0.403633 0.403780 0.396852
0.480681 0.471686 0.468442
0.320844 0.322068 0.321099
0.450588 0.451894 0.452148
0.401480 0.406345 0.407762
0.384065 0.379564 0.376539
0.408888 0.408766 0.407038
0.386899 0.387056 0.386617
0.494037 0.500415 0.497662
0.431390 0.430137 0.431551
0.404751 0.405817 0.404909
0.378560 0.382441 0.388589
0.485532 0.485791 0.486901
0.502772 0.499645 0.498838
0.440412 0.440242 0.441370
0.413399 0.412378 0.414586
0.375346 0.377128 0.376056
0.420854 0.423314 0.425198
0.355612 0.357264 0.357781
0.390876 0.393664 0.398480
0.387729 0.387308 0.388860
0.404072 0.405452 0.406486
0.384288 0.378933 0.380713
0.424297 0.426639 0.427647
0.406009 0.404587 0.398391
0.495806 0.496569 0.498320
0.469172 0.471836 0.471571
0.386593 0.386095 0.384867
0.362334 0.359605 0.361801
0.430666 0.429931 0.431427
0.388804 0.389004 0.387318
0.393019 0.392304 0.394304
0.443818 0.444643 0.446055
0.518044 0.516654 0.513939
0.371693 0.374760 0.375461
0.475617 0.476032 0.478446
0.349439 0.350363 0.351113
0.387887 0.387730 0.390760
0.402703 0.403897 0.401893
0.516050 0.515283 0.512347
0.407939 0.406403 0.407270
0.413948 0.413082 0.412994
0.432087 0.431511 0.440272
0.422664 0.434346 0.441701
0.365163 0.363832 0.359183
0.443299 0.445566 0.446525
0.361829 0.360463 0.355041
0.533634 0.530075 0.526170
0.425373 0.427337 0.427263
0.434724 0.435781 0.434066
0.412352 0.411286 0.408920
0.507075 0.509043 0.512912
0.318823 0.319163 0.318029
0.416054 0.419743 0.425244
0.357667 0.358258 0.360677
0.484102 0.485275 0.483202
0.426988 0.431658 0.426137
0.435251 0.433415 0.429824
0.448113 0.447890 0.447275
0.485791 0.486901 0.496539
0.391002 0.396314 0.400827
0.392989 0.393164 0.388888
0.426479 0.427046 0.417652
0.384602 0.378013 0.369012
0.396295 0.396062 0.398143
0.477631 0.477306 0.479310
0.431979 0.434875 0.438890
0.462846 0.455670 0.455409
0.460813 0.463950 0.464212
0.520324 0.516484 0.516350
0.385977 0.397398 0.399181
0.417230 0.418401 0.429562
0.391670 0.392181 0.394210
0.428615 0.429222 0.429515
0.387597 0.389616 0.390238
0.405997 0.412139 0.419796
0.375981 0.376962 0.371759
0.464961 0.466874 0.466707
0.428061 0.436787 0.434856
0.392373 0.392835 0.396667
0.373732 0.371092 0.376289
0.415624 0.409921 0.407629
0.467302 0.467899 0.466738
0.361805 0.364133 0.362182
0.435368 0.435093 0.432386
0.384913 0.388804 0.389004
0.421734 0.421975 0.423299
0.393480 0.398201 0.399692
0.384936 0.382908 0.387697
0.435468 0.437056 0.437237
0.429866 0.426064 0.429627
0.529226 0.530559 0.532115
0.516235 0.519677 0.519999
0.404173 0.404695 0.406105
0.464533 0.459853 0.459183
0.454781 0.456583 0.457922
0.497961 0.497669 0.498546
0.374430 0.375890 0.374467
0.397350 0.393664 0.388928
0.471087 0.464035 0.449868
0.433018 0.437488 0.437419
0.356456 0.356594 0.358446
0.445180 0.448048 0.451291
0.429722 0.431650 0.431755
0.384260 0.386826 0.389850
0.424937 0.425419 0.426115
0.536375 0.534409 0.537203
0.413212 0.414501 0.408362
0.375857 0.370703 0.371087
0.421050 0.421821 0.419301
0.378416 0.373440 0.376890
0.437775 0.440454 0.440832
0.337789 0.338993 0.338069
0.464697 0.461703 0.468604
0.484349 0.484369 0.483803
0.330500 0.334236 0.336765
0.367683 0.365407 0.365558
0.436417 0.434007 0.432303
0.415816 0.421579 0.421392
0.362865 0.366695 0.383391
0.420453 0.419438 0.415891
0.389341 0.387108 0.383721
0.383315 0.394659 0.400271
0.469200 0.470580 0.480225
0.433723 0.422908 0.421910
0.372507 0.373687 0.371700
0.421370 0.423115 0.425827
0.352609 0.356529 0.355518
0.452764 0.452183 0.448819
0.619186 0.619735 0.620045
0.367375 0.368674 0.368895
0.513435 0.516875 0.519136
0.385869 0.385255 0.389343
0.428948 0.428443 0.428190
0.374253 0.378515 0.379779
0.534358 0.537579 0.539951
0.421383 0.421144 0.422473
0.366703 0.368882 0.365519
0.333481 0.335062 0.332582
0.480817 0.480282 0.474030
0.336462 0.338006 0.339733
0.394912 0.395067 0.392758
0.346825 0.346375 0.346872
0.346973 0.347545 0.347848
0.376889 0.376927 0.374615
0.447632 0.451636 0.453556
0.392309 0.390651 0.392688
0.344108 0.344782 0.348912
0.417383 0.418559 0.417014
0.366425 0.367756 0.368554
0.454622 0.455375 0.452965
0.441885 0.439333 0.438017
0.434365 0.432750 0.427602
0.354276 0.355157 0.358011
0.433139 0.433437 0.431885
0.373101 0.372527 0.371529
0.452002 0.451867 0.449799
0.352582 0.356542 0.355583
0.387041 0.388041 0.382441
0.432859 0.426920 0.423660
0.448876 0.452861 0.449893
0.470489 0.470401 0.467086
0.475175 0.477996 0.478212
0.337624 0.334322 0.331468
0.367191 0.366365 0.366842
0.454554 0.455875 0.456480
0.658961 0.659764 0.660594
0.431223 0.430187 0.430070
0.430008 0.431573 0.431084
0.478963 0.476592 0.476603
0.436483 0.433428 0.421809
0.423632 0.425890 0.435147
0.379116 0.378413 0.378608
0.480550 0.481542 0.480115
0.375759 0.371338 0.371598
0.374879 0.372583 0.372642
0.375307 0.376678 0.376258
0.456595 0.455852 0.450489
0.460922 0.457739 0.462527
0.480062 0.479959 0.485291
0.384669 0.385258 0.382092
0.366266 0.366502 0.363620
0.387018 0.382416 0.381082
0.439484 0.441385 0.442042
0.395246 0.397480 0.396464
0.399633 0.399403 0.400752
0.356615 0.360580 0.360569
0.502446 0.502837 0.509882
0.394844 0.394052 0.391323
0.438155 0.440735 0.441098
0.322653 0.328185 0.333102
0.427200 0.430178 0.429816
0.414465 0.415744 0.416851
0.390762 0.387502 0.388339
0.399707 0.391774 0.392837
0.368542 0.369312 0.369932
0.430291 0.429246 0.427796
0.434551 0.436708 0.435564
0.424758 0.430501 0.434173
0.454105 0.454427 0.455019
0.356370 0.356226 0.356275
0.432762 0.432068 0.426570
0.407756 0.413592 0.412259
0.365290 0.367662 0.369161
0.386922 0.390327 0.392345
0.428212 0.428728 0.428090
0.407610 0.406848 0.412624
0.530883 0.533641 0.530433
0.350935 0.354659 0.355187
0.461454 0.458133 0.458658
0.371602 0.371363 0.374691
0.437075 0.441447 0.442159
0.461120 0.460740 0.457821
0.408278 0.412242 0.413082
0.407174 0.409807 0.414889
0.381078 0.384137 0.389405
0.429522 0.423868 0.420124
0.511245 0.512780 0.511853
0.413965 0.420804 0.420310
0.381010 0.381644 0.384172
0.653134 0.654428 0.656780
0.404112 0.411262 0.432514
0.420366 0.420685 0.420620
0.381836 0.381120 0.381237
0.397220 0.399039 0.398900
0.511371 0.514194 0.522066
0.431930 0.433003 0.433281
0.415243 0.408331 0.405854
0.328245 0.330108 0.328564
0.373161 0.371702 0.370149
0.400735 0.404003 0.404108
0.472312 0.470699 0.468193
0.479378 0.479493 0.478886
0.387422 0.384666 0.391405
0.455466 0.450976 0.449679
0.510872 0.515646 0.513334
0.388966 0.389284 0.388586
0.343621 0.342261 0.352870
0.531896 0.536244 0.538800
0.423923 0.432557 0.435528
0.386799 0.382321 0.379399
0.354803 0.355707 0.354971
0.367689 0.370288 0.370768
0.391738 0.393421 0.395936
0.663112 0.666401 0.668341
0.436988 0.437263 0.437343
0.422758 0.422436 0.420071
0.380195 0.379263 0.379447
0.404338 0.403764 0.404597
0.448779 0.450403 0.450568
0.364877 0.364773 0.358241
0.376859 0.376487 0.373004
0.426382 0.425072 0.428804
0.329690 0.330000 0.330859
0.424796 0.430197 0.426789
0.438191 0.437285 0.439157
0.382643 0.380160 0.385046
0.387215 0.388297 0.387246
0.396817 0.399781 0.399126
0.352200 0.352033 0.350707
0.425738 0.420173 0.416874
0.345769 0.344370 0.345372
0.442869 0.444616 0.451173
0.652358 0.657156 0.657775
0.363291 0.364039 0.363859
0.437582 0.435913 0.433913
0.390822 0.387064 0.385727
0.436543 0.429920 0.427812
0.408444 0.406706 0.403221
0.361556 0.361667 0.359430
0.438384 0.438357 0.436632
0.372659 0.377671 0.381330
0.392106 0.393088 0.393702
0.371768 0.363639 0.362635
0.395585 0.392001 0.390079
0.413904 0.413257 0.415775
0.375016 0.376707 0.374351
0.471731 0.470209 0.470359
0.384847 0.384117 0.385995
0.380846 0.378620 0.380394
0.439890 0.446333 0.444470
0.368360 0.368290 0.367772
0.433766 0.434342 0.435910
0.429219 0.428666 0.421426
0.369761 0.370993 0.371665
0.490770 0.487652 0.489587
0.467894 0.469041 0.474397
0.433713 0.434178 0.429946
0.464663 0.467442 0.476169
0.482067 0.480731 0.465627
0.329483 0.329009 0.327304
0.417665 0.421382 0.422758
0.455055 0.455736 0.451810
0.433930 0.445385 0.449203
0.484300 0.484841 0.483702
0.386601 0.386426 0.386456
0.381350 0.383356 0.382874
0.366976 0.368809 0.361533
0.390712 0.387504 0.388940
0.387730 0.390760 0.390233
0.383371 0.382264 0.383050
0.383336 0.384753 0.384427
0.444492 0.444426 0.450064
0.420235 0.419432 0.419090
0.316827 0.314897 0.316395
0.434771 0.430942 0.431441
0.483127 0.479037 0.474174
0.407847 0.409338 0.402915
0.383649 0.378308 0.373493
0.375408 0.375163 0.371888
0.660462 0.654168 0.653920
0.327537 0.322326 0.317750
0.430563 0.429885 0.433672
0.422479 0.421597 0.421207
0.380849 0.387024 0.388902
0.470648 0.465600 0.464138
0.355013 0.359046 0.359268
0.418021 0.417414 0.417196
0.419978 0.420767 0.418627
0.412692 0.412201 0.410004
0.419066 0.416250 0.415732
0.497782 0.496697 0.498541
0.374484 0.371291 0.370765
0.529172 0.529724 0.530876
0.406950 0.406553 0.406019
0.507930 0.511975 0.514771
0.417558 0.418550 0.418267
0.398699 0.393933 0.391785
0.499593 0.500084 0.501135
0.443472 0.436083 0.427916
0.459082 0.457773 0.459653
0.420331 0.419466 0.420844
0.353760 0.354896 0.355529
0.415234 0.414309 0.415419
0.427248 0.428582 0.431694
0.430384 0.425687 0.424110
0.507181 0.538372 0.545797
0.420100 0.422248 0.436620
0.409036 0.407427 0.406561
0.482148 0.484302 0.475959
0.418122 0.418317 0.419307
0.356189 0.354626 0.356084
0.417163 0.411416 0.408663
0.432103 0.425720 0.420437
0.442310 0.438895 0.433090
0.371670 0.369268 0.368239
0.387875 0.389945 0.389701
0.423735 0.423860 0.424377
0.455729 0.449615 0.448914
0.465373 0.464680 0.464912
0.488081 0.489052 0.485322
0.421802 0.422564 0.421654
0.414233 0.408969 0.406470
0.508524 0.508415 0.508773
0.383686 0.382184 0.381056
0.544611 0.541659 0.537454
0.381426 0.381321 0.379409
0.435518 0.436319 0.438322
0.345053 0.344681 0.345959
0.382363 0.382345 0.385264
0.386724 0.392151 0.390302
0.446522 0.451768 0.458752
0.328978 0.331446 0.331137
0.418553 0.419435 0.427615
0.414311 0.412451 0.413820
0.422248 0.436620 0.436372
0.335685 0.336182 0.337613
0.436567 0.433652 0.432942
0.438873 0.440165 0.429391
0.481055 0.483095 0.481414
0.387649 0.389474 0.388677
0.385103 0.384798 0.386155
0.325784 0.324650 0.324311
0.458828 0.462452 0.460253
0.331221 0.330012 0.331627
0.477684 0.478779 0.478165
0.410414 0.414882 0.421485
0.446537 0.447094 0.448079
0.371751 0.374095 0.376238
0.355692 0.367060 0.370607
0.433106 0.432708 0.424456
0.443437 0.442075 0.441638
0.448574 0.441667 0.438378
0.368036 0.366981 0.367981
0.522823 0.524792 0.522365
0.493860 0.483034 0.480385
0.439639 0.440547 0.442517
0.413169 0.418763 0.416855
0.425336 0.424848 0.427062
0.462221 0.461679 0.463092
0.468232 0.464792 0.462921
0.417813 0.409195 0.407344
0.518394 0.519023 0.518604
0.432167 0.433880 0.433629
0.351547 0.352899 0.352936
0.431467 0.432184 0.430743
0.481212 0.481299 0.483883
0.380954 0.381813 0.381472
0.408490 0.409463 0.417374
0.427175 0.425599 0.425528
0.412846 0.414190 0.412924
0.440126 0.440738 0.443695
0.400449 0.400348 0.400410
0.534508 0.532197 0.530840
0.434487 0.436816 0.436443
0.403215 0.403891 0.402187
0.488565 0.484612 0.481182
0.400929 0.402416 0.397219
0.384854 0.392956 0.395267
0.477973 0.477650 0.484869
0.458934 0.448155 0.444795
0.420408 0.416641 0.417337
0.396032 0.397398 0.397126
0.496377 0.497126 0.497890
0.457017 0.448668 0.447263
0.458364 0.460070 0.464363
0.440963 0.438284 0.440136
0.412352 0.411304 0.410620
0.462054 0.466706 0.468113
0.509581 0.510765 0.500654
0.416446 0.414567 0.417272
0.406280 0.410075 0.407713
0.430282 0.429174 0.428643
0.354530 0.355768 0.359006
0.429358 0.428053 0.423850
0.409728 0.409301 0.416536
0.415643 0.415573 0.419832
0.364306 0.360843 0.360315
0.330330 0.329759 0.328302
0.435248 0.433374 0.432296
0.330828 0.336968 0.335793
0.437045 0.443994 0.443889
0.360778 0.359088 0.362083
0.448955 0.446810 0.447993
0.410431 0.410547 0.409683
0.437768 0.436213 0.434891
0.357536 0.344897 0.339714
0.412180 0.414629 0.420273
0.391620 0.387486 0.393875
0.396884 0.393787 0.393551
0.479596 0.478091 0.476911
0.378342 0.382116 0.384821
0.450594 0.450648 0.451814
