0.233272 0.232853 0.232460
0.209444 0.206915 0.207105
0.221615 0.221579 0.220895
0.243770 0.245397 0.246799
0.290878 0.288618 0.289792
0.236656 0.236735 0.237158
0.239653 0.239609 0.235016
0.201548 0.213277 0.216610
0.260468 0.258793 0.258341
0.233137 0.225924 0.225524
0.329713 0.329134 0.329013
0.193639 0.193196 0.191385
0.170289 0.169994 0.170592
0.209066 0.209172 0.205339
0.217220 0.214251 0.215255
0.225008 0.224732 0.228447
0.190282 0.193008 0.194515
0.243837 0.244630 0.243320
0.182007 0.186044 0.186249
0.145741 0.145475 0.145284
0.246514 0.246553 0.244463
0.244734 0.245394 0.242526
0.252828 0.252837 0.252984
0.258365 0.258799 0.262388
0.253793 0.254449 0.255390
0.269494 0.270650 0.272193
0.237679 0.240720 0.241792
0.203022 0.201754 0.201732
0.156506 0.153837 0.160302
0.252666 0.252210 0.251793
0.244901 0.245375 0.242207
0.191360 0.189999 0.189629
0.172266 0.172666 0.173855
0.208772 0.208619 0.208556
0.207569 0.208024 0.208743
0.271925 0.273148 0.273161
0.233095 0.233385 0.233052
0.237389 0.236622 0.238292
0.160357 0.158890 0.158445
0.205140 0.206165 0.206062
0.233411 0.233859 0.233346
0.222125 0.222910 0.222514
0.252989 0.253255 0.250461
0.219278 0.219537 0.219562
0.213111 0.213521 0.214567
0.183735 0.183718 0.183945
0.223658 0.205400 0.204573
0.236700 0.237191 0.234831
0.230509 0.230381 0.234952
0.190817 0.190279 0.189322
0.305338 0.305207 0.306246
0.179077 0.188417 0.184815
0.152269 0.152418 0.152931
0.209782 0.208511 0.208546
0.202182 0.200904 0.200700
0.288374 0.285374 0.282267
0.266077 0.267005 0.266291
0.241800 0.241908 0.246837
0.221610 0.223322 0.223225
0.157299 0.158179 0.159748
0.264444 0.265493 0.269953
0.223481 0.224115 0.228156
0.157552 0.157391 0.157141
0.259554 0.259855 0.260567
0.286761 0.292766 0.293269
0.222490 0.222188 0.222270
0.197118 0.198631 0.210547
0.209508 0.210784 0.211216
0.260289 0.259657 0.250857
0.222918 0.224809 0.224049
0.221794 0.220981 0.222310
0.169427 0.169187 0.169236
0.230453 0.230986 0.230977
0.201121 0.200288 0.200122
0.240725 0.242564 0.243527
0.218590 0.217672 0.217609
0.239006 0.237320 0.241716
0.253919 0.252522 0.251790
0.204965 0.203488 0.203739
0.194321 0.195854 0.194423
0.265074 0.265203 0.262509
0.241347 0.241057 0.243228
0.234845 0.246132 0.256673
0.177910 0.177530 0.178030
0.237401 0.236866 0.238287
0.217576 0.219566 0.220465
0.225683 0.223093 0.221011
0.287405 0.287523 0.287797
0.220804 0.223644 0.220325
0.225303 0.225008 0.224732
0.248004 0.249283 0.250955
0.233795 0.233033 0.232693
0.234546 0.236856 0.243525
0.223072 0.222529 0.221933
0.175393 0.175699 0.176770
0.155561 0.158665 0.158353
0.226444 0.226638 0.226486
0.214070 0.213834 0.215308
0.184172 0.187443 0.188140
0.290672 0.276195 0.270063
0.189091 0.189518 0.187544
0.239183 0.240868 0.241496
0.216356 0.218234 0.218195
0.217604 0.217674 0.217974
0.283015 0.296811 0.303938
0.325184 0.325764 0.330545
0.240808 0.241312 0.247315
0.224263 0.224589 0.225160
0.215113 0.217123 0.216220
0.211183 0.211635 0.215265
0.310804 0.311408 0.312402
0.232806 0.232743 0.230260
0.260752 0.262760 0.263371
0.189779 0.188314 0.185049
0.217893 0.217507 0.217558
0.246437 0.244859 0.242840
0.197025 0.196645 0.197606
0.239742 0.239682 0.239766
0.164953 0.167135 0.167231
0.174158 0.173867 0.172294
0.276230 0.278353 0.279081
0.196343 0.196286 0.196134
0.310916 0.312168 0.311082
0.159551 0.160506 0.160699
0.182908 0.183491 0.186811
0.233526 0.231517 0.231602
0.179881 0.180284 0.180620
0.251960 0.261008 0.262119
0.280925 0.278781 0.282726
0.244851 0.245633 0.245944
0.276266 0.276159 0.276741
0.261539 0.262238 0.263046
0.317963 0.319384 0.320864
0.152993 0.153097 0.153956
0.191230 0.192347 0.194481
0.230079 0.230203 0.229638
0.274578 0.275419 0.275084
0.295284 0.294598 0.292335
0.205147 0.204919 0.205060
0.319362 0.324119 0.324831
0.271693 0.274804 0.275553
0.248438 0.246526 0.246771
0.215558 0.210925 0.209811
0.229821 0.229885 0.230479
0.324119 0.324831 0.322804
0.191280 0.191121 0.191446
0.279410 0.279247 0.279267
0.238024 0.237322 0.237065
0.193405 0.187668 0.190199
0.288011 0.288029 0.284585
0.250711 0.241616 0.241434
0.261618 0.261865 0.260783
0.246040 0.247794 0.247459
0.254756 0.252133 0.250055
0.244355 0.246111 0.249872
0.158740 0.162569 0.162228
0.203194 0.203786 0.206920
0.280432 0.279497 0.276602
0.228428 0.223778 0.224320
0.241403 0.241315 0.241319
0.226730 0.228042 0.227209
0.247892 0.245283 0.242958
0.191759 0.191135 0.190915
0.157967 0.165698 0.165544
0.230667 0.230663 0.230296
0.242765 0.240701 0.239181
0.227748 0.228664 0.230150
0.170219 0.170308 0.170345
0.258853 0.258350 0.256301
0.252462 0.253300 0.257168
0.149234 0.152051 0.152211
0.211166 0.214149 0.215234
0.186306 0.186034 0.185303
0.214532 0.215139 0.217244
0.240975 0.240468 0.243478
0.203812 0.202405 0.201318
0.240438 0.239154 0.239380
0.238985 0.236927 0.228634
0.186058 0.186428 0.188188
0.209323 0.210229 0.211978
0.253302 0.253587 0.254528
0.230537 0.231280 0.234602
0.227770 0.216350 0.215160
0.242583 0.240910 0.239440
0.248790 0.247817 0.245909
0.221787 0.220800 0.220309
0.191761 0.191747 0.191662
0.212568 0.210833 0.210325
0.221536 0.221585 0.220694
0.249611 0.249745 0.249376
0.224231 0.223648 0.220718
0.262031 0.261814 0.261652
0.189250 0.188761 0.188851
0.243684 0.242786 0.243026
0.188124 0.186591 0.189778
0.148568 0.146558 0.146229
0.245187 0.246942 0.248431
0.223864 0.221674 0.222375
0.202915 0.204080 0.204122
0.344662 0.345131 0.346035
0.224928 0.224738 0.223765
0.183008 0.183793 0.186257
0.229116 0.229089 0.228909
0.245733 0.244170 0.239363
0.256683 0.259181 0.259363
0.232974 0.231947 0.230793
0.235326 0.236325 0.236984
0.219865 0.220595 0.223098
0.210064 0.210350 0.212447
0.223696 0.219239 0.217860
0.238626 0.238227 0.239547
0.331981 0.333321 0.334756
0.247483 0.243816 0.242590
0.251653 0.252423 0.252989
0.217509 0.218645 0.220692
0.155365 0.152499 0.154144
0.177130 0.176557 0.176809
0.199092 0.197178 0.198224
0.234718 0.234378 0.235126
0.159435 0.159014 0.160609
0.191642 0.190347 0.187042
0.258497 0.256397 0.257031
0.242801 0.242664 0.242279
0.209913 0.210253 0.210644
0.266131 0.265198 0.257809
0.224352 0.223983 0.225516
0.210176 0.211455 0.211646
0.250166 0.238723 0.236048
0.144332 0.145117 0.147387
0.236137 0.235903 0.235067
0.287906 0.287789 0.287054
0.145037 0.145121 0.145661
0.243015 0.242801 0.241623
0.230439 0.228827 0.228430
0.146124 0.151312 0.151342
0.238828 0.239138 0.236602
0.235279 0.235609 0.229275
0.197350 0.196987 0.197248
0.215279 0.214882 0.214876
0.249368 0.241527 0.243133
0.153984 0.154114 0.152586
0.182603 0.182402 0.184405
0.185577 0.185367 0.185213
0.227705 0.227502 0.228472
0.148405 0.148991 0.148116
0.225173 0.226183 0.229242
0.244689 0.244046 0.243175
0.236142 0.233623 0.234463
0.253824 0.247632 0.233282
0.194496 0.194144 0.193703
0.234120 0.236858 0.234470
0.235416 0.234705 0.235034
0.251369 0.252018 0.254498
0.255659 0.255804 0.254317
0.176961 0.176393 0.176851
0.309226 0.308854 0.308918
0.282306 0.290296 0.290494
0.253034 0.252752 0.251558
0.143199 0.143824 0.145653
0.273223 0.274974 0.275208
0.221942 0.224494 0.226348
0.203499 0.207993 0.209152
0.218883 0.219057 0.219390
0.172696 0.174101 0.174205
0.247423 0.248074 0.248269
0.226652 0.226084 0.212115
0.242518 0.242218 0.238617
0.249793 0.248580 0.247820
0.233053 0.233386 0.234242
0.177515 0.173398 0.162344
0.230032 0.230790 0.231314
0.156175 0.155566 0.155400
0.150892 0.150882 0.150465
0.233848 0.234746 0.235301
0.229998 0.231154 0.233742
0.242089 0.242541 0.239091
0.224426 0.226275 0.226596
0.247110 0.248291 0.250434
0.240701 0.239181 0.238802
0.253648 0.253690 0.257383
0.216018 0.215638 0.214936
0.251826 0.249210 0.247814
0.220339 0.228417 0.232036
0.309901 0.309917 0.309140
0.218784 0.218372 0.218207
0.235905 0.235013 0.234164
0.256479 0.255611 0.248315
0.305066 0.305470 0.308333
0.221441 0.222801 0.224442
0.171823 0.170479 0.170391
0.241064 0.239820 0.239955
0.235952 0.235766 0.236157
0.225665 0.225619 0.226687
0.200173 0.199289 0.199198
0.235015 0.234711 0.234080
0.279731 0.279587 0.277116
0.244159 0.245152 0.245118
0.280068 0.280607 0.280067
0.162225 0.162225 0.163481
0.215155 0.215447 0.217961
0.238866 0.238509 0.243214
0.213232 0.213585 0.217947
0.185667 0.186228 0.187194
0.147124 0.147273 0.149844
0.219976 0.226354 0.227309
0.244073 0.243222 0.241820
0.172967 0.155152 0.154889
0.179932 0.180467 0.182952
0.213651 0.213686 0.214050
0.282593 0.279226 0.285681
0.221414 0.219973 0.223890
0.159082 0.158818 0.158089
0.260092 0.260049 0.260047
0.252514 0.253030 0.254453
0.186249 0.186381 0.185070
0.226354 0.227309 0.228566
0.262984 0.265498 0.268743
0.209050 0.209865 0.211190
0.235208 0.235190 0.235096
0.225864 0.226009 0.224711
0.309404 0.311893 0.312478
0.162274 0.165086 0.165967
0.209322 0.209957 0.211980
0.145731 0.152809 0.152457
0.231662 0.234022 0.233955
0.265535 0.265579 0.266330
0.195323 0.195860 0.195569
0.229153 0.232200 0.232513
0.196123 0.195587 0.195677
0.235493 0.236711 0.238149
0.181487 0.181313 0.175606
0.274927 0.273653 0.273188
0.174497 0.174148 0.173553
0.244969 0.242014 0.237404
0.294093 0.303962 0.306273
0.232393 0.233305 0.231766
0.278932 0.278514 0.276252
0.252008 0.252665 0.252734
0.271065 0.271253 0.270725
0.233742 0.239283 0.240762
0.190758 0.192209 0.192837
0.186276 0.186606 0.188208
0.231290 0.225721 0.225035
0.212779 0.213603 0.214354
0.152878 0.153481 0.155770
0.266275 0.254883 0.256239
0.214474 0.215442 0.216295
0.184972 0.183607 0.185055
0.165306 0.164134 0.164699
0.223232 0.222120 0.219451
0.240855 0.241304 0.239543
0.190956 0.190662 0.190730
0.261473 0.268509 0.272676
0.244508 0.246640 0.250449
0.198978 0.198460 0.197563
0.234020 0.233364 0.231267
0.159151 0.159334 0.159191
0.145426 0.145404 0.145291
0.205968 0.205816 0.205581
0.253087 0.255170 0.254357
0.255090 0.253037 0.249517
0.229836 0.229402 0.229190
0.197191 0.198575 0.197866
0.177131 0.176970 0.176975
0.313905 0.319588 0.319826
0.142421 0.141392 0.141782
0.230906 0.231433 0.231637
0.253715 0.253086 0.250408
0.288383 0.288662 0.282593
0.248245 0.247432 0.246731
0.224062 0.225545 0.225675
0.345051 0.343348 0.345242
0.227373 0.230021 0.230746
0.222120 0.219451 0.219173
0.193392 0.195131 0.194920
0.200669 0.202295 0.200979
0.147140 0.149885 0.149293
0.190297 0.189039 0.188570
0.240929 0.240987 0.242176
0.169630 0.169374 0.169737
0.257661 0.257436 0.257113
0.245199 0.246040 0.247794
0.160888 0.161576 0.161789
0.270980 0.273820 0.274120
0.215569 0.217470 0.217105
0.241760 0.243035 0.244649
0.194323 0.194464 0.196971
0.234164 0.234167 0.233171
0.216479 0.216340 0.215820
0.212489 0.210559 0.210051
0.214241 0.211834 0.213381
0.242883 0.239641 0.238897
0.162387 0.162248 0.161948
0.233801 0.233137 0.225924
0.284188 0.283963 0.280514
0.205619 0.204394 0.200464
0.248782 0.248453 0.249509
0.186428 0.188188 0.188770
0.187971 0.186681 0.189764
0.243839 0.244304 0.244594
0.244386 0.244083 0.242982
0.182950 0.183298 0.184501
0.198510 0.198246 0.197158
0.227357 0.228993 0.228180
0.254768 0.255100 0.254572
0.286417 0.282108 0.275342
0.242179 0.242033 0.241710
0.271136 0.271136 0.275211
0.222048 0.223231 0.227026
0.278494 0.276804 0.277747
0.201221 0.201864 0.202076
0.175879 0.177521 0.177760
0.261213 0.261252 0.259216
0.224708 0.219065 0.214957
0.186202 0.186329 0.186280
0.263942 0.254633 0.253302
0.244068 0.242068 0.241771
0.270650 0.273478 0.274093
0.231626 0.230626 0.228388
0.256376 0.255662 0.254463
0.325479 0.327123 0.325352
0.200798 0.201229 0.201386
0.222876 0.223681 0.224253
0.209746 0.207641 0.208604
0.198422 0.197174 0.178115
0.275941 0.276211 0.275453
0.190797 0.192622 0.193579
0.209466 0.208816 0.208799
0.202056 0.201971 0.202193
0.240418 0.243365 0.243770
0.197083 0.196496 0.195814
0.181784 0.182158 0.181286
0.238594 0.238707 0.240789
0.312361 0.312330 0.305686
0.216327 0.216013 0.214634
0.162227 0.161972 0.162140
0.205735 0.209586 0.209214
0.271488 0.275489 0.270735
0.209593 0.208217 0.207119
0.191119 0.193249 0.191465
0.174205 0.174220 0.172183
0.230371 0.228621 0.228415
0.239520 0.239539 0.239139
0.198863 0.199579 0.199414
0.339567 0.338596 0.338001
0.266093 0.267326 0.268837
0.167340 0.167495 0.167320
0.269074 0.267801 0.268543
0.156191 0.156871 0.156877
0.271152 0.270989 0.270493
0.254399 0.267240 0.267086
0.213111 0.213467 0.214410
0.156514 0.161388 0.163911
0.181066 0.181063 0.182351
0.201087 0.200771 0.198385
0.184373 0.183069 0.183958
0.293035 0.295990 0.298974
0.223536 0.226608 0.229677
0.309589 0.307486 0.307033
0.180291 0.181251 0.181881
0.210505 0.211470 0.213670
0.197225 0.196471 0.196231
0.306939 0.302200 0.300231
0.334819 0.333586 0.333534
0.252895 0.252700 0.251461
0.242675 0.240520 0.241552
0.227209 0.216515 0.215059
0.160469 0.160610 0.162314
0.245018 0.248113 0.252248
0.205260 0.209108 0.206575
0.223813 0.224623 0.224101
0.242207 0.245079 0.244531
0.207349 0.207110 0.205806
0.186453 0.186053 0.186416
0.273177 0.272713 0.272562
0.160825 0.160698 0.171858
0.243192 0.246945 0.247400
0.156918 0.155982 0.155712
0.173838 0.173839 0.173824
0.201625 0.201522 0.202333
0.226569 0.225613 0.223978
0.228738 0.229234 0.229855
0.164225 0.165725 0.163405
0.227246 0.224257 0.222604
0.227924 0.228286 0.230422
0.216534 0.216718 0.216542
0.224852 0.224572 0.224348
0.276343 0.276755 0.285666
0.251662 0.246077 0.247844
0.245930 0.246060 0.246723
0.238555 0.238636 0.238068
0.173144 0.173785 0.172888
0.190343 0.190179 0.189881
0.275377 0.272875 0.272232
0.232428 0.232013 0.230517
0.149095 0.149244 0.153586
0.277254 0.278555 0.278426
0.221919 0.222485 0.223088
0.190461 0.192100 0.197011
0.260613 0.260956 0.260507
0.196127 0.193302 0.186299
0.206628 0.206813 0.206915
0.204714 0.204643 0.204353
0.203673 0.203760 0.206408
0.195564 0.201186 0.204300
0.241304 0.239543 0.238911
0.200176 0.199902 0.201085
0.206337 0.206023 0.205088
0.203201 0.203627 0.200574
0.252078 0.246780 0.245098
0.205145 0.205470 0.205684
0.219096 0.219390 0.219592
0.263523 0.262875 0.254661
0.158346 0.147605 0.147191
0.287894 0.289171 0.289662
0.291798 0.293035 0.295990
0.222131 0.221567 0.221986
0.164677 0.164772 0.164448
0.244736 0.244682 0.245172
0.188646 0.188853 0.189732
0.220257 0.219330 0.219825
0.189231 0.187678 0.192676
0.186483 0.185679 0.186002
0.239739 0.245757 0.246612
0.286609 0.284084 0.283965
0.177185 0.177046 0.176730
0.216988 0.217285 0.217610
0.223694 0.222674 0.223978
0.211613 0.211519 0.211880
0.252808 0.252746 0.248368
0.211348 0.211180 0.210687
0.217693 0.217791 0.221163
0.273250 0.277800 0.278055
0.189119 0.184817 0.185927
0.232641 0.232571 0.232539
0.224792 0.226310 0.226687
0.145387 0.145297 0.145084
0.199912 0.200047 0.200805
0.261713 0.265963 0.260834
0.248221 0.247719 0.246096
0.273551 0.272951 0.276985
0.199134 0.198629 0.196697
0.240827 0.243668 0.242600
0.214841 0.214763 0.215446
0.220686 0.220647 0.224381
0.228383 0.228738 0.229234
0.182126 0.179914 0.181066
0.272206 0.274146 0.275218
0.200018 0.200101 0.199238
0.256697 0.255886 0.255198
0.255192 0.255083 0.253249
0.202649 0.201737 0.207632
0.226485 0.226835 0.225588
0.152123 0.152945 0.153610
0.185159 0.185216 0.185516
0.261561 0.262210 0.263047
0.186318 0.188593 0.177800
0.222903 0.223687 0.224189
0.251693 0.251627 0.254923
0.198157 0.197931 0.195426
0.193733 0.193769 0.193500
0.230045 0.230401 0.230553
0.286838 0.285337 0.284382
0.263939 0.265702 0.265724
0.215978 0.220012 0.220210
0.267230 0.271747 0.270444
0.207747 0.210053 0.208044
0.228708 0.228509 0.229009
0.218886 0.216329 0.217948
0.243211 0.241339 0.239118
0.217415 0.216901 0.216273
0.259505 0.256289 0.255935
0.247897 0.246623 0.247307
0.217129 0.217528 0.217937
0.276625 0.277154 0.277294
0.212456 0.217809 0.213878
0.191087 0.191268 0.192666
0.273036 0.272599 0.272716
0.258667 0.259887 0.258684
0.205015 0.205776 0.206566
0.193578 0.195072 0.194937
0.197273 0.198217 0.202072
0.244354 0.242481 0.240108
0.233090 0.235396 0.237299
0.328916 0.330454 0.324522
0.182047 0.181213 0.181094
0.226687 0.230198 0.229281
0.181564 0.181150 0.180998
0.253343 0.255390 0.254285
0.252151 0.255378 0.254083
0.200384 0.207257 0.208078
0.228827 0.228430 0.229068
0.183014 0.183114 0.182348
0.260438 0.262392 0.263291
0.154685 0.156113 0.156395
0.222324 0.222270 0.221294
0.272666 0.272314 0.272319
0.245158 0.244788 0.244109
0.177234 0.177602 0.180152
0.273744 0.274325 0.275104
0.231154 0.233742 0.239283
0.227054 0.226243 0.224182
0.252221 0.251215 0.252122
0.239669 0.237006 0.237238
0.194045 0.189459 0.190578
0.237721 0.235846 0.234117
0.185749 0.181611 0.180473
0.267108 0.267508 0.267829
0.203272 0.202958 0.203534
0.233859 0.233346 0.235387
0.222235 0.221859 0.220701
0.216233 0.212374 0.210976
0.162760 0.164908 0.165077
0.248506 0.245090 0.244539
0.233265 0.232445 0.230692
0.212690 0.219392 0.221305
0.300511 0.301102 0.301695
0.177883 0.178374 0.179006
0.256094 0.255909 0.257620
0.188828 0.188080 0.190747
0.165640 0.165451 0.165487
0.206566 0.208394 0.211874
0.178715 0.181607 0.182312
0.260526 0.260299 0.260846
0.221889 0.220838 0.218473
0.242649 0.242721 0.242000
0.222759 0.230113 0.232017
0.229123 0.230546 0.227701
0.188847 0.188669 0.186461
0.224433 0.230075 0.229236
0.144817 0.145024 0.145120
0.222760 0.222287 0.227782
0.299890 0.304597 0.302062
0.153668 0.150446 0.149277
0.213989 0.212408 0.212318
0.213468 0.210028 0.209323
0.150671 0.150937 0.150424
0.246842 0.247715 0.247943
0.158882 0.159114 0.158864
0.225326 0.228481 0.225747
0.262232 0.262336 0.261797
0.176504 0.176425 0.176988
0.226259 0.226817 0.226999
0.216600 0.216024 0.215509
0.179213 0.179051 0.179256
0.209928 0.210351 0.211254
0.212006 0.210070 0.210048
0.186410 0.187918 0.188138
0.291721 0.293454 0.294607
0.276778 0.277956 0.278725
0.141466 0.141750 0.141783
0.162467 0.162310 0.163067
0.207233 0.207644 0.203404
0.248431 0.250126 0.251477
0.209732 0.209843 0.211341
0.222992 0.222551 0.222544
0.235352 0.236171 0.235918
0.228730 0.227464 0.216045
0.266604 0.268192 0.267125
0.247722 0.248122 0.245578
0.278438 0.279076 0.280075
0.247956 0.249578 0.251037
0.232837 0.230469 0.231427
0.186447 0.186039 0.184096
0.197601 0.207032 0.208027
0.221756 0.221301 0.216969
0.184721 0.186203 0.185267
0.201730 0.202297 0.201809
0.230664 0.237641 0.237968
0.195098 0.202888 0.206652
0.274240 0.270710 0.270559
0.170341 0.171008 0.170467
0.172354 0.174166 0.175394
0.214653 0.213761 0.212792
0.239285 0.239314 0.239134
0.202413 0.203797 0.205508
0.197241 0.196870 0.197803
0.194662 0.194932 0.194261
0.206705 0.206778 0.206928
0.205246 0.205909 0.205345
0.245528 0.246227 0.251653
0.305272 0.310609 0.310597
0.274908 0.282877 0.283622
0.221038 0.219522 0.218232
0.262509 0.262912 0.262943
0.168271 0.169810 0.169630
0.161805 0.160919 0.159369
0.273869 0.274726 0.281877
0.222341 0.222063 0.222632
0.193983 0.194871 0.197166
0.137204 0.137715 0.137797
0.202333 0.199734 0.200898
0.252149 0.250058 0.249085
0.145925 0.144171 0.143702
0.234554 0.233568 0.229569
0.198433 0.198240 0.198048
0.291878 0.293189 0.295889
0.186403 0.186546 0.186252
0.140110 0.144252 0.144532
0.161225 0.161475 0.167252
0.295280 0.293785 0.292727
0.213352 0.212666 0.212150
0.232057 0.231094 0.230735
0.276772 0.276925 0.275826
0.179783 0.179041 0.178435
0.218315 0.217417 0.215998
0.226170 0.221958 0.215527
0.306913 0.310011 0.310645
0.145936 0.149527 0.150360
0.192277 0.192078 0.191561
0.174912 0.180402 0.181784
0.241435 0.241556 0.242875
0.209978 0.209607 0.208982
0.205655 0.205542 0.207974
0.187176 0.186551 0.183836
0.269845 0.270620 0.270668
0.210858 0.211858 0.211598
0.320240 0.318049 0.314396
0.202717 0.203160 0.206292
0.219473 0.219757 0.225148
0.216220 0.216600 0.220165
0.219702 0.219519 0.219264
0.226987 0.229548 0.230529
0.215989 0.214405 0.213310
0.227306 0.228276 0.227762
0.266965 0.267448 0.267275
0.189151 0.189657 0.191032
0.243965 0.243288 0.243552
0.170059 0.170382 0.170649
0.216396 0.216271 0.217500
0.213499 0.212782 0.210211
0.259342 0.258995 0.258286
0.192777 0.191565 0.184373
0.157958 0.158473 0.161321
0.271380 0.272328 0.274240
0.245274 0.245597 0.242918
0.193693 0.197789 0.198471
0.247648 0.246174 0.244866
0.220493 0.225878 0.223589
0.258487 0.259700 0.259896
0.217215 0.217241 0.217255
0.226039 0.225266 0.225898
0.148415 0.148945 0.147524
0.146087 0.146250 0.150705
0.177766 0.179204 0.179317
0.243174 0.243900 0.242581
0.271483 0.271821 0.272728
0.152730 0.153085 0.152605
0.247636 0.245131 0.244922
0.162311 0.162306 0.165925
0.167495 0.167742 0.167339
0.222421 0.222233 0.222103
0.225978 0.227354 0.226460
0.174113 0.175040 0.181443
0.316952 0.318276 0.319910
0.211864 0.217262 0.216887
0.203885 0.202925 0.201397
0.227648 0.229818 0.230143
0.181296 0.181365 0.181820
0.222848 0.222974 0.223975
0.234984 0.233961 0.233388
0.203712 0.203010 0.203113
0.174963 0.174174 0.176071
0.161312 0.162133 0.161285
0.265274 0.264830 0.275524
0.240394 0.240765 0.244701
0.178399 0.178662 0.177286
0.144989 0.145123 0.145712
0.172532 0.173376 0.173804
0.252085 0.252778 0.254191
0.271954 0.259570 0.258597
0.201709 0.202035 0.202335
0.222469 0.222208 0.222307
0.233472 0.231456 0.233557
0.260061 0.258928 0.255865
0.184771 0.175386 0.174113
0.236597 0.236871 0.235006
0.235192 0.232928 0.231551
0.145782 0.145204 0.144773
0.268581 0.267859 0.269408
0.252877 0.251932 0.248303
0.241399 0.237677 0.237769
0.142756 0.140636 0.142907
0.213623 0.213800 0.214106
0.250183 0.251121 0.251947
0.152990 0.153104 0.152875
0.243816 0.242590 0.240054
0.200384 0.199443 0.198254
0.220476 0.221006 0.221508
0.211615 0.208172 0.204618
0.239963 0.238862 0.239346
0.207409 0.208960 0.208175
0.297647 0.299097 0.299173
0.269926 0.268447 0.263970
0.234020 0.234213 0.234487
0.236552 0.236924 0.237643
0.230485 0.226791 0.226558
0.273963 0.273963 0.275868
0.241716 0.242512 0.242471
0.218947 0.220080 0.222217
0.209501 0.208880 0.208245
0.271876 0.272212 0.272888
0.223665 0.237008 0.235799
0.175387 0.175879 0.177521
0.154082 0.153994 0.154156
0.205458 0.205374 0.205275
0.221081 0.220469 0.211424
0.260267 0.259667 0.259664
0.162336 0.163638 0.163436
0.235898 0.235247 0.235152
0.223231 0.227026 0.230844
0.146302 0.145534 0.146101
0.240736 0.242520 0.242320
0.201572 0.202029 0.201656
0.218271 0.203813 0.200758
0.207021 0.207581 0.208039
0.244999 0.244562 0.244344
0.189659 0.192833 0.195290
0.249509 0.248966 0.246457
0.210833 0.210325 0.212777
0.228657 0.226634 0.224542
0.273963 0.275868 0.276343
0.316256 0.316592 0.318746
0.241846 0.242190 0.241799
0.190649 0.190223 0.194384
0.168296 0.169973 0.169715
0.218056 0.223251 0.230157
0.240027 0.239926 0.236329
0.338817 0.339801 0.339503
0.247299 0.247722 0.248122
0.183993 0.183906 0.186553
0.185942 0.186782 0.186007
0.158229 0.158609 0.162138
0.200198 0.198653 0.198658
0.182538 0.184298 0.186318
0.146274 0.146622 0.146684
0.293377 0.278385 0.273002
0.242512 0.242471 0.241203
0.215167 0.215190 0.213177
0.253011 0.252126 0.250553
0.221926 0.221740 0.221315
0.183033 0.183566 0.182032
0.207664 0.204379 0.203279
0.246360 0.236764 0.234709
0.257791 0.255471 0.254532
0.276820 0.276248 0.276976
0.261814 0.261652 0.261868
0.247821 0.244692 0.245372
0.203485 0.203335 0.204322
0.175398 0.176145 0.176751
0.205351 0.208388 0.208387
0.281654 0.285053 0.285240
0.186033 0.187339 0.191122
0.256714 0.256274 0.262734
0.171213 0.172181 0.172654
0.240884 0.242127 0.241901
0.219203 0.215865 0.214841
0.242394 0.242272 0.244052
0.258498 0.258464 0.256385
0.245963 0.244552 0.242811
0.202922 0.202537 0.202671
0.177212 0.177790 0.174873
0.258145 0.257969 0.257638
0.150549 0.150705 0.150682
0.236353 0.244483 0.245194
0.250010 0.251094 0.252427
0.235665 0.231320 0.227675
0.264356 0.262753 0.263190
0.156941 0.157624 0.158557
0.235016 0.234302 0.238020
0.200586 0.202186 0.200809
0.159450 0.157774 0.157715
0.216193 0.215642 0.215787
0.245233 0.242349 0.237008
0.178508 0.179115 0.180780
0.278735 0.280024 0.280709
0.278009 0.277880 0.272071
0.215866 0.217748 0.213495
0.181381 0.181975 0.182838
0.238013 0.237907 0.236967
0.326656 0.326739 0.327411
0.237404 0.233202 0.236347
0.251845 0.252296 0.253119
0.160176 0.160921 0.161037
0.303572 0.305380 0.308915
0.246024 0.248102 0.247799
0.274957 0.273694 0.272929
0.163625 0.156285 0.156269
0.219079 0.223300 0.223891
0.213939 0.214218 0.216444
0.194626 0.195007 0.195090
0.257098 0.256505 0.256720
0.261647 0.261526 0.260997
0.218439 0.217044 0.215159
0.224326 0.224054 0.227727
0.255880 0.257772 0.257782
0.151100 0.150438 0.149950
0.198369 0.198891 0.199077
0.246950 0.246590 0.247125
0.238611 0.232675 0.232977
0.204500 0.195494 0.194684
0.247399 0.244631 0.240437
0.249728 0.253407 0.253277
0.274120 0.274274 0.274442
0.276585 0.275721 0.273935
0.212309 0.212974 0.212157
0.155577 0.155504 0.156423
0.222527 0.221651 0.221334
0.272226 0.272319 0.269525
0.236803 0.237017 0.245074
0.245959 0.246437 0.244859
0.181281 0.181000 0.180980
0.225148 0.226485 0.226835
0.195008 0.194207 0.193079
0.235819 0.234795 0.234375
0.162060 0.162207 0.162183
0.242575 0.245323 0.254726
0.195951 0.195908 0.192774
0.167251 0.167214 0.166822
0.231988 0.228677 0.223207
0.274899 0.274096 0.273196
0.246062 0.250548 0.251773
0.223938 0.225760 0.226501
0.269086 0.269146 0.267729
0.215025 0.214241 0.211834
0.187339 0.191122 0.190244
0.165073 0.164825 0.159256
0.207495 0.204705 0.204735
0.149771 0.153570 0.152315
0.294912 0.300967 0.300477
0.199850 0.198022 0.196917
0.285337 0.284382 0.282519
0.233433 0.229186 0.227706
0.153239 0.153074 0.152303
0.225866 0.226379 0.226606
0.179547 0.180153 0.192537
0.255743 0.253181 0.251939
0.229210 0.229964 0.230033
0.253032 0.252838 0.255612
0.224586 0.224577 0.224160
0.253040 0.255945 0.253455
0.316888 0.316952 0.318276
0.210939 0.210810 0.210348
0.275301 0.274763 0.273606
0.260067 0.257604 0.256290
0.183025 0.184796 0.185141
0.247337 0.246383 0.246773
0.209251 0.209173 0.209037
0.245767 0.245493 0.246494
0.269122 0.269060 0.268393
0.213449 0.210013 0.208243
0.231733 0.237543 0.237876
0.272466 0.270831 0.270494
0.281019 0.280601 0.280159
0.213445 0.213610 0.198732
0.240276 0.254909 0.254726
0.211806 0.211383 0.210824
0.148894 0.148696 0.147240
0.194077 0.189527 0.190013
0.273325 0.271527 0.268324
0.190723 0.191582 0.188702
0.221195 0.221269 0.220532
0.241356 0.241599 0.243005
0.234297 0.232763 0.229731
0.234125 0.231404 0.232284
0.244775 0.243945 0.242444
0.227983 0.229471 0.230510
0.201370 0.199535 0.199912
0.197323 0.198108 0.202390
0.245203 0.245233 0.242349
0.218294 0.215870 0.215116
0.206731 0.204853 0.203297
0.279757 0.277585 0.281041
0.224414 0.224273 0.222276
0.239720 0.239592 0.235728
0.238617 0.237537 0.236876
0.228566 0.228683 0.229256
0.287609 0.288486 0.289210
0.231773 0.231905 0.231899
0.220248 0.220357 0.220094
0.185054 0.182300 0.183119
0.254621 0.257520 0.257734
0.218117 0.221441 0.221090
0.238859 0.239041 0.239360
0.226054 0.227417 0.224775
0.173630 0.173267 0.173338
0.220669 0.222702 0.226555
0.149129 0.149429 0.150030
0.211955 0.211952 0.211926
0.226374 0.228319 0.228639
0.257604 0.256290 0.252200
0.242460 0.242438 0.242394
0.213675 0.220393 0.218596
0.191252 0.190790 0.193055
0.173798 0.174249 0.170790
0.148307 0.150527 0.150541
0.188441 0.188876 0.192592
0.319051 0.317714 0.315801
0.226798 0.227778 0.229008
0.210386 0.209173 0.209140
