0.507691 0.508297 0.510664
0.579402 0.577429 0.583892
0.596446 0.595203 0.593853
0.553423 0.556454 0.557952
0.577845 0.578632 0.581656
0.577119 0.573214 0.575952
0.557068 0.562039 0.563251
0.473168 0.473868 0.471741
0.559148 0.553962 0.552726
0.629422 0.634186 0.635294
0.667494 0.670063 0.671789
0.611161 0.610687 0.605301
0.656199 0.645668 0.641228
0.622875 0.622631 0.616352
0.540307 0.539481 0.538076
0.503587 0.502691 0.501546
0.632914 0.628086 0.635117
0.547675 0.546029 0.542558
0.479431 0.484720 0.485872
0.608471 0.609176 0.608545
0.632418 0.630342 0.634830
0.562249 0.551976 0.548006
0.588967 0.588989 0.591267
0.578063 0.575325 0.572419
0.518309 0.517659 0.518890
0.498650 0.491488 0.490558
0.603066 0.602391 0.600090
0.525454 0.520141 0.519132
0.556066 0.555952 0.556540
0.587845 0.589778 0.589513
0.617040 0.615909 0.619341
0.580833 0.575974 0.579847
0.594079 0.600540 0.601625
0.634132 0.643972 0.643822
0.614736 0.615927 0.620001
0.539003 0.542057 0.546467
0.530886 0.525932 0.525506
0.528137 0.525865 0.535966
0.525652 0.526784 0.528652
0.524041 0.524764 0.527640
0.540708 0.539121 0.540706
0.483304 0.484856 0.482036
0.665008 0.660672 0.656804
0.602806 0.607800 0.600856
0.536033 0.536704 0.535800
0.520728 0.517987 0.529125
0.589893 0.588215 0.584899
0.542140 0.544730 0.542653
0.508819 0.510592 0.512480
0.659834 0.654212 0.647399
0.583351 0.577267 0.574974
0.570910 0.571254 0.571164
0.526518 0.527523 0.532414
0.619084 0.617401 0.617774
0.624067 0.623623 0.619781
0.473232 0.470858 0.469947
0.549128 0.550078 0.553745
0.605336 0.615733 0.619483
0.640961 0.641124 0.639212
0.645025 0.646803 0.640562
0.545051 0.546188 0.545688
0.568483 0.570118 0.570807
0.523806 0.525337 0.522580
0.473931 0.473173 0.472168
0.573399 0.570347 0.567447
0.619741 0.618884 0.620264
0.638672 0.638131 0.631937
0.586569 0.593198 0.596663
0.493308 0.497453 0.500846
0.586382 0.587594 0.585731
0.616082 0.612868 0.611896
0.611375 0.607869 0.606806
0.517469 0.515147 0.516463
0.550078 0.553745 0.563559
0.609279 0.610106 0.603871
0.664560 0.667395 0.667297
0.604168 0.597017 0.598540
0.566316 0.566004 0.569479
0.558798 0.562577 0.568011
0.552804 0.549369 0.551926
0.602287 0.598974 0.590022
0.578746 0.577983 0.576571
0.540049 0.540845 0.539123
0.566920 0.572264 0.567745
0.567933 0.565107 0.574166
0.579408 0.576308 0.574901
0.503308 0.502325 0.502396
0.576113 0.574237 0.573612
0.581709 0.581140 0.579408
0.543483 0.546551 0.553622
0.452257 0.449338 0.445980
0.628968 0.620948 0.621486
0.471817 0.474364 0.478118
0.558412 0.558876 0.559376
0.580334 0.580197 0.598125
0.557778 0.524108 0.525596
0.622510 0.617648 0.612320
0.600226 0.597772 0.605251
0.612151 0.630184 0.640820
0.634202 0.627325 0.619777
0.617095 0.613694 0.612402
0.582516 0.580862 0.583122
0.488876 0.493804 0.492110
0.594425 0.595354 0.595393
0.641358 0.643547 0.641161
0.589631 0.588236 0.587452
0.584591 0.582767 0.584010
0.586028 0.588008 0.581542
0.519132 0.536871 0.540953
0.582478 0.581478 0.584591
0.605922 0.610013 0.603570
0.621063 0.620476 0.616995
0.579279 0.579134 0.570832
0.529756 0.546510 0.548488
0.572128 0.570113 0.571921
0.585211 0.585052 0.584882
0.577181 0.583754 0.581277
0.613827 0.564515 0.560023
0.534296 0.531747 0.529425
0.560156 0.562724 0.561839
0.560317 0.564972 0.567987
0.645636 0.647100 0.645442
0.613106 0.608702 0.609823
0.588378 0.591079 0.591948
0.659237 0.660198 0.656340
0.539483 0.535683 0.536391
0.584940 0.583144 0.581404
0.583134 0.583127 0.581196
0.586747 0.581356 0.582296
0.624067 0.622600 0.624218
0.504795 0.501036 0.494742
0.651971 0.653485 0.654698
0.601671 0.603786 0.601010
0.595253 0.597319 0.598533
0.583076 0.573060 0.571257
0.579857 0.577550 0.576971
0.522678 0.526609 0.540126
0.628078 0.627124 0.624823
0.622956 0.621995 0.621083
0.663144 0.663463 0.667236
0.569398 0.572736 0.574911
0.594028 0.594076 0.594610
0.607400 0.602022 0.600926
0.561475 0.562524 0.564591
0.603799 0.604747 0.606403
0.575909 0.574040 0.573241
0.436260 0.443169 0.446073
0.531579 0.551353 0.551562
0.660262 0.659679 0.647738
0.470092 0.464910 0.467127
0.466796 0.476962 0.477723
0.575172 0.571721 0.576297
0.493717 0.499103 0.506647
0.546188 0.545688 0.550667
0.566669 0.565653 0.567360
0.622585 0.623660 0.612922
0.604256 0.603969 0.604058
0.511543 0.511398 0.524665
0.522560 0.515753 0.516021
0.545056 0.544651 0.546383
0.555664 0.553713 0.550039
0.519167 0.521132 0.538524
0.524896 0.529850 0.534006
0.607014 0.600129 0.586708
0.530819 0.531784 0.532112
0.532830 0.535358 0.532755
0.584175 0.582493 0.581207
0.548131 0.552815 0.557534
0.517172 0.518754 0.520099
0.591200 0.590564 0.589950
0.596456 0.597843 0.601490
0.529522 0.525076 0.524181
0.540714 0.554094 0.554745
0.521677 0.521119 0.522455
0.575157 0.582453 0.583364
0.537250 0.538014 0.541088
0.485320 0.482452 0.488262
0.563945 0.564134 0.564041
0.614133 0.621689 0.630155
0.561462 0.567676 0.566487
0.573745 0.578312 0.576484
0.538068 0.543725 0.544279
0.588614 0.589235 0.587413
0.562473 0.566640 0.563901
0.674350 0.674228 0.676722
0.618392 0.620092 0.621688
0.644274 0.632263 0.626957
0.606021 0.607624 0.605175
0.635354 0.631560 0.628951
0.538015 0.561289 0.574636
0.615085 0.615945 0.615391
0.593341 0.583524 0.584325
0.538995 0.537775 0.526838
0.575099 0.575943 0.581526
0.594351 0.593653 0.596214
0.508034 0.509384 0.509755
0.528959 0.528618 0.527431
0.601092 0.609724 0.609318
0.571946 0.569126 0.572684
0.599588 0.609467 0.609595
0.567131 0.566998 0.570369
0.602543 0.589796 0.584916
0.618538 0.619661 0.609934
0.593419 0.596516 0.601668
0.560795 0.557293 0.557707
0.540666 0.541051 0.539852
0.462447 0.462980 0.463963
0.590978 0.587615 0.578783
0.604590 0.596428 0.581957
0.611523 0.611067 0.614692
0.598390 0.600037 0.602761
0.469109 0.467108 0.465874
0.598493 0.598824 0.594037
0.571977 0.565349 0.563539
0.481862 0.482741 0.482626
0.643200 0.643183 0.644348
0.641891 0.641217 0.642181
0.596108 0.599721 0.596568
0.520272 0.525068 0.528500
0.600735 0.600948 0.608852
0.617263 0.628647 0.633372
0.541093 0.540488 0.540491
0.609991 0.611231 0.617702
0.623213 0.624824 0.620086
0.611887 0.616526 0.618302
0.534758 0.535900 0.546300
0.605939 0.606054 0.607890
0.582209 0.588013 0.588386
0.645990 0.645713 0.643866
0.626914 0.622445 0.608398
0.653951 0.649335 0.649800
0.588374 0.594339 0.598040
0.634827 0.636594 0.639105
0.554089 0.553035 0.553323
0.638392 0.640364 0.641358
0.578321 0.580951 0.581254
0.478035 0.475007 0.467755
0.559070 0.557368 0.556473
0.645803 0.641361 0.647989
0.555839 0.554457 0.554745
0.654301 0.656112 0.639536
0.581668 0.585678 0.576858
0.581205 0.589881 0.591317
0.637177 0.636087 0.632359
0.575197 0.584556 0.588810
0.586323 0.599795 0.604665
0.643866 0.644888 0.646345
0.604763 0.608236 0.609737
0.619807 0.622498 0.623587
0.594633 0.595135 0.595218
0.476916 0.482953 0.485184
0.593365 0.594123 0.594742
0.584391 0.582768 0.581540
0.570697 0.573282 0.574653
0.593120 0.596297 0.606258
0.525033 0.525642 0.526797
0.516413 0.518729 0.521929
0.517794 0.519667 0.521382
0.552949 0.556987 0.562320
0.644915 0.638695 0.638370
0.517997 0.528248 0.531314
0.548058 0.547975 0.548581
0.560283 0.560260 0.558977
0.578355 0.574039 0.573272
0.607380 0.588794 0.587907
0.561653 0.601190 0.608887
0.521004 0.514825 0.516481
0.576183 0.575633 0.575392
0.569685 0.573829 0.576710
0.545519 0.548336 0.553085
0.605030 0.609507 0.613202
0.592723 0.592402 0.589811
0.548861 0.551038 0.551245
0.593311 0.588852 0.593961
0.599530 0.600069 0.601487
0.635531 0.629545 0.628763
0.582936 0.579119 0.587940
0.591858 0.592227 0.591993
0.589577 0.586932 0.585533
0.506000 0.505646 0.506676
0.662409 0.665195 0.668818
0.591040 0.585992 0.585296
0.526208 0.527703 0.520379
0.545452 0.550807 0.553875
0.584502 0.588250 0.587798
0.566907 0.561274 0.564491
0.614003 0.617449 0.616296
0.652602 0.654035 0.652801
0.631921 0.633860 0.636660
0.581362 0.587484 0.588676
0.500585 0.505009 0.504887
0.573500 0.574175 0.579508
0.611074 0.607935 0.606791
0.634506 0.632841 0.645876
0.611364 0.614367 0.614592
0.645114 0.642296 0.641541
0.506619 0.504364 0.499029
0.539761 0.540270 0.541627
0.542500 0.546048 0.551441
0.591813 0.588977 0.587189
0.503619 0.505772 0.506641
0.554705 0.554237 0.549720
0.640937 0.639303 0.643606
0.519156 0.522350 0.522891
0.605843 0.604678 0.609169
0.578453 0.577747 0.575749
0.544830 0.538794 0.531667
0.522267 0.524460 0.521189
0.576813 0.576966 0.572876
0.616236 0.619274 0.617574
0.592806 0.594566 0.593138
0.559376 0.560815 0.559753
0.562244 0.562340 0.562309
0.567781 0.562473 0.566640
0.600612 0.603105 0.605375
0.564236 0.561399 0.559476
0.535736 0.536479 0.536189
0.592490 0.591825 0.593029
0.507388 0.504998 0.512389
0.555205 0.555558 0.554887
0.602948 0.603342 0.605378
0.568457 0.563718 0.563039
0.498839 0.501152 0.501369
0.574181 0.562986 0.566578
0.585526 0.584404 0.584237
0.521290 0.525207 0.527659
0.523434 0.525494 0.530712
0.536769 0.531037 0.526976
0.612733 0.616518 0.616759
0.609441 0.613348 0.611840
0.569549 0.574873 0.581205
0.577249 0.575058 0.579907
0.590201 0.590906 0.583765
0.538090 0.532018 0.528694
0.568685 0.573722 0.581074
0.595789 0.593754 0.595378
0.646371 0.654759 0.655525
0.571612 0.571247 0.563460
0.620954 0.621878 0.616127
0.556098 0.555966 0.559079
0.646855 0.642047 0.633916
0.538184 0.540117 0.541417
0.522204 0.522176 0.521908
0.571797 0.574271 0.574096
0.547510 0.546006 0.547254
0.627048 0.622885 0.622699
0.592902 0.591879 0.591787
0.643799 0.641264 0.632739
0.636060 0.634380 0.633958
0.621936 0.622296 0.621279
0.595529 0.587437 0.586078
0.595692 0.601323 0.597962
0.585901 0.583115 0.583074
0.570247 0.576017 0.576315
0.545857 0.548650 0.548323
0.579859 0.581422 0.577419
0.645210 0.643184 0.639020
0.559449 0.561691 0.571230
0.531357 0.536116 0.537990
0.511196 0.513497 0.514290
0.519208 0.512091 0.507162
0.564093 0.563372 0.569261
0.587552 0.591712 0.593825
0.663427 0.660719 0.658082
0.613402 0.612493 0.609028
0.576823 0.577085 0.576454
0.576336 0.581572 0.582635
0.634635 0.630038 0.627565
0.603768 0.606701 0.609067
0.579191 0.584485 0.590974
0.548806 0.549258 0.548366
0.604434 0.607100 0.607278
0.632630 0.626661 0.628547
0.603548 0.604500 0.610417
0.625758 0.624133 0.621539
0.530119 0.535874 0.536910
0.583444 0.589993 0.585242
0.553438 0.556963 0.560977
0.647545 0.643373 0.644002
0.572899 0.575814 0.582104
0.555591 0.557481 0.553230
0.549186 0.550606 0.551140
0.576958 0.566475 0.552818
0.541636 0.535790 0.536325
0.602669 0.606775 0.608489
0.555003 0.548724 0.547639
0.533958 0.532550 0.524948
0.624089 0.624121 0.623649
0.615657 0.619978 0.620878
0.641170 0.636184 0.633236
0.491199 0.487682 0.490930
0.481151 0.488020 0.480027
0.594628 0.595271 0.595186
0.643972 0.643822 0.642865
0.591787 0.590275 0.587536
0.616443 0.607801 0.615695
0.647860 0.650924 0.648909
0.574254 0.574090 0.573178
0.629578 0.624852 0.621366
0.525994 0.545374 0.551451
0.600874 0.598327 0.596028
0.531406 0.512642 0.517773
0.584630 0.584313 0.583489
0.682203 0.677197 0.664457
0.562966 0.561588 0.564291
0.581942 0.585121 0.591734
0.494673 0.492037 0.491075
0.636430 0.636121 0.636453
0.557088 0.556021 0.558110
0.498171 0.505716 0.501838
0.511327 0.513311 0.506242
0.614620 0.617294 0.606651
0.530395 0.535390 0.535114
0.615681 0.615837 0.614325
0.617586 0.617098 0.614367
0.603344 0.606480 0.614126
0.585052 0.584882 0.580818
0.585958 0.586674 0.597070
0.631000 0.630824 0.630286
0.583295 0.572988 0.573954
0.485670 0.483552 0.484072
0.554348 0.554044 0.547465
0.491888 0.491788 0.490777
0.555887 0.551562 0.550170
0.592889 0.592189 0.593516
0.604945 0.599530 0.600069
0.601845 0.602010 0.601756
0.600957 0.606172 0.604558
0.576733 0.574363 0.576515
0.612444 0.612475 0.611578
0.635855 0.632602 0.620353
0.545051 0.544698 0.544409
0.615699 0.613496 0.610210
0.667336 0.666414 0.669572
0.633117 0.631315 0.635967
0.602444 0.600102 0.597862
0.503629 0.499883 0.498650
0.579254 0.575197 0.584556
0.480216 0.477810 0.475887
0.496014 0.495600 0.491888
0.524600 0.512712 0.508617
0.630103 0.628422 0.628531
0.532853 0.531750 0.530974
0.620863 0.617296 0.614927
0.529277 0.532896 0.527723
0.572940 0.573056 0.581063
0.514248 0.516169 0.515645
0.604391 0.605093 0.610108
0.538434 0.540832 0.541523
0.625265 0.622591 0.623554
0.597119 0.594627 0.590020
0.498801 0.501362 0.501654
0.535800 0.534071 0.529332
0.511183 0.509008 0.505002
0.518889 0.519279 0.519047
0.624781 0.617480 0.615228
0.505400 0.505967 0.504784
0.496786 0.495065 0.493052
0.620434 0.623654 0.624426
0.523783 0.534350 0.533250
0.577218 0.580089 0.579496
0.637691 0.634942 0.635905
0.563179 0.564716 0.560590
0.601128 0.602690 0.604150
0.590591 0.591329 0.595814
0.593238 0.594769 0.601014
0.516792 0.517939 0.518679
0.625182 0.626521 0.621619
0.597551 0.595662 0.596453
0.641500 0.644823 0.645653
0.573551 0.574707 0.576037
0.622975 0.623730 0.622589
0.595246 0.614655 0.622115
0.578148 0.577880 0.577754
0.512360 0.502601 0.503245
0.599957 0.602467 0.596607
0.587240 0.588113 0.594266
0.537979 0.536642 0.538280
0.637245 0.640806 0.646457
0.498434 0.498723 0.481220
0.579699 0.580129 0.579818
0.546804 0.546102 0.546488
0.589795 0.591888 0.592942
0.586494 0.584168 0.592580
0.617546 0.631122 0.632571
0.549638 0.550305 0.552526
0.589057 0.589657 0.590693
0.644440 0.644830 0.643453
0.613587 0.609861 0.596380
0.623300 0.600496 0.599679
0.644776 0.645620 0.639948
0.586914 0.578725 0.578109
0.596846 0.597676 0.608175
0.590713 0.591474 0.594868
0.597557 0.603443 0.613080
0.619982 0.596593 0.593346
0.578387 0.578814 0.581216
0.606771 0.606954 0.600773
0.638512 0.636348 0.632099
0.648338 0.648721 0.647612
0.541077 0.536766 0.529523
0.580135 0.581373 0.576172
0.642786 0.644376 0.644169
0.602077 0.604333 0.604278
0.638262 0.637281 0.635168
0.581511 0.587571 0.592179
0.615297 0.616806 0.618159
0.583600 0.586687 0.591437
0.527727 0.522560 0.515753
0.494332 0.493467 0.495680
0.514772 0.503393 0.503373
0.586821 0.590081 0.584166
0.664782 0.663884 0.670372
0.558083 0.550825 0.547526
0.624644 0.623374 0.626335
0.472607 0.472752 0.470961
0.536327 0.534781 0.536566
0.600478 0.594425 0.595354
0.566540 0.566143 0.569880
0.603051 0.612482 0.603830
0.572178 0.573784 0.576032
0.537799 0.536698 0.535814
0.557210 0.563672 0.567961
0.546705 0.552914 0.558012
0.502165 0.501460 0.504259
0.604281 0.607400 0.607511
0.491996 0.494332 0.493467
0.621083 0.617557 0.617009
0.574662 0.577793 0.581072
0.528969 0.530095 0.520728
0.579259 0.578809 0.578863
0.577098 0.573918 0.583440
0.558338 0.559530 0.572281
0.504705 0.507175 0.507866
0.632608 0.635603 0.635826
0.606653 0.602822 0.599021
0.510197 0.506371 0.504277
0.628323 0.626532 0.630649
0.633196 0.635901 0.636430
0.577774 0.568634 0.562842
0.563355 0.567779 0.571494
0.613146 0.617649 0.622483
0.571023 0.566956 0.562438
0.523929 0.523182 0.527141
0.616762 0.611324 0.613751
0.630664 0.628658 0.629191
0.640923 0.642042 0.647964
0.502179 0.503249 0.503973
0.606719 0.601213 0.601151
0.564663 0.557026 0.554577
0.575872 0.565326 0.566869
0.576556 0.572577 0.571353
0.597011 0.589544 0.589633
0.577116 0.573345 0.566226
0.572133 0.583739 0.585699
0.607801 0.615695 0.619329
0.576800 0.576738 0.578317
0.636268 0.637244 0.637747
0.610902 0.613390 0.612992
0.557477 0.558170 0.560812
0.577520 0.576311 0.580720
0.592739 0.589783 0.589246
0.615303 0.609692 0.633390
0.582767 0.584010 0.590095
0.585481 0.583383 0.584040
0.590723 0.591267 0.588613
0.546832 0.549669 0.548474
0.501825 0.504705 0.507175
0.545451 0.540739 0.540666
0.542957 0.538989 0.535721
0.556485 0.539650 0.533699
0.608543 0.611642 0.607979
0.563181 0.567791 0.573304
0.572551 0.566444 0.564673
0.579040 0.578957 0.578140
0.567790 0.568882 0.575904
0.602293 0.581777 0.583388
0.509627 0.514517 0.515745
0.608878 0.614693 0.609949
0.620481 0.627601 0.630264
0.449603 0.450880 0.450689
0.596211 0.597326 0.599260
0.561688 0.564419 0.569125
0.575677 0.574880 0.575434
0.510103 0.514590 0.516410
0.626347 0.629597 0.630618
0.591676 0.591526 0.592485
0.611340 0.610474 0.608431
0.593874 0.591089 0.587822
0.535032 0.538692 0.539443
0.525315 0.528237 0.541851
0.537865 0.539944 0.537980
0.584986 0.589787 0.589264
0.544163 0.542976 0.540789
0.584782 0.588720 0.590200
0.578531 0.573758 0.573519
0.519574 0.527829 0.528928
0.596318 0.597186 0.599351
0.644746 0.648209 0.648241
0.612033 0.610742 0.605280
0.602114 0.602946 0.604591
0.594203 0.595157 0.594432
0.557152 0.559782 0.538956
0.509383 0.505828 0.504006
0.637120 0.638518 0.643773
0.647602 0.648147 0.641687
0.550788 0.549312 0.544240
0.563363 0.562455 0.563184
0.511115 0.511611 0.506679
0.623444 0.628068 0.628588
0.589673 0.591623 0.594599
0.548031 0.554135 0.549340
0.521733 0.515575 0.512194
0.490429 0.491812 0.490070
0.477952 0.477879 0.477010
0.615555 0.609801 0.606875
0.616654 0.618001 0.617650
0.643975 0.645594 0.644624
0.568508 0.569093 0.570360
0.514133 0.511496 0.513291
0.522562 0.524060 0.523298
0.571218 0.578525 0.578419
0.545515 0.553599 0.555073
0.642885 0.654259 0.655122
0.571416 0.579936 0.588174
0.542844 0.546342 0.552718
0.569652 0.571213 0.564365
0.589772 0.590228 0.590259
0.526445 0.521004 0.521083
0.596502 0.596895 0.607639
0.535010 0.530218 0.528391
0.531329 0.536043 0.532107
0.527629 0.528241 0.530685
0.520130 0.520290 0.516015
0.591298 0.587689 0.583459
0.563718 0.563039 0.562484
0.617626 0.622142 0.623980
0.586563 0.585189 0.587521
0.575616 0.576556 0.572577
0.471816 0.477636 0.478664
0.684710 0.680659 0.675929
0.614174 0.613706 0.617461
0.635637 0.635588 0.628585
0.526509 0.519364 0.528484
0.641687 0.639954 0.640274
0.560073 0.550912 0.555930
0.599382 0.602730 0.598656
0.593510 0.589454 0.593560
0.655176 0.654592 0.652950
0.646502 0.651765 0.651862
0.571902 0.573666 0.575462
0.599731 0.598505 0.595298
0.589694 0.590591 0.591329
0.549908 0.550245 0.551424
0.596214 0.594922 0.577736
0.611475 0.609416 0.605225
0.601769 0.601252 0.603066
0.487512 0.486053 0.482626
0.472795 0.472154 0.474013
0.639258 0.638129 0.638744
0.554904 0.554559 0.549857
0.645018 0.647319 0.648124
0.588067 0.592748 0.588929
0.537377 0.545736 0.551961
0.592641 0.590713 0.591166
0.460378 0.466486 0.467048
0.541373 0.540110 0.529609
0.506523 0.500610 0.499548
0.553463 0.556510 0.557887
0.537749 0.536906 0.536028
0.623602 0.620949 0.619173
0.629098 0.625957 0.630231
0.575701 0.575239 0.575112
0.580506 0.583276 0.581993
0.592071 0.591868 0.606938
0.494748 0.488167 0.483668
0.636729 0.640675 0.640083
0.576022 0.577530 0.577629
0.591969 0.598734 0.597396
0.545167 0.537870 0.535995
0.576910 0.576634 0.572337
0.608576 0.607806 0.613807
0.543929 0.545046 0.550698
0.571565 0.562051 0.554681
0.531539 0.532673 0.537670
0.590780 0.590358 0.593124
0.520599 0.520059 0.527875
0.615909 0.619341 0.619968
0.544415 0.544422 0.544081
0.637422 0.637311 0.637245
0.625242 0.639121 0.635208
0.625010 0.627048 0.622885
0.610673 0.596817 0.603653
0.649767 0.651502 0.651956
0.551395 0.549738 0.550071
0.483308 0.481985 0.482924
0.506461 0.503056 0.502165
0.646732 0.638195 0.636663
0.667898 0.681735 0.682543
0.624901 0.626381 0.625419
0.545163 0.551258 0.553100
0.640644 0.629695 0.624169
0.615727 0.607047 0.606265
0.647798 0.646896 0.653199
0.622557 0.624364 0.622499
0.621984 0.628542 0.627427
0.620974 0.627734 0.634129
0.551406 0.555245 0.555297
0.619536 0.620783 0.616188
0.598270 0.599538 0.607697
0.582386 0.580954 0.584773
0.495865 0.496122 0.494673
0.612850 0.612623 0.609026
0.592957 0.591209 0.586265
0.654833 0.658933 0.658877
0.644468 0.643787 0.644933
0.553823 0.558525 0.565138
0.650237 0.649988 0.644656
0.563516 0.564636 0.564966
0.631081 0.634225 0.637120
0.600904 0.600438 0.596823
0.536563 0.528958 0.531210
0.504998 0.512389 0.517699
0.591358 0.593171 0.586775
0.617766 0.612973 0.624257
0.638131 0.631937 0.634877
0.571889 0.562614 0.563882
0.621351 0.621070 0.618422
0.651608 0.651160 0.651314
0.564818 0.564305 0.568132
0.531583 0.527766 0.524742
0.585436 0.584706 0.581025
0.642313 0.644629 0.642883
0.584593 0.585396 0.585369
0.583329 0.588114 0.590995
0.544936 0.545570 0.546270
0.622845 0.634021 0.632377
0.601328 0.609270 0.615063
0.552533 0.555711 0.555835
0.548229 0.548581 0.549098
0.664867 0.662249 0.651549
0.558184 0.558183 0.555848
0.558438 0.564722 0.565583
0.550271 0.550008 0.551529
0.491474 0.491073 0.491215
0.583119 0.582788 0.589720
0.634382 0.636937 0.633236
0.557148 0.558316 0.568808
0.595678 0.591630 0.591828
0.583284 0.580801 0.577261
0.676382 0.678021 0.678722
0.522345 0.527182 0.527530
0.586759 0.587599 0.585422
0.643282 0.650656 0.649056
0.628280 0.628737 0.636561
0.641542 0.643838 0.644771
0.642337 0.634612 0.630439
0.544597 0.549103 0.547636
0.532149 0.532021 0.526591
0.625996 0.625152 0.626293
0.622559 0.620472 0.620037
0.641419 0.642041 0.641386
0.618425 0.618356 0.619898
0.646523 0.647763 0.648130
0.648033 0.645440 0.645581
0.617404 0.618427 0.617979
0.596553 0.599403 0.603793
0.516951 0.518160 0.516878
0.607212 0.599739 0.597764
0.652449 0.652593 0.656130
0.598323 0.598858 0.601454
0.591267 0.591969 0.598734
0.517452 0.517135 0.515681
0.554916 0.559952 0.560294
0.581204 0.582109 0.582341
0.605817 0.608543 0.611642
0.631219 0.629275 0.636067
0.576650 0.576675 0.578509
0.644389 0.643866 0.644888
0.628403 0.632704 0.635602
0.538458 0.536738 0.535764
0.617023 0.613985 0.614857
0.577445 0.582646 0.583512
0.639507 0.642134 0.640890
0.573349 0.565169 0.560758
0.560753 0.554188 0.539159
0.608400 0.610906 0.609266
0.588317 0.577211 0.579198
0.635592 0.643663 0.642356
0.522413 0.528138 0.530382
0.640365 0.638703 0.637600
0.592232 0.587211 0.585286
0.609851 0.609935 0.609974
0.637499 0.641167 0.643822
0.530801 0.534364 0.533835
0.580036 0.576096 0.572930
0.586010 0.584407 0.577878
0.599224 0.595259 0.597341
0.590859 0.591015 0.586959
0.581063 0.590476 0.592277
0.604209 0.605060 0.607169
0.575936 0.578187 0.576663
0.578531 0.579428 0.579555
0.589076 0.589375 0.597788
0.527130 0.534897 0.537138
0.556698 0.558419 0.559055
0.632174 0.627518 0.628147
0.530906 0.531768 0.532729
0.567285 0.567363 0.569898
0.603215 0.603192 0.598780
0.505126 0.505563 0.508331
0.537500 0.537770 0.537583
0.507974 0.508868 0.514507
0.652115 0.652884 0.653164
0.511827 0.513150 0.516920
0.646025 0.645602 0.644263
0.613844 0.613565 0.613902
0.506084 0.505691 0.502504
0.645183 0.645783 0.646519
0.546168 0.547006 0.543256
0.620935 0.624672 0.626053
0.632170 0.632505 0.631962
0.535989 0.527440 0.524748
0.634593 0.634254 0.628358
0.577601 0.570372 0.571995
0.581377 0.578754 0.573727
0.611560 0.613106 0.608702
0.591963 0.593268 0.597275
0.644781 0.640125 0.636619
0.584471 0.580252 0.580358
0.562802 0.563463 0.561314
0.632861 0.632274 0.633665
0.549027 0.550156 0.550581
0.484092 0.477431 0.475134
0.595211 0.593587 0.592676
0.459840 0.461065 0.461909
0.599257 0.598623 0.593505
0.609782 0.610181 0.612386
0.587204 0.571397 0.568506
0.629797 0.624818 0.624750
0.561274 0.564491 0.573463
0.541022 0.540049 0.540845
0.629468 0.630615 0.634113
0.638417 0.641718 0.643456
0.591455 0.597110 0.591817
0.564214 0.561984 0.560155
0.585265 0.588808 0.585851
0.637053 0.635893 0.626525
0.593417 0.586716 0.584811
0.598840 0.600334 0.594432
0.627197 0.624689 0.620060
0.567179 0.573919 0.583820
0.594233 0.597117 0.593107
0.537389 0.538277 0.536563
0.598938 0.591623 0.590483
0.633888 0.642228 0.656298
0.649890 0.653489 0.631420
0.581600 0.582547 0.585022
0.607979 0.612142 0.611611
0.565333 0.567769 0.574892
0.634007 0.631830 0.626004
0.606397 0.606525 0.605188
0.590522 0.587652 0.587068
0.638685 0.637029 0.634083
0.532112 0.532830 0.535358
0.643751 0.642564 0.650808
0.571521 0.574249 0.573619
0.514235 0.512202 0.514806
0.618290 0.624093 0.623693
0.587973 0.586777 0.583209
0.524866 0.523645 0.522862
0.655779 0.654358 0.655026
0.570957 0.569753 0.568142
0.554094 0.552107 0.550882
0.546872 0.543198 0.544438
0.611494 0.621212 0.623125
0.511478 0.510103 0.514590
0.575520 0.580338 0.576801
0.616885 0.613809 0.610535
0.592726 0.592108 0.590475
0.513567 0.511498 0.508410
0.612277 0.610739 0.608797
0.552483 0.545632 0.545984
0.574220 0.575098 0.575235
0.618515 0.618686 0.617625
0.514113 0.505876 0.507595
0.550793 0.551945 0.554786
0.605813 0.617155 0.613637
0.590334 0.590522 0.587652
0.634515 0.633940 0.635102
0.556554 0.554099 0.552962
0.460521 0.464213 0.466784
0.556963 0.555857 0.554530
0.575411 0.575536 0.576699
0.585762 0.586845 0.587524
0.625097 0.619650 0.617633
0.529126 0.522868 0.523468
0.581826 0.582364 0.580584
0.577245 0.568414 0.568642
0.477930 0.474154 0.475471
0.583715 0.583463 0.582345
0.621279 0.622458 0.623505
0.509538 0.506831 0.504650
0.605174 0.602112 0.601355
0.613496 0.610210 0.629758
0.578576 0.592741 0.590862
0.673852 0.672503 0.667586
0.635917 0.636974 0.635183
0.598969 0.605023 0.602144
0.535850 0.540639 0.540530
0.545007 0.546093 0.548589
0.519477 0.525470 0.540152
0.533746 0.529305 0.529116
0.600894 0.598640 0.612729
0.644486 0.646265 0.644408
0.605406 0.599081 0.596328
0.618494 0.609459 0.610864
0.581517 0.581593 0.577966
0.551807 0.551726 0.540095
0.563331 0.560066 0.553167
0.535457 0.531622 0.535795
0.596827 0.593483 0.591503
0.623730 0.628297 0.628004
0.540237 0.539959 0.537712
0.649000 0.648132 0.646319
0.606797 0.609792 0.608937
0.609481 0.613193 0.609641
0.614099 0.610163 0.611402
0.553832 0.552391 0.548070
0.527573 0.528592 0.534468
0.628133 0.624583 0.621780
0.618334 0.614866 0.611985
0.613902 0.614414 0.615215
0.617043 0.616785 0.614928
0.669572 0.667493 0.663728
0.613921 0.611575 0.612513
0.604197 0.610211 0.608179
0.597695 0.595540 0.597755
0.621148 0.621325 0.612154
0.629521 0.626245 0.613538
0.602010 0.601756 0.605847
0.471180 0.470092 0.464910
0.655397 0.647234 0.648456
0.643770 0.644932 0.649936
0.608140 0.603404 0.600687
0.623215 0.620798 0.609925
0.582180 0.580137 0.582522
0.567491 0.568662 0.569131
0.598636 0.597726 0.597626
0.619247 0.628354 0.632014
0.486225 0.482372 0.482542
0.584538 0.585131 0.584545
0.612910 0.608395 0.611998
0.587780 0.585664 0.586615
0.646144 0.644995 0.644721
0.613899 0.610300 0.609399
0.580547 0.580235 0.579540
0.515628 0.513020 0.518487
0.518083 0.514617 0.508768
0.559851 0.577541 0.570121
0.606427 0.594455 0.591292
0.505965 0.504691 0.504501
0.553320 0.548900 0.548027
0.626126 0.630177 0.626129
0.585261 0.591285 0.592286
0.519856 0.524618 0.521472
0.589648 0.590870 0.585057
0.611529 0.611689 0.610044
0.578053 0.583558 0.584438
0.628036 0.626427 0.624282
0.478507 0.477809 0.473643
0.531856 0.533826 0.534900
0.593804 0.579468 0.577771
0.558310 0.559076 0.557869
0.538410 0.540406 0.541949
0.570335 0.567144 0.566341
0.446770 0.447421 0.448589
0.569481 0.579766 0.581769
0.555073 0.551483 0.550264
0.648609 0.649610 0.651946
0.671528 0.675313 0.674240
0.565273 0.573332 0.580133
0.579279 0.570461 0.566507
0.520005 0.517735 0.517188
0.591437 0.589411 0.586354
0.593297 0.593046 0.595810
0.584994 0.584020 0.583430
0.626450 0.627006 0.625978
0.595859 0.599241 0.600427
0.535174 0.536650 0.539408
0.527696 0.524268 0.528018
0.595651 0.594936 0.597474
0.547647 0.556428 0.558287
0.606677 0.603285 0.603425
0.507956 0.507735 0.513129
0.607903 0.601587 0.601331
0.629767 0.635322 0.632654
0.584488 0.586056 0.586313
0.619756 0.619483 0.614644
0.611072 0.611324 0.611793
