0.136747 0.136762 0.136711
0.098165 0.098269 0.098826
0.091034 0.091077 0.090334
0.285374 0.285715 0.265609
0.095121 0.095368 0.095515
0.232220 0.231880 0.231130
0.106073 0.106372 0.106583
0.104520 0.106259 0.106594
0.233410 0.234566 0.235939
0.134556 0.134480 0.134172
0.304361 0.302413 0.299998
0.090976 0.091701 0.092338
0.112186 0.111976 0.112208
0.092179 0.092238 0.092077
0.103002 0.103098 0.102704
0.150890 0.150869 0.151262
0.129958 0.127344 0.127236
0.085574 0.085704 0.085626
0.098834 0.098922 0.098058
0.122372 0.122148 0.122315
0.062624 0.063104 0.063028
0.110093 0.110289 0.110013
0.103300 0.103031 0.103245
0.235171 0.235242 0.235197
0.157982 0.158801 0.152163
0.172153 0.171366 0.170857
0.275698 0.266588 0.263319
0.081925 0.081731 0.081570
0.232965 0.233152 0.233718
0.230874 0.231979 0.231621
0.101648 0.101779 0.102010
0.300713 0.301743 0.302439
0.135073 0.133827 0.133693
0.093929 0.094398 0.094382
0.099735 0.099063 0.099158
0.085728 0.086102 0.085953
0.104641 0.104326 0.103901
0.081822 0.082426 0.083122
0.122751 0.124737 0.123666
0.300821 0.299375 0.298434
0.108135 0.107664 0.107373
0.109710 0.110012 0.110181
0.098728 0.097647 0.098977
0.108038 0.107322 0.107635
0.181965 0.184002 0.184961
0.089493 0.090509 0.092828
0.072494 0.072271 0.072125
0.244973 0.245499 0.245299
0.168326 0.168790 0.169293
0.085079 0.085661 0.086062
0.103708 0.104173 0.104071
0.244856 0.244156 0.242338
0.092416 0.092311 0.092714
0.127853 0.128269 0.127886
0.085996 0.086030 0.085866
0.240695 0.239733 0.237010
0.247635 0.249957 0.251066
0.128722 0.129363 0.130550
0.171469 0.168746 0.168112
0.085792 0.085868 0.085838
0.100679 0.100597 0.100762
0.096033 0.094476 0.094300
0.082428 0.085836 0.085989
0.223344 0.221061 0.208435
0.091202 0.090774 0.091828
0.093931 0.094406 0.094389
0.099095 0.098995 0.098931
0.120910 0.120565 0.119235
0.234338 0.237273 0.244022
0.244142 0.243387 0.246679
0.116601 0.116475 0.115814
0.085674 0.086537 0.087028
0.072423 0.070683 0.070769
0.089691 0.089380 0.088844
0.102758 0.102431 0.102426
0.363443 0.362406 0.362149
0.092801 0.095071 0.095882
0.073953 0.074259 0.074226
0.204690 0.205470 0.215663
0.104115 0.103097 0.103025
0.114563 0.116672 0.116762
0.094157 0.094469 0.093219
0.099541 0.099259 0.098990
0.217659 0.217289 0.216620
0.121655 0.122454 0.122587
0.121935 0.122156 0.123212
0.105427 0.105825 0.105868
0.100299 0.100388 0.097873
0.119821 0.119897 0.119848
0.098655 0.098422 0.098079
0.087640 0.087567 0.087316
0.097743 0.098718 0.098737
0.137355 0.140955 0.140471
0.088369 0.088571 0.088539
0.111798 0.112609 0.111965
0.094483 0.094473 0.095336
0.260753 0.260528 0.260294
0.247871 0.248042 0.248605
0.112778 0.112476 0.112834
0.104257 0.103965 0.106613
0.097830 0.098891 0.099995
0.214387 0.214494 0.214789
0.144044 0.144067 0.144243
0.099537 0.099950 0.100358
0.103057 0.103086 0.100892
0.101562 0.101411 0.101738
0.140072 0.140990 0.141142
0.244010 0.244666 0.249906
0.092348 0.092883 0.095998
0.249050 0.241462 0.238975
0.116128 0.116767 0.118150
0.108878 0.106991 0.107602
0.097737 0.097602 0.098286
0.101467 0.102064 0.102929
0.143954 0.145328 0.147686
0.123536 0.125038 0.124635
0.157752 0.157578 0.157559
0.093051 0.089721 0.087945
0.072274 0.072339 0.072212
0.097108 0.097353 0.098074
0.093485 0.093568 0.093580
0.100855 0.100245 0.100314
0.101237 0.101564 0.102370
0.089790 0.089193 0.088907
0.112306 0.111442 0.111901
0.116221 0.116253 0.115864
0.113697 0.113626 0.114811
0.078383 0.081274 0.082792
0.084975 0.085803 0.085914
0.093411 0.092952 0.092842
0.239108 0.234475 0.230272
0.100447 0.101000 0.101018
0.257252 0.255276 0.255997
0.258513 0.257908 0.256905
0.121016 0.121391 0.121686
0.106104 0.106312 0.105958
0.191923 0.196977 0.205763
0.113280 0.113076 0.113119
0.241176 0.242962 0.243058
0.130988 0.131402 0.131473
0.090578 0.090329 0.090797
0.075466 0.075829 0.075793
0.243981 0.244613 0.249143
0.091159 0.092319 0.091906
0.221204 0.225280 0.222333
0.073049 0.075330 0.074875
0.092503 0.092058 0.091372
0.207038 0.206889 0.204155
0.216965 0.216578 0.216020
0.252486 0.260881 0.266319
0.098321 0.098584 0.096371
0.103580 0.102703 0.104000
0.145346 0.138118 0.137408
0.098163 0.098031 0.098235
0.088580 0.088695 0.089496
0.226310 0.226431 0.227153
0.095935 0.098580 0.103208
0.082525 0.083330 0.083708
0.265830 0.265802 0.266135
0.320750 0.320655 0.320586
0.118565 0.118268 0.116118
0.106224 0.105618 0.105309
0.146798 0.146528 0.146977
0.081342 0.081527 0.082619
0.110395 0.109097 0.108704
0.115225 0.115294 0.115173
0.133833 0.134864 0.134154
0.102094 0.101829 0.101901
0.116145 0.114428 0.114526
0.094829 0.095106 0.094082
0.236712 0.236158 0.236628
0.093943 0.094459 0.094393
0.107790 0.108181 0.108096
0.158478 0.164208 0.166186
0.090376 0.090682 0.091149
0.139949 0.137113 0.136431
0.130592 0.130527 0.131070
0.195266 0.194286 0.192993
0.106793 0.106959 0.106583
0.306823 0.295993 0.291838
0.253919 0.253427 0.253688
0.110370 0.110960 0.112258
0.110162 0.105120 0.104392
0.101189 0.102542 0.102743
0.094093 0.093787 0.093497
0.108281 0.108195 0.107991
0.112823 0.113220 0.112613
0.326318 0.325589 0.325775
0.140112 0.140252 0.141268
0.111311 0.110855 0.109426
0.120343 0.121203 0.120804
0.349796 0.350287 0.351046
0.078508 0.078840 0.078877
0.165841 0.158724 0.157833
0.223205 0.226801 0.229427
0.091143 0.091117 0.091526
0.273770 0.275197 0.280652
0.097467 0.097500 0.097556
0.084335 0.084183 0.084190
0.129104 0.128073 0.127852
0.095460 0.096135 0.095428
0.085019 0.085252 0.085606
0.107420 0.109852 0.111526
0.087547 0.087199 0.086559
0.251667 0.252452 0.253151
0.187404 0.201225 0.205296
0.077073 0.076557 0.074816
0.113059 0.113063 0.114151
0.242205 0.243710 0.243993
0.098270 0.097532 0.097297
0.247756 0.247192 0.245861
0.239353 0.237571 0.234869
0.094801 0.095812 0.095304
0.101705 0.101487 0.102052
0.077875 0.078191 0.078481
0.142470 0.142646 0.142403
0.250553 0.253983 0.254255
0.123672 0.124567 0.124196
0.069969 0.071062 0.071928
0.247384 0.247904 0.248528
0.108100 0.108934 0.108499
0.108003 0.107899 0.108581
0.095929 0.095592 0.096403
0.094569 0.094465 0.093832
0.081921 0.082613 0.082892
0.126119 0.125659 0.122799
0.102426 0.103672 0.103574
0.094772 0.101221 0.102296
0.127402 0.124561 0.123496
0.282873 0.283342 0.283402
0.095107 0.096673 0.097457
0.106912 0.107097 0.106363
0.094869 0.093771 0.093851
0.104825 0.105059 0.107056
0.217572 0.217792 0.218460
0.096361 0.096895 0.096638
0.120205 0.120475 0.120829
0.184260 0.185384 0.185642
0.126762 0.126667 0.128835
0.084441 0.084475 0.084185
0.163399 0.164944 0.166206
0.143259 0.145787 0.144961
0.085878 0.086012 0.085516
0.272263 0.271391 0.271969
0.091040 0.091486 0.091874
0.105991 0.106452 0.107002
0.252007 0.255579 0.257348
0.350794 0.351277 0.349003
0.220225 0.219224 0.219116
0.113335 0.112965 0.113328
0.099691 0.099162 0.099909
0.244348 0.243295 0.243335
0.198907 0.195594 0.195537
0.082843 0.082306 0.082442
0.136381 0.136033 0.136485
0.152294 0.152402 0.149708
0.108196 0.108714 0.108500
0.242543 0.235234 0.232722
0.093981 0.093760 0.093922
0.130543 0.131212 0.130477
0.086079 0.085336 0.084964
0.369280 0.353282 0.350225
0.150912 0.147903 0.142232
0.090868 0.091149 0.091139
0.232986 0.231796 0.231596
0.107438 0.107079 0.106014
0.326253 0.325571 0.325321
0.205069 0.203564 0.203351
0.130772 0.131900 0.133748
0.100396 0.099829 0.099973
0.087376 0.086481 0.086695
0.232992 0.232923 0.232986
0.099275 0.099185 0.099950
0.343857 0.343278 0.341888
0.216965 0.215859 0.213686
0.068719 0.069106 0.069343
0.096339 0.095558 0.089077
0.254476 0.253199 0.251151
0.131163 0.131686 0.131316
0.101198 0.101281 0.101190
0.120752 0.123798 0.123977
0.248318 0.245230 0.245147
0.118252 0.118925 0.119067
0.179801 0.179528 0.179749
0.072445 0.072482 0.072561
0.111095 0.110106 0.110151
0.111569 0.111373 0.111141
0.102131 0.101971 0.101382
0.096744 0.097550 0.097106
0.126179 0.124913 0.121850
0.097407 0.097547 0.097179
0.087064 0.087073 0.087482
0.183614 0.184189 0.184842
0.145732 0.146211 0.145653
0.092420 0.092408 0.092630
0.205348 0.215703 0.215804
0.071636 0.071868 0.072080
0.271047 0.270672 0.252930
0.108969 0.108381 0.109553
0.083918 0.084330 0.084701
0.093340 0.093357 0.093343
0.145030 0.145045 0.144784
0.306782 0.306186 0.306802
0.102823 0.102914 0.102660
0.231184 0.223381 0.216771
0.143766 0.143736 0.143587
0.103904 0.103701 0.103407
0.253427 0.253688 0.253454
0.090323 0.089802 0.089522
0.150495 0.145293 0.145386
0.169314 0.167556 0.169791
0.349316 0.358114 0.359807
0.273356 0.273770 0.275197
0.101686 0.102488 0.102680
0.085314 0.085274 0.085896
0.248279 0.247297 0.248646
0.092780 0.093132 0.093596
0.156842 0.157341 0.156606
0.083764 0.083185 0.083723
0.098762 0.100325 0.100819
0.333685 0.333353 0.333290
0.219879 0.218445 0.221218
0.083330 0.083955 0.084790
0.091895 0.092248 0.092146
0.174824 0.174911 0.174452
0.315478 0.315724 0.321405
0.107422 0.107397 0.107035
0.249456 0.249372 0.249141
0.214214 0.217216 0.217330
0.118293 0.118252 0.118925
0.076721 0.076135 0.076175
0.190440 0.203051 0.206770
0.295295 0.294302 0.298470
0.086464 0.086368 0.086492
0.091802 0.091392 0.091827
0.077049 0.076396 0.074717
0.383540 0.382967 0.382956
0.134840 0.135413 0.136261
0.108950 0.111295 0.112538
0.096582 0.096872 0.096702
0.084852 0.084560 0.084392
0.281108 0.280876 0.278523
0.129824 0.129650 0.128971
0.103594 0.103482 0.102933
0.077704 0.078071 0.078256
0.086642 0.086420 0.086356
0.085774 0.086226 0.086271
0.089908 0.089948 0.089460
0.234196 0.219721 0.212785
0.096960 0.096240 0.095868
0.131520 0.131735 0.136169
0.179622 0.179878 0.179929
0.118942 0.118521 0.118625
0.101368 0.100478 0.095633
0.140398 0.140627 0.140756
0.100561 0.100213 0.100049
0.325989 0.317586 0.315971
0.097840 0.096705 0.096379
0.096555 0.096626 0.096797
0.106014 0.106656 0.106530
0.133652 0.133458 0.134791
0.092088 0.092422 0.092501
0.080766 0.080670 0.081173
0.148937 0.148439 0.148622
0.106105 0.106035 0.106767
0.187471 0.188638 0.188549
0.237339 0.233414 0.232154
0.072927 0.072788 0.072283
0.298319 0.299524 0.302943
0.114906 0.112820 0.112772
0.262142 0.262178 0.262253
0.093915 0.094045 0.094512
0.129620 0.131132 0.131103
0.095180 0.093687 0.092710
0.214636 0.214570 0.213977
0.078808 0.080037 0.080627
0.074184 0.073787 0.072667
0.248400 0.248336 0.248431
0.093458 0.093103 0.092815
0.122203 0.122184 0.121413
0.106561 0.105331 0.104183
0.090406 0.090268 0.090737
0.338000 0.338048 0.335193
0.094010 0.093636 0.093967
0.130423 0.128841 0.128568
0.224514 0.226378 0.225723
0.125237 0.124850 0.124659
0.266731 0.240484 0.236173
0.116666 0.120310 0.120694
0.087069 0.085203 0.084892
0.085704 0.085626 0.085534
0.108611 0.108043 0.107109
0.088575 0.088643 0.088215
0.081024 0.082541 0.082706
0.093259 0.093250 0.092631
0.095987 0.096069 0.096369
0.149435 0.149678 0.150043
0.107860 0.108307 0.107911
0.215987 0.216517 0.217137
0.085013 0.084424 0.081710
0.124004 0.124282 0.125374
0.105325 0.104583 0.103295
0.106668 0.106586 0.107034
0.215680 0.215806 0.217106
0.096123 0.096269 0.095706
0.092309 0.091310 0.091100
0.094344 0.093570 0.093861
0.111570 0.110967 0.109010
0.152848 0.152696 0.152784
0.206030 0.208992 0.214105
0.146211 0.147024 0.154996
0.108435 0.106368 0.105710
0.099777 0.100132 0.100574
0.095695 0.095792 0.094553
0.095851 0.096275 0.097183
0.098028 0.097336 0.098696
0.091769 0.091857 0.091266
0.227392 0.226732 0.225324
0.085507 0.085895 0.086304
0.085585 0.085036 0.084463
0.140473 0.141243 0.141336
0.143895 0.144542 0.144347
0.185028 0.186154 0.189205
0.100371 0.100038 0.100086
0.252429 0.253135 0.251641
0.090334 0.090282 0.090075
0.085836 0.085665 0.084844
0.102358 0.101993 0.103454
0.333187 0.332455 0.331095
0.078947 0.079459 0.079961
0.110480 0.110346 0.110461
0.092856 0.092002 0.091838
0.096562 0.096706 0.096912
0.227357 0.226525 0.226874
0.083192 0.083655 0.082948
0.114394 0.112115 0.110871
0.094378 0.094701 0.095090
0.209709 0.210542 0.210333
0.142716 0.139848 0.139824
0.134571 0.134481 0.134582
0.099029 0.099012 0.098674
0.275614 0.275995 0.275698
0.176396 0.175291 0.172492
0.104718 0.105420 0.108526
0.103720 0.104556 0.105412
0.103958 0.103877 0.103771
0.285965 0.286056 0.286175
0.122772 0.122166 0.121744
0.220694 0.226163 0.225982
0.359051 0.358836 0.356128
0.238228 0.241037 0.239838
0.220565 0.219081 0.218238
0.101600 0.101709 0.101641
0.270095 0.270031 0.270869
0.150087 0.149985 0.148337
0.089289 0.089713 0.089201
0.143645 0.143047 0.142946
0.078997 0.079029 0.078514
0.323266 0.307776 0.247914
0.099743 0.098491 0.098488
0.140002 0.139031 0.139323
0.222187 0.213945 0.221771
0.325785 0.325951 0.326613
0.193393 0.192924 0.183744
0.147178 0.146868 0.146498
0.206834 0.203344 0.202463
0.089116 0.088908 0.088697
0.087926 0.087774 0.087738
0.089007 0.088457 0.087023
0.102488 0.102414 0.102397
0.108188 0.108929 0.109151
0.341852 0.344558 0.347088
0.101432 0.101568 0.102324
0.118452 0.118753 0.116912
0.103496 0.103897 0.104395
0.094751 0.095860 0.097016
0.126882 0.126659 0.126762
0.222864 0.223224 0.221108
0.074848 0.073776 0.072966
0.150580 0.151763 0.152451
0.106243 0.106171 0.106121
0.232033 0.232615 0.230822
0.111830 0.111690 0.111682
0.087234 0.087226 0.087181
0.097666 0.097350 0.096840
0.220103 0.216974 0.215869
0.116133 0.116317 0.116022
0.211352 0.214804 0.219239
0.120012 0.119949 0.120204
0.112735 0.112209 0.112465
0.293627 0.299356 0.299620
0.265572 0.265819 0.266114
0.131964 0.137924 0.138223
0.100129 0.102499 0.108196
0.085775 0.086240 0.086613
0.126994 0.127391 0.127997
0.088637 0.082050 0.081526
0.069707 0.069732 0.069698
0.101383 0.101180 0.100755
0.132870 0.132366 0.132167
0.105859 0.106466 0.106556
0.095969 0.094982 0.095085
0.231087 0.214606 0.209010
0.145683 0.144701 0.144474
0.107499 0.106552 0.105942
0.195692 0.196059 0.196041
0.107940 0.108454 0.108457
0.086469 0.087785 0.087452
0.151480 0.155406 0.157426
0.221041 0.221540 0.225007
0.257098 0.258814 0.259534
0.073428 0.073841 0.073889
0.097690 0.097723 0.098529
0.093084 0.092850 0.093050
0.140012 0.140127 0.140271
0.090261 0.090693 0.090608
0.110676 0.111543 0.111110
0.086116 0.086834 0.086470
0.091613 0.091522 0.091179
0.111806 0.111703 0.111765
0.088052 0.087484 0.087489
0.112322 0.112132 0.112425
0.085141 0.083469 0.079978
0.132558 0.132274 0.132328
0.095456 0.094733 0.094772
0.184846 0.184765 0.183622
0.097977 0.097796 0.097657
0.222844 0.221700 0.221043
0.169107 0.170676 0.171184
0.103817 0.103842 0.103642
0.097940 0.097884 0.098156
0.228134 0.228297 0.224420
0.125514 0.126450 0.126605
0.263267 0.262348 0.261892
0.122286 0.122064 0.122102
0.117294 0.118243 0.118561
0.104970 0.104662 0.104551
0.108379 0.109951 0.110237
0.094396 0.095097 0.095297
0.111282 0.110995 0.110571
0.078484 0.078025 0.077818
0.232685 0.231150 0.232620
0.142704 0.142871 0.143765
0.096944 0.097118 0.096805
0.092222 0.092129 0.090447
0.128971 0.128302 0.125070
0.084732 0.084703 0.085585
0.076620 0.076243 0.076605
0.071017 0.071116 0.071753
0.094115 0.093439 0.093238
0.256740 0.257210 0.258125
0.100338 0.101318 0.099368
0.105405 0.105163 0.104641
0.239536 0.240122 0.240486
0.309199 0.309867 0.310456
0.227182 0.227102 0.227590
0.105587 0.106102 0.105906
0.115633 0.115962 0.115795
0.196342 0.196267 0.195691
0.214929 0.215269 0.215323
0.087128 0.086218 0.086202
0.111690 0.111375 0.111412
0.184278 0.184114 0.185469
0.125085 0.125359 0.125697
0.122801 0.123218 0.123430
0.089996 0.089584 0.089598
0.161623 0.161908 0.162142
0.095303 0.095760 0.095221
0.211870 0.210667 0.210613
0.287990 0.289112 0.288534
0.135399 0.135805 0.135633
0.088083 0.087276 0.086869
0.242725 0.243983 0.243451
0.101625 0.101163 0.101234
0.196552 0.197382 0.212337
0.286626 0.305840 0.309343
0.248997 0.249052 0.249024
0.106817 0.106337 0.105716
0.092832 0.092827 0.093201
0.214983 0.213074 0.212602
0.139115 0.138137 0.137012
0.082963 0.083311 0.082990
0.091733 0.090504 0.087555
0.104545 0.104710 0.107606
0.233704 0.231334 0.231268
0.106089 0.105904 0.105376
0.073826 0.073958 0.075543
0.219003 0.218787 0.218201
0.112058 0.112128 0.111911
0.141789 0.141235 0.142005
0.218605 0.218374 0.217948
0.130122 0.128490 0.128228
0.103219 0.103524 0.103075
0.084480 0.084433 0.084412
0.086202 0.085996 0.086030
0.227493 0.228042 0.229844
0.231567 0.233738 0.233598
0.237254 0.238180 0.238378
0.069540 0.070731 0.071913
0.121811 0.121975 0.122076
0.094680 0.094684 0.095037
0.243031 0.242429 0.242477
0.138205 0.138631 0.138538
0.248730 0.248995 0.249055
0.102671 0.102753 0.101954
0.078935 0.079536 0.082312
0.098668 0.098578 0.098116
0.141399 0.137781 0.137585
0.100087 0.100259 0.100674
0.073183 0.073598 0.074114
0.238997 0.236192 0.232880
0.218716 0.209718 0.207178
0.126400 0.126770 0.126417
0.190444 0.190634 0.191213
0.097104 0.094871 0.092402
0.301254 0.299785 0.300496
0.106073 0.105998 0.106105
0.096859 0.097121 0.096054
0.088343 0.088194 0.088627
0.294024 0.308821 0.309428
0.108391 0.109150 0.109051
0.230247 0.222017 0.221278
0.097647 0.097781 0.097393
0.251514 0.252997 0.256819
0.232928 0.231868 0.232009
0.102708 0.102618 0.102146
0.096340 0.096506 0.096530
0.233521 0.233574 0.233277
0.095557 0.096563 0.097329
0.122166 0.121744 0.121850
0.103414 0.103671 0.104087
0.103332 0.103235 0.103094
0.254096 0.238383 0.235683
0.253198 0.252870 0.250391
0.084462 0.084148 0.084123
0.278341 0.275980 0.272043
0.071373 0.071504 0.071262
0.069204 0.069149 0.070232
0.102029 0.101759 0.102416
0.095205 0.095224 0.095130
0.096448 0.096799 0.095249
0.088947 0.089382 0.089768
0.342917 0.338631 0.338719
0.145028 0.145186 0.146204
0.222586 0.223990 0.231088
0.131291 0.131965 0.131637
0.106769 0.106851 0.108005
0.101528 0.101818 0.101497
0.098406 0.098487 0.098175
0.076531 0.075981 0.075769
0.241721 0.242830 0.246854
0.090801 0.090527 0.090062
0.099297 0.102678 0.102970
0.099158 0.098875 0.097113
0.101152 0.100998 0.101061
0.100617 0.100618 0.101338
0.116376 0.114576 0.114909
0.097791 0.096127 0.095810
0.087077 0.087394 0.088661
0.121361 0.121595 0.121537
0.122174 0.121829 0.121235
0.118312 0.118035 0.118107
0.101943 0.101350 0.098927
0.115466 0.116168 0.116600
0.240324 0.242643 0.242368
0.105325 0.105330 0.106723
0.229417 0.228133 0.227455
0.260615 0.260556 0.263047
0.117279 0.117169 0.117331
0.105219 0.105540 0.104874
0.229746 0.226554 0.226243
0.187549 0.200418 0.202284
0.272377 0.273339 0.274814
0.125956 0.127029 0.126748
0.095858 0.096078 0.095693
0.095707 0.095033 0.094888
0.265627 0.265484 0.265394
0.262465 0.262330 0.262515
0.135342 0.134607 0.133733
0.190304 0.190454 0.189836
0.086384 0.087072 0.088075
0.219514 0.219374 0.218918
0.215548 0.215667 0.216857
0.241645 0.241805 0.246719
0.134264 0.134351 0.134909
0.088889 0.088298 0.089596
0.104896 0.104372 0.104943
0.087021 0.086928 0.086341
0.095880 0.096136 0.094820
0.101943 0.102179 0.102204
0.146483 0.145223 0.144809
0.091740 0.092348 0.092883
0.097948 0.098957 0.099025
0.086191 0.085987 0.084874
0.270400 0.270529 0.269731
0.270669 0.256844 0.251660
0.141864 0.142650 0.144940
0.218958 0.217072 0.211782
0.281118 0.281402 0.282664
0.116999 0.116503 0.116346
0.310502 0.309196 0.307700
0.140965 0.141227 0.141908
0.089280 0.089410 0.089488
0.085386 0.085684 0.085131
0.103458 0.103454 0.103637
0.081715 0.082985 0.082727
0.190300 0.188001 0.187863
0.119232 0.120497 0.120492
0.096472 0.096203 0.096295
0.101987 0.102042 0.101799
0.117032 0.116329 0.115552
0.092580 0.093598 0.095116
0.105900 0.105381 0.107439
0.097651 0.097845 0.096123
0.111121 0.111105 0.110530
0.077041 0.077047 0.077566
0.069989 0.069343 0.069209
0.099937 0.099999 0.099851
0.136897 0.137003 0.136722
0.084600 0.084545 0.084072
0.111654 0.110921 0.106343
0.115847 0.115068 0.115059
0.138975 0.138654 0.137798
0.082330 0.082306 0.082181
0.172452 0.172132 0.170987
0.283196 0.283327 0.283411
0.090383 0.090449 0.090548
0.347687 0.353707 0.355113
0.286464 0.285762 0.280734
0.111058 0.111292 0.111390
0.260228 0.259047 0.259236
0.214029 0.214015 0.212250
0.376722 0.377036 0.375916
0.072460 0.072686 0.072544
0.092788 0.094236 0.094208
0.084303 0.084156 0.083913
0.344436 0.343276 0.342094
0.200648 0.199626 0.201307
0.109437 0.108874 0.108409
0.242470 0.244277 0.243352
0.339031 0.338771 0.338634
0.138697 0.138688 0.139078
0.103092 0.103339 0.104330
0.105215 0.105219 0.105440
0.115042 0.115283 0.115453
0.084424 0.081710 0.081130
0.174428 0.174603 0.175243
0.127082 0.127200 0.125897
0.201191 0.202582 0.204978
0.145527 0.145369 0.145895
0.099473 0.100457 0.100484
0.070566 0.070656 0.070483
0.128576 0.126346 0.125764
0.089780 0.089538 0.089903
0.140726 0.139890 0.120146
0.085524 0.084207 0.079889
0.101892 0.100894 0.098876
0.113782 0.112485 0.112288
0.101710 0.101163 0.095703
0.111986 0.108276 0.108323
0.114398 0.115561 0.115989
0.119583 0.120712 0.120506
0.117674 0.117038 0.117648
0.088625 0.087433 0.086714
0.141236 0.141352 0.140281
0.106307 0.107330 0.107704
0.124738 0.124388 0.124162
0.076198 0.077041 0.077047
0.127816 0.127755 0.127879
0.226993 0.224711 0.216976
0.119432 0.119726 0.121066
0.103172 0.102940 0.103243
0.276509 0.278317 0.279797
0.338280 0.337813 0.334134
0.109187 0.108915 0.108914
0.218115 0.217547 0.217279
0.135158 0.135624 0.136361
0.135533 0.135230 0.135357
0.129591 0.135163 0.140128
0.318535 0.325015 0.342338
0.096535 0.096242 0.096269
0.226067 0.226154 0.220521
0.086128 0.085934 0.086016
0.081228 0.080823 0.080583
0.078847 0.078935 0.079536
0.100935 0.100447 0.099693
0.320677 0.320789 0.319568
0.102775 0.102755 0.102610
0.089943 0.089992 0.089935
0.085457 0.084623 0.084015
0.071054 0.070914 0.072041
0.111767 0.111710 0.111858
0.085643 0.085184 0.085774
0.086242 0.089786 0.090306
0.104393 0.104970 0.105255
0.197451 0.195942 0.197905
0.084897 0.084929 0.087050
0.082527 0.082276 0.081235
0.108094 0.108048 0.107737
0.106599 0.106906 0.107030
0.085331 0.085690 0.085730
0.149083 0.149071 0.149003
0.246984 0.247540 0.247005
0.104257 0.104328 0.103644
0.245225 0.245688 0.246003
0.084923 0.084636 0.081865
0.117296 0.117607 0.117184
0.213508 0.213806 0.213532
0.108952 0.109063 0.108778
0.094406 0.094389 0.094684
0.115432 0.116073 0.129153
0.201518 0.201721 0.202370
0.101937 0.102069 0.102065
0.097470 0.097412 0.097255
0.082864 0.082967 0.083265
0.113063 0.114151 0.115095
0.217090 0.216159 0.219768
0.121321 0.120133 0.119860
0.086964 0.087377 0.086562
0.178144 0.174211 0.173391
0.072210 0.072708 0.073015
0.252346 0.251455 0.250658
0.218909 0.220551 0.219499
0.087394 0.088661 0.089335
0.120387 0.120345 0.120599
0.121089 0.120715 0.121646
0.108315 0.108393 0.110045
0.129358 0.129861 0.130122
0.105387 0.105900 0.105381
0.110209 0.110801 0.110304
0.106353 0.106307 0.107330
0.137523 0.144974 0.144349
0.092065 0.093141 0.091376
0.089275 0.089053 0.088729
0.331466 0.330844 0.328839
0.088235 0.088198 0.087960
0.108626 0.108910 0.108517
0.081134 0.081412 0.081632
0.246035 0.246295 0.242353
0.110921 0.110290 0.109587
0.295791 0.295758 0.296343
0.250650 0.247871 0.248042
0.102631 0.102005 0.101363
0.087996 0.087886 0.088358
0.323483 0.323047 0.322323
0.102069 0.102065 0.101480
0.136613 0.137629 0.137639
0.180678 0.178709 0.178304
0.100185 0.100390 0.100816
0.208086 0.207244 0.205458
0.122353 0.122462 0.122036
0.084171 0.086289 0.087024
0.099475 0.099740 0.099848
0.257928 0.257822 0.262262
0.255314 0.253735 0.257224
0.100832 0.100831 0.100805
0.270042 0.268352 0.266944
0.108006 0.108599 0.108391
0.220153 0.220637 0.219951
0.207162 0.207681 0.207043
0.399280 0.398880 0.399756
0.083844 0.084056 0.084290
0.112556 0.112124 0.112104
0.103402 0.103081 0.103243
0.104167 0.103875 0.103756
0.121508 0.121873 0.120854
0.113427 0.113919 0.114296
0.070900 0.070712 0.067996
0.280554 0.280674 0.280678
0.078514 0.078153 0.078198
0.094698 0.096301 0.099732
0.106534 0.107690 0.106910
0.102090 0.102014 0.101668
0.129178 0.129589 0.130077
0.156253 0.155867 0.157728
0.086036 0.086087 0.086659
0.088692 0.088898 0.089307
0.088424 0.087851 0.088082
0.101183 0.101165 0.103501
0.111894 0.111797 0.111815
0.092944 0.092961 0.094449
0.095659 0.094872 0.094925
0.101491 0.101130 0.100599
0.224452 0.222337 0.219337
0.098027 0.098111 0.098390
0.108605 0.108929 0.108512
0.220382 0.214983 0.213074
0.097838 0.098123 0.099617
0.095782 0.096125 0.095738
0.091445 0.092855 0.093725
0.071772 0.072715 0.072754
0.132911 0.133461 0.133944
0.077754 0.077884 0.077951
0.116351 0.116003 0.114402
0.224194 0.226269 0.226989
0.219619 0.219147 0.218988
0.216148 0.218491 0.217827
0.086749 0.086983 0.087056
0.092494 0.092502 0.091712
0.089528 0.090804 0.093482
0.105635 0.105998 0.105630
0.126724 0.128119 0.128847
0.146969 0.144114 0.142957
0.138045 0.141821 0.142594
0.234986 0.234953 0.235978
0.102994 0.103322 0.104547
0.248667 0.265977 0.267188
0.091106 0.091420 0.092124
0.140009 0.140137 0.140128
0.233480 0.233350 0.233383
0.101138 0.101104 0.101069
0.075630 0.075528 0.075555
0.087692 0.087933 0.087928
0.130359 0.130297 0.130169
0.106157 0.105478 0.105322
0.100769 0.101246 0.101318
0.088261 0.088900 0.089717
0.124171 0.124008 0.121893
0.120306 0.121216 0.121766
0.073114 0.073655 0.075558
0.094588 0.095042 0.099496
0.090746 0.090941 0.090684
0.232965 0.233555 0.235700
0.237027 0.232966 0.233043
0.296181 0.300115 0.300687
0.100089 0.099698 0.099797
0.139076 0.139078 0.138930
0.227906 0.226047 0.225871
0.132989 0.132667 0.132946
0.180807 0.182076 0.182339
0.231950 0.229736 0.225111
0.190356 0.189875 0.189710
0.095192 0.095331 0.094552
0.297920 0.305641 0.340507
0.226638 0.222959 0.222345
0.088083 0.088955 0.090207
0.086058 0.085856 0.084860
0.231944 0.233515 0.239067
0.086925 0.086515 0.085260
0.112344 0.111973 0.113616
0.130498 0.130267 0.131458
0.177169 0.179494 0.180621
0.084377 0.084562 0.085706
0.226972 0.226993 0.224711
0.129759 0.129124 0.131177
0.080940 0.080781 0.080599
0.316352 0.317690 0.323640
0.089418 0.089146 0.090077
0.122138 0.122293 0.122353
0.273539 0.272444 0.272710
0.194789 0.194668 0.194702
0.095050 0.094807 0.093606
0.203129 0.202027 0.201920
0.087488 0.086049 0.086018
0.090514 0.091023 0.091638
0.127450 0.127262 0.127335
0.095071 0.094998 0.094869
0.179679 0.178336 0.178269
0.140568 0.141532 0.141919
0.089088 0.089256 0.089395
0.101789 0.101350 0.101260
0.119577 0.118868 0.118548
0.098517 0.098274 0.098302
0.122694 0.122750 0.122754
0.215631 0.214303 0.214427
0.077355 0.077813 0.079341
0.235387 0.227927 0.225158
0.083781 0.083773 0.083853
0.226493 0.226621 0.228332
0.120726 0.119710 0.116559
0.227538 0.227161 0.227310
0.134369 0.134534 0.134548
0.096361 0.096530 0.096496
0.095175 0.094471 0.094730
0.076630 0.076658 0.076094
0.285136 0.286517 0.286292
0.077281 0.077314 0.077193
0.240550 0.239959 0.240677
0.250373 0.254817 0.255326
0.248832 0.247685 0.248508
0.118165 0.117932 0.117157
0.113932 0.114093 0.112406
0.226734 0.227508 0.233617
0.242794 0.241216 0.235870
0.256051 0.252967 0.251858
0.229772 0.229567 0.229730
0.148414 0.149356 0.149267
0.175272 0.172385 0.172078
0.099932 0.099735 0.098409
0.128870 0.129054 0.129263
0.067697 0.068072 0.067876
0.136485 0.135766 0.132632
0.213616 0.214257 0.213556
0.331857 0.331754 0.331679
0.217884 0.217512 0.218908
0.080593 0.080636 0.080730
0.103058 0.103054 0.100958
0.331497 0.331249 0.325483
0.069156 0.069422 0.068967
0.270391 0.302259 0.305590
