0.015283 0.015246 0.015073
0.015968 0.016129 0.016235
0.018009 0.017909 0.017871
0.013259 0.013246 0.013286
0.016447 0.016431 0.016512
0.014705 0.014740 0.015298
0.016004 0.016019 0.015952
0.015570 0.015606 0.015606
0.015839 0.015913 0.015891
0.016609 0.016657 0.016625
0.014741 0.014829 0.014871
0.016689 0.016575 0.016558
0.015279 0.014864 0.014586
0.014587 0.014652 0.015023
0.017324 0.017209 0.017158
0.017077 0.017069 0.016932
0.014157 0.014170 0.014157
0.018301 0.018698 0.018946
0.016897 0.016896 0.016926
0.016829 0.016847 0.016861
0.017135 0.017241 0.017304
0.015966 0.015878 0.015823
0.016044 0.016102 0.016096
0.018106 0.018126 0.018104
0.017959 0.018038 0.018059
0.017747 0.017761 0.017760
0.014037 0.014040 0.014010
0.016064 0.016047 0.016103
0.018327 0.018326 0.018329
0.013914 0.013907 0.013940
0.017213 0.017248 0.017271
0.018469 0.018470 0.018379
0.016516 0.016503 0.016543
0.016447 0.016444 0.016459
0.017387 0.017267 0.017174
0.017527 0.017223 0.016714
0.015482 0.015884 0.015892
0.017581 0.017539 0.017514
0.017517 0.017638 0.017784
0.016708 0.016721 0.016699
0.017589 0.017579 0.017611
0.016718 0.016820 0.016957
0.017706 0.017758 0.017778
0.015778 0.015783 0.015798
0.014251 0.014386 0.014529
0.015143 0.015133 0.015156
0.014228 0.014214 0.014174
0.015141 0.015160 0.016142
0.017391 0.017476 0.017580
0.017629 0.017492 0.017366
0.016888 0.016944 0.016947
0.017389 0.017352 0.017224
0.016805 0.016786 0.016902
0.015226 0.015220 0.015219
0.014265 0.014263 0.014256
0.014757 0.014868 0.015451
0.017310 0.017324 0.017386
0.016612 0.016139 0.015942
0.017129 0.015940 0.015617
0.015855 0.015945 0.016006
0.015788 0.015860 0.015917
0.020148 0.020107 0.019966
0.014170 0.014157 0.014180
0.015676 0.015699 0.015661
0.019086 0.019368 0.019437
0.014088 0.014089 0.014119
0.016474 0.016409 0.015968
0.016252 0.016262 0.016219
0.016174 0.016193 0.016271
0.013776 0.013967 0.014112
0.015942 0.016903 0.017103
0.016430 0.016432 0.016455
0.016439 0.016447 0.016414
0.015111 0.015054 0.015072
0.017710 0.017790 0.017782
0.017749 0.018073 0.018115
0.015936 0.015921 0.015905
0.015726 0.015744 0.015780
0.015017 0.014978 0.015034
0.015698 0.015706 0.015691
0.015829 0.015813 0.015809
0.013616 0.013635 0.013619
0.017357 0.017426 0.017517
0.016158 0.016192 0.016227
0.014879 0.014780 0.014781
0.015157 0.015163 0.015187
0.016237 0.016963 0.017110
0.017191 0.017220 0.017209
0.014987 0.014906 0.014836
0.017691 0.017621 0.017649
0.015126 0.015065 0.015062
0.015718 0.015771 0.015854
0.015831 0.015829 0.015859
0.015556 0.015683 0.015730
0.016473 0.016585 0.016623
0.015817 0.016541 0.016645
0.015745 0.016020 0.016071
0.017400 0.017490 0.017594
0.016353 0.016405 0.016480
0.016755 0.016751 0.016680
0.016460 0.016445 0.016448
0.016971 0.016951 0.016919
0.014250 0.014184 0.014184
0.015507 0.015557 0.015321
0.018460 0.018469 0.018442
0.016052 0.016081 0.016082
0.016774 0.016724 0.016618
0.015890 0.015936 0.015051
0.020364 0.020327 0.020314
0.015980 0.015963 0.015960
0.015339 0.015165 0.015025
0.016964 0.016667 0.016546
0.014023 0.014090 0.014488
0.016115 0.015456 0.015203
0.016906 0.017166 0.017394
0.014991 0.015037 0.015081
0.018551 0.019146 0.019264
0.015081 0.015098 0.015106
0.016003 0.016130 0.016151
0.017312 0.017265 0.017210
0.015970 0.015950 0.015948
0.016641 0.016653 0.016661
0.015576 0.015621 0.015640
0.015677 0.015268 0.015219
0.015636 0.015656 0.015835
0.016806 0.017254 0.017533
0.016971 0.016940 0.016828
0.016671 0.016637 0.016567
0.016596 0.016745 0.016794
0.017729 0.018512 0.018928
0.014931 0.014933 0.014921
0.016741 0.016719 0.016729
0.015569 0.015556 0.015714
0.015442 0.015506 0.015522
0.017737 0.017837 0.017856
0.015279 0.015146 0.015111
0.014026 0.013995 0.013948
0.016249 0.016229 0.016075
0.017924 0.017933 0.018659
0.017467 0.017570 0.017593
0.015849 0.015840 0.015587
0.015591 0.015561 0.015642
0.015515 0.015582 0.016049
0.015879 0.015855 0.015833
0.016469 0.016480 0.016444
0.017607 0.017605 0.017609
0.017277 0.017272 0.017243
0.015225 0.015602 0.016350
0.014900 0.014996 0.015112
0.017136 0.016904 0.017320
0.018516 0.018496 0.018508
0.016951 0.016797 0.016782
0.020178 0.020146 0.020106
0.016439 0.016385 0.016251
0.013738 0.013742 0.013687
0.016103 0.016174 0.016153
0.015398 0.015388 0.015382
0.015234 0.015287 0.015251
0.016594 0.016610 0.016582
0.015737 0.015678 0.015689
0.015777 0.015754 0.015727
0.015750 0.015637 0.016199
0.016850 0.016767 0.016802
0.017967 0.017946 0.017974
0.015914 0.015860 0.015810
0.015186 0.015646 0.016207
0.015105 0.015169 0.015227
0.015005 0.015565 0.015822
0.017856 0.017851 0.017861
0.016151 0.016423 0.016501
0.015380 0.015310 0.014914
0.015715 0.015780 0.016119
0.017585 0.017599 0.017537
0.015489 0.015817 0.015862
0.015656 0.015610 0.015558
0.017812 0.018045 0.017348
0.016489 0.016527 0.016594
0.016330 0.016315 0.016275
0.015940 0.015933 0.015933
0.013782 0.014008 0.015418
0.015895 0.015915 0.015858
0.017165 0.017165 0.017163
0.015786 0.016110 0.016014
0.016981 0.016898 0.016899
0.016063 0.015792 0.015507
0.015565 0.015323 0.015232
0.015223 0.015689 0.015792
0.014265 0.014352 0.014386
0.017387 0.017376 0.017398
0.014064 0.014713 0.014901
0.015172 0.015756 0.015781
0.015020 0.014998 0.015036
0.016525 0.016397 0.016436
0.016659 0.016855 0.017342
0.014179 0.014358 0.015289
0.015672 0.015525 0.015465
0.016231 0.015980 0.015851
0.017492 0.017289 0.017454
0.015529 0.015518 0.015495
0.014708 0.014725 0.014756
0.018323 0.018297 0.018248
0.015107 0.015174 0.015234
0.016843 0.016760 0.016838
0.015658 0.015710 0.015728
0.016393 0.016004 0.015268
0.016049 0.016093 0.016152
0.020359 0.020437 0.020477
0.015769 0.015748 0.015693
0.015326 0.015103 0.015025
0.015739 0.015789 0.015439
0.015252 0.015069 0.015061
0.016237 0.016261 0.016333
0.016519 0.016523 0.016509
0.017507 0.017131 0.016860
0.014512 0.014319 0.014266
0.017139 0.016964 0.016667
0.016458 0.016869 0.016963
0.015981 0.016014 0.014796
0.017125 0.017138 0.017257
0.017113 0.016210 0.015792
0.015578 0.015431 0.015437
0.018161 0.018293 0.018354
0.016404 0.016397 0.016430
0.014507 0.014556 0.014621
0.018116 0.018163 0.018219
0.016902 0.016891 0.016918
0.015841 0.015593 0.015463
0.014992 0.015034 0.015085
0.019762 0.019762 0.019819
0.014572 0.014638 0.014632
0.014938 0.015023 0.015682
0.016286 0.016630 0.016719
0.013611 0.013694 0.013749
0.016206 0.015972 0.015878
0.015008 0.015070 0.015081
0.016463 0.016387 0.016449
0.014311 0.014136 0.014047
0.015924 0.015669 0.015569
0.015179 0.015232 0.015237
0.016841 0.017289 0.017686
0.016721 0.016699 0.016736
0.016129 0.015686 0.015155
0.017373 0.017428 0.017369
0.016198 0.016202 0.016258
0.014096 0.014161 0.014159
0.015820 0.015774 0.015734
0.016551 0.016400 0.015978
0.017896 0.018095 0.018103
0.016336 0.016216 0.015904
0.016786 0.016843 0.016855
0.015786 0.015449 0.015457
0.015659 0.015798 0.015944
0.016620 0.016579 0.016484
0.015990 0.015961 0.015912
0.015524 0.015472 0.015356
0.015499 0.015493 0.015464
0.015471 0.015380 0.015310
0.015684 0.015687 0.015710
0.014105 0.014171 0.014179
0.015752 0.015816 0.015801
0.016034 0.015964 0.015920
0.015259 0.015235 0.015205
0.017537 0.017538 0.017479
0.016797 0.016756 0.016660
0.016582 0.016377 0.016419
0.016984 0.017009 0.017149
0.020488 0.020491 0.020488
0.016937 0.016925 0.016943
0.016869 0.016818 0.016849
0.017473 0.017519 0.017475
0.015566 0.015539 0.015446
0.014769 0.014754 0.014772
0.015232 0.015229 0.015176
0.015994 0.015947 0.015814
0.014044 0.014046 0.014166
0.014979 0.014971 0.014960
0.015206 0.015230 0.015199
0.015297 0.015378 0.015770
0.018511 0.018487 0.018475
0.015912 0.015854 0.015787
0.016947 0.016894 0.016941
0.014735 0.014732 0.014794
0.015710 0.015765 0.015880
0.015862 0.016557 0.016696
0.015687 0.015734 0.015734
0.016578 0.016573 0.016644
0.016481 0.017082 0.017305
0.017304 0.017320 0.017308
0.014165 0.013957 0.013871
0.015764 0.015740 0.015595
0.016828 0.016834 0.015596
0.014909 0.015061 0.015052
0.015034 0.014604 0.014249
0.015421 0.015387 0.015384
0.015852 0.014711 0.015370
0.016218 0.016294 0.016192
0.016025 0.016135 0.016221
0.015470 0.015398 0.015325
0.014239 0.014201 0.014150
0.015424 0.015338 0.015137
0.015904 0.015882 0.015898
0.015875 0.015862 0.015877
0.016411 0.016754 0.016850
0.015437 0.015495 0.015914
0.014607 0.014744 0.014777
0.015770 0.015780 0.015790
0.014872 0.014908 0.014940
0.014851 0.014859 0.014855
0.015743 0.016320 0.016907
0.014939 0.014929 0.014870
0.017463 0.017593 0.017594
0.014830 0.014906 0.014935
0.015766 0.016155 0.016253
0.017073 0.017365 0.017380
0.015999 0.016005 0.016026
0.015092 0.015530 0.015644
0.014939 0.014960 0.014931
0.015684 0.016180 0.016336
0.017663 0.017628 0.017581
0.014204 0.014238 0.014172
0.015170 0.015167 0.015157
0.017634 0.017630 0.017550
0.015850 0.015832 0.015842
0.018112 0.018098 0.018105
0.017740 0.017684 0.017267
0.016637 0.016543 0.016577
0.019897 0.019787 0.019761
0.016738 0.016762 0.016674
0.015519 0.015344 0.015278
0.018330 0.018344 0.018349
0.014864 0.014967 0.015270
0.016934 0.017234 0.017079
0.016961 0.017006 0.017520
0.015397 0.015609 0.015722
0.016042 0.016039 0.015883
0.015634 0.015565 0.015323
0.016613 0.015989 0.015837
0.015458 0.014862 0.014705
0.014212 0.014159 0.014129
0.017281 0.017274 0.017213
0.014541 0.014519 0.014494
0.018011 0.017550 0.017048
0.015454 0.015426 0.015427
0.014815 0.014991 0.015407
0.016448 0.015482 0.015884
0.016173 0.016122 0.016129
0.014946 0.015030 0.014978
0.016348 0.016566 0.015899
0.016617 0.016558 0.016206
0.015128 0.015284 0.015447
0.017640 0.017584 0.017510
0.015375 0.013879 0.013750
0.016547 0.016662 0.016679
0.016339 0.016611 0.016700
0.015331 0.015323 0.015291
0.014857 0.014829 0.014806
0.015810 0.015746 0.015603
0.016001 0.015355 0.015183
0.016036 0.016002 0.015965
0.016069 0.016442 0.016388
0.016663 0.016613 0.016675
0.015573 0.015575 0.015494
0.016512 0.016744 0.017282
0.015450 0.015103 0.015108
0.014279 0.014265 0.014393
0.015884 0.015848 0.015766
0.014759 0.014455 0.014065
0.015209 0.015450 0.016010
0.017322 0.017369 0.017237
0.015880 0.015724 0.016077
0.015007 0.015026 0.015095
0.016663 0.016589 0.016580
0.016456 0.016942 0.017070
0.014562 0.014706 0.015273
0.015383 0.015616 0.015724
0.015025 0.015123 0.016008
0.017975 0.017867 0.017773
0.014970 0.014954 0.014923
0.017396 0.017310 0.017316
0.016156 0.016582 0.016811
0.015413 0.015399 0.015369
0.018344 0.018349 0.018514
0.014628 0.015135 0.015266
0.015938 0.015685 0.015292
0.015719 0.015737 0.015711
0.014635 0.014633 0.014689
0.014610 0.014532 0.014593
0.015934 0.015935 0.015957
0.017152 0.017175 0.017027
0.016604 0.016410 0.016256
0.017519 0.017475 0.017460
0.017091 0.017410 0.017388
0.016041 0.016108 0.016216
0.020485 0.020335 0.020318
0.016252 0.016223 0.016213
0.016754 0.016756 0.016841
0.015025 0.014956 0.015098
0.017475 0.017460 0.017351
0.015958 0.015902 0.015996
0.016448 0.016456 0.016467
0.014859 0.014891 0.014902
0.016052 0.016118 0.016128
0.014076 0.013961 0.013931
0.015254 0.015349 0.015374
0.017204 0.017156 0.017143
0.016641 0.016645 0.016632
0.017476 0.017520 0.017532
0.015912 0.015837 0.015759
0.016284 0.016329 0.016427
0.017988 0.018173 0.018219
0.016598 0.016673 0.016609
0.015879 0.015753 0.015677
0.016581 0.017440 0.017635
0.015175 0.015229 0.015238
0.015876 0.015802 0.015835
0.015242 0.015269 0.015914
0.015674 0.015424 0.015338
0.016910 0.016829 0.016847
0.014670 0.014679 0.014700
0.015311 0.015105 0.015050
0.015871 0.016005 0.016017
0.016215 0.016433 0.016614
0.018205 0.018148 0.017232
0.014957 0.015929 0.016013
0.016393 0.016925 0.016917
0.015948 0.015981 0.015892
0.016700 0.016807 0.016589
0.020305 0.020233 0.020240
0.015658 0.015288 0.014862
0.015958 0.016249 0.016425
0.016592 0.016187 0.015908
0.015368 0.015397 0.016462
0.016867 0.016834 0.016822
0.015734 0.015736 0.015771
0.015166 0.015164 0.015609
0.014998 0.014994 0.015040
0.016128 0.015348 0.015374
0.015226 0.015363 0.015346
0.016573 0.016590 0.016585
0.017444 0.017490 0.017523
0.014747 0.014864 0.015038
0.015120 0.015142 0.015118
0.017449 0.017484 0.017490
0.014937 0.014917 0.015024
0.015786 0.015795 0.015800
0.018101 0.018164 0.018230
0.014746 0.014721 0.014728
0.015673 0.015656 0.015610
0.016251 0.016478 0.016668
0.016292 0.016162 0.015665
0.016305 0.016288 0.016257
0.015337 0.015396 0.015423
0.015884 0.015915 0.016185
0.015985 0.015820 0.015793
0.015553 0.015526 0.015524
0.014875 0.014839 0.014765
0.014528 0.014579 0.014598
0.018204 0.018399 0.018454
0.016068 0.016075 0.016002
0.015352 0.015380 0.015448
0.017752 0.017661 0.017669
0.016293 0.016285 0.016359
0.014613 0.013928 0.013612
0.017019 0.017039 0.017073
0.015119 0.016130 0.016162
0.016998 0.016635 0.016772
0.017210 0.017584 0.017343
0.015184 0.015643 0.015903
0.015217 0.015392 0.015795
0.016975 0.016883 0.016830
0.015130 0.015157 0.015091
0.018472 0.018452 0.018146
0.016012 0.015989 0.015917
0.015360 0.015130 0.015075
0.016565 0.016693 0.016779
0.018573 0.018569 0.018557
0.017114 0.017150 0.017185
0.013986 0.014010 0.014046
0.016645 0.016652 0.016570
0.017152 0.017137 0.017130
0.016218 0.016187 0.016179
0.016230 0.016343 0.016343
0.016502 0.016557 0.016538
0.014498 0.014507 0.014541
0.016754 0.016717 0.016704
0.016210 0.016237 0.016303
0.015640 0.015655 0.015725
0.016431 0.016463 0.016484
0.015827 0.015763 0.015723
0.016554 0.016550 0.016549
0.017320 0.017108 0.016503
0.015683 0.015651 0.015690
0.016932 0.016968 0.016902
0.017421 0.017860 0.018149
0.015106 0.014601 0.014455
0.014312 0.014703 0.015090
0.016819 0.016723 0.016289
0.015862 0.015897 0.015948
0.019405 0.018339 0.018307
0.016898 0.016927 0.016931
0.015964 0.016052 0.016069
0.015774 0.015225 0.014911
0.016237 0.016267 0.016220
0.015007 0.014511 0.014174
0.017937 0.017635 0.017486
0.020479 0.020420 0.020333
0.014732 0.014973 0.015023
0.017518 0.017512 0.017569
0.016304 0.015788 0.015432
0.016067 0.015950 0.015872
0.019494 0.019456 0.019441
0.017927 0.017829 0.017534
0.015886 0.015893 0.015918
0.016421 0.016726 0.016802
0.016917 0.017788 0.017945
0.016153 0.016142 0.016149
0.015961 0.016379 0.016525
0.017755 0.017766 0.017742
0.016826 0.017727 0.017773
0.014646 0.015649 0.015851
0.015841 0.015750 0.015101
0.018384 0.018462 0.018474
0.017166 0.017394 0.017411
0.013563 0.013174 0.012985
0.016472 0.016378 0.016327
0.017293 0.016712 0.016573
0.015355 0.015281 0.015378
0.019159 0.019171 0.019221
0.015509 0.015427 0.015437
0.014872 0.014914 0.014972
0.014812 0.014447 0.014045
0.017481 0.017408 0.017430
0.015912 0.015840 0.015877
0.019761 0.019756 0.019769
0.015673 0.015685 0.015683
0.016961 0.016990 0.017166
0.016297 0.016336 0.016447
0.016744 0.016615 0.016555
0.015471 0.015311 0.015197
0.015295 0.015341 0.015393
0.015485 0.015320 0.015804
0.014841 0.014856 0.014829
0.015879 0.015118 0.014924
0.017665 0.017677 0.017650
0.016234 0.016212 0.016215
0.013957 0.014047 0.014039
0.015809 0.015670 0.015719
0.016432 0.016450 0.016410
0.015345 0.015417 0.015460
0.015012 0.014794 0.014497
0.017350 0.016872 0.016811
0.014906 0.014872 0.014862
0.016784 0.016878 0.016877
0.016262 0.016209 0.016171
0.018465 0.017836 0.017610
0.017234 0.017231 0.017268
0.016239 0.016247 0.016268
0.016465 0.016479 0.016556
0.015757 0.015558 0.015572
0.015389 0.015573 0.015593
0.018150 0.018396 0.018531
0.019794 0.020275 0.020666
0.016817 0.016775 0.016720
0.016619 0.016626 0.016636
0.014601 0.014569 0.014537
0.016814 0.016735 0.016745
0.016265 0.016316 0.016325
0.016466 0.016238 0.015295
0.016533 0.016132 0.015633
0.015398 0.015381 0.015412
0.017943 0.018010 0.018099
0.015226 0.015212 0.015301
0.016404 0.016404 0.016440
0.014682 0.014605 0.014557
0.017397 0.017483 0.017495
0.017267 0.017234 0.017216
0.015548 0.015559 0.015610
0.014791 0.014646 0.014946
0.019024 0.018964 0.018989
0.015887 0.015896 0.015874
0.015685 0.015736 0.015959
0.014481 0.014243 0.014155
0.019119 0.019044 0.019028
0.016235 0.016208 0.016226
0.015520 0.015525 0.015499
0.014544 0.014586 0.014642
0.015986 0.016055 0.016141
0.016117 0.016265 0.016281
0.014923 0.014929 0.014969
0.014979 0.015176 0.015154
0.016229 0.016074 0.015944
0.017813 0.017758 0.017783
0.015840 0.015587 0.015066
0.015280 0.015299 0.015263
0.014679 0.014663 0.014629
0.014649 0.014621 0.014575
0.017888 0.017854 0.017875
0.015771 0.015854 0.015840
0.015231 0.015199 0.015184
0.015550 0.015549 0.015536
0.017016 0.017171 0.017554
0.016211 0.016205 0.016141
0.014353 0.014568 0.014658
0.016688 0.016960 0.017043
0.015129 0.015156 0.015168
0.016054 0.016112 0.016127
0.015941 0.015479 0.015236
0.014380 0.014284 0.014264
0.016436 0.016448 0.015482
0.016587 0.016592 0.016628
0.016762 0.016963 0.016974
0.015827 0.015824 0.015838
0.016944 0.017005 0.017261
0.015715 0.015739 0.015729
0.017119 0.017075 0.017074
0.017074 0.017167 0.017161
0.016554 0.016872 0.017024
0.016509 0.016165 0.016064
0.016350 0.016338 0.016361
0.015554 0.015562 0.015571
0.015510 0.015519 0.015525
0.015732 0.015765 0.015802
0.016010 0.015980 0.016020
0.014532 0.014514 0.014501
0.014617 0.014716 0.014747
0.018022 0.018015 0.017999
0.014975 0.015003 0.015385
0.016984 0.016998 0.016978
0.016792 0.016558 0.016388
0.017281 0.016943 0.016275
0.016212 0.016215 0.016309
0.017421 0.017447 0.017465
0.017083 0.017052 0.017030
0.015902 0.016498 0.016664
0.016059 0.015924 0.015892
0.015984 0.015984 0.015845
0.015591 0.015195 0.015192
0.016701 0.016163 0.016022
0.017291 0.017308 0.017346
0.017472 0.017425 0.017353
0.018014 0.017762 0.017648
0.016599 0.016661 0.016644
0.015311 0.015275 0.015265
0.015161 0.015577 0.015804
0.016585 0.016765 0.016924
0.017861 0.017876 0.017885
0.015914 0.016008 0.015978
0.014072 0.014101 0.014133
0.015816 0.015801 0.015915
0.014076 0.014025 0.014019
0.016967 0.016957 0.016955
0.013600 0.013629 0.013787
0.016807 0.016589 0.017170
0.017410 0.017388 0.017402
0.018980 0.019054 0.018799
0.014948 0.013758 0.013366
0.015619 0.015159 0.015140
0.016386 0.016385 0.016393
0.018069 0.018062 0.018046
0.015524 0.015542 0.015553
0.014114 0.014122 0.014248
0.015802 0.015843 0.015763
0.016976 0.016983 0.016870
0.016567 0.016760 0.016705
0.015850 0.015825 0.015843
0.016587 0.016575 0.016584
0.017805 0.017719 0.017518
0.018283 0.017292 0.017193
0.013939 0.014009 0.014011
0.016328 0.016416 0.016664
0.015067 0.015094 0.015058
0.019314 0.018999 0.018922
0.016917 0.016874 0.016925
0.016349 0.016360 0.016606
0.016664 0.016693 0.016598
0.015635 0.015550 0.015507
0.015238 0.015386 0.015475
0.017068 0.016960 0.016685
0.017229 0.017124 0.017113
0.015461 0.015508 0.015780
0.016601 0.016626 0.016620
0.016186 0.016199 0.016178
0.015199 0.015295 0.015279
0.015082 0.014781 0.014709
0.017234 0.017283 0.016437
0.015567 0.015858 0.016065
0.016534 0.016528 0.016662
0.016947 0.016916 0.016914
0.015284 0.015380 0.015367
0.015841 0.015846 0.015857
0.017329 0.017322 0.017307
0.016462 0.016517 0.016546
0.013722 0.014864 0.014917
0.017614 0.017596 0.017676
0.015575 0.015572 0.015525
0.015011 0.014982 0.014995
0.015612 0.015716 0.015848
0.016106 0.016114 0.016096
0.016719 0.016667 0.016672
0.015172 0.015259 0.015216
0.015654 0.015668 0.015731
0.014771 0.015176 0.015397
0.014172 0.014089 0.014063
0.015066 0.014938 0.014928
0.017271 0.017273 0.017238
0.015514 0.015463 0.015321
0.016512 0.016396 0.016026
0.015194 0.015212 0.015209
0.016075 0.016079 0.016079
0.015409 0.015499 0.015493
0.015299 0.015317 0.015320
0.014427 0.014444 0.014503
0.015402 0.015466 0.015489
0.015566 0.015560 0.015705
0.017046 0.017049 0.017062
0.013687 0.013650 0.013625
0.016906 0.016870 0.016839
0.014112 0.014149 0.014008
0.015366 0.015267 0.015325
0.015400 0.016052 0.016275
0.014813 0.014797 0.014812
0.014793 0.014810 0.014858
0.014612 0.014100 0.013583
0.015596 0.015554 0.015551
0.017760 0.017771 0.017699
0.015504 0.015348 0.015319
0.016940 0.016894 0.016891
0.014118 0.014222 0.014124
0.015802 0.015841 0.015827
0.015146 0.015143 0.015125
0.015147 0.015141 0.015186
0.016540 0.015755 0.015745
0.017224 0.017252 0.017283
0.015928 0.015722 0.015565
0.015283 0.015116 0.014755
0.015634 0.015740 0.015785
0.016633 0.016982 0.016981
0.015511 0.015597 0.015562
0.015954 0.015749 0.015668
0.015123 0.014940 0.014888
0.014832 0.014842 0.014856
0.015827 0.015639 0.015622
0.017788 0.017563 0.017486
0.016509 0.016538 0.016526
0.014118 0.014256 0.014280
0.015145 0.015142 0.015160
0.015531 0.015520 0.015603
0.014310 0.014422 0.014579
0.017401 0.017396 0.017311
0.015688 0.015805 0.015877
0.017391 0.016672 0.016548
0.017733 0.017746 0.017714
0.014781 0.014796 0.014786
0.016688 0.016745 0.016712
0.016437 0.016327 0.016169
0.014366 0.014323 0.014343
0.014718 0.014744 0.014694
0.017561 0.017527 0.017223
0.016473 0.016940 0.017284
0.015795 0.015823 0.015841
0.016204 0.016274 0.016285
0.015786 0.014955 0.014645
0.017885 0.017867 0.017867
0.017447 0.017520 0.017586
0.014639 0.014634 0.014738
0.016812 0.016762 0.016963
0.017044 0.017207 0.018025
0.016387 0.016353 0.016229
0.015837 0.015632 0.015549
0.015919 0.015890 0.015887
0.015319 0.015355 0.015420
0.015553 0.015548 0.015682
0.017088 0.017064 0.017039
0.015807 0.015807 0.015829
0.016816 0.016875 0.016877
0.016295 0.016268 0.016273
0.015948 0.016038 0.016512
0.018015 0.017262 0.017193
0.016653 0.015985 0.015886
0.016677 0.016511 0.016457
0.015686 0.015703 0.015739
0.014713 0.014721 0.014723
0.014039 0.014014 0.014043
0.015783 0.015750 0.015826
0.017279 0.017408 0.017474
0.018548 0.018452 0.018099
0.014815 0.015264 0.015612
0.015674 0.016065 0.016388
0.017005 0.016934 0.016874
0.020181 0.020150 0.020106
0.015893 0.015918 0.015921
0.016261 0.016953 0.017311
0.016197 0.016179 0.016245
0.015620 0.015590 0.014922
0.015930 0.015883 0.015819
0.016473 0.016371 0.016334
0.015125 0.015449 0.015365
0.016308 0.016319 0.016272
0.015060 0.015172 0.015495
0.015619 0.015590 0.015610
0.015272 0.014917 0.014808
0.015497 0.016085 0.016347
0.016619 0.015953 0.015818
0.016136 0.016215 0.016196
0.016754 0.016549 0.016400
0.016652 0.016658 0.017210
0.016776 0.016831 0.016862
0.016445 0.017079 0.017187
0.016702 0.016580 0.016550
0.013994 0.013993 0.013996
0.015498 0.015663 0.015737
0.015883 0.015928 0.015870
0.015793 0.015780 0.015785
0.015561 0.015543 0.015545
0.016314 0.016938 0.017064
0.015135 0.014873 0.014431
0.014799 0.014822 0.014826
0.016953 0.016501 0.016386
0.016011 0.016595 0.016735
0.014804 0.014796 0.014803
0.013322 0.013330 0.013408
0.015987 0.015846 0.015833
0.016831 0.016809 0.016710
0.014808 0.014847 0.015325
0.015909 0.016358 0.016552
0.017733 0.017702 0.017587
0.016587 0.016486 0.016466
0.016082 0.016096 0.016439
0.014947 0.014982 0.014977
0.016727 0.016806 0.017254
0.016275 0.016200 0.015935
0.015281 0.015105 0.014900
0.015541 0.015449 0.015411
0.017830 0.017570 0.017446
0.017715 0.018011 0.018208
0.016115 0.016083 0.016072
0.017397 0.017313 0.017159
0.018018 0.018066 0.018064
0.015708 0.015941 0.015831
0.014782 0.014750 0.014754
0.012514 0.013945 0.013984
0.015958 0.015853 0.015804
0.015915 0.015934 0.015944
0.014879 0.014752 0.014739
0.014662 0.014738 0.015076
0.017657 0.017590 0.017508
0.015120 0.015091 0.015155
0.017562 0.017163 0.017049
0.015019 0.015024 0.015039
0.016409 0.016294 0.016162
0.016667 0.016660 0.016662
0.017861 0.017832 0.017899
0.015945 0.015985 0.015798
0.016893 0.016831 0.016784
0.013980 0.013950 0.013954
0.015934 0.015997 0.016006
0.018743 0.018896 0.018941
0.014553 0.014576 0.014500
0.016244 0.016246 0.016237
0.015285 0.015425 0.015451
0.014908 0.013950 0.013866
0.015490 0.015674 0.015940
0.016848 0.016588 0.016776
0.015012 0.014968 0.014989
0.017051 0.017675 0.017910
0.018159 0.018014 0.017975
0.017403 0.017429 0.017436
0.015219 0.015337 0.015256
0.014138 0.014390 0.014594
0.017575 0.017553 0.017570
0.015613 0.015592 0.015565
0.014183 0.014037 0.013962
0.015599 0.015590 0.015586
0.015336 0.015406 0.015358
0.015172 0.014912 0.014879
0.013457 0.013488 0.013501
0.015926 0.015879 0.015915
0.015817 0.015862 0.015856
0.017449 0.017532 0.017507
0.015867 0.015874 0.015927
0.015404 0.015160 0.015005
0.016265 0.016281 0.016264
0.017296 0.017396 0.017288
0.015684 0.015990 0.016019
0.014060 0.014076 0.014070
0.014169 0.014145 0.014123
0.016945 0.016958 0.016943
0.015793 0.015776 0.015779
0.016960 0.016625 0.016779
0.014924 0.014850 0.014813
0.017515 0.017514 0.017498
0.015823 0.015848 0.015835
0.016822 0.016839 0.016689
0.014953 0.014899 0.014981
0.015784 0.015675 0.015612
0.016136 0.016124 0.016036
0.015908 0.015787 0.015755
0.015813 0.015019 0.014925
0.017417 0.017456 0.017524
0.015677 0.015688 0.015805
0.015690 0.015701 0.015708
0.018007 0.018013 0.018028
0.015900 0.015843 0.015846
0.018976 0.018956 0.018529
0.015891 0.015768 0.015338
0.017704 0.017560 0.017413
0.014762 0.014944 0.015450
0.016124 0.016140 0.016647
0.015518 0.015495 0.015587
0.015329 0.014857 0.014808
0.013911 0.013910 0.013943
0.017459 0.017434 0.017474
0.016373 0.016525 0.016973
0.016416 0.016429 0.016358
0.017030 0.016826 0.016629
0.015536 0.015508 0.015647
0.016498 0.016531 0.016566
0.015813 0.015835 0.015767
0.016891 0.016922 0.016921
0.014657 0.014650 0.015224
0.016858 0.016860 0.016885
0.016679 0.016271 0.015966
0.016961 0.017111 0.017100
0.015695 0.015680 0.015577
0.014916 0.014974 0.015087
0.015175 0.015196 0.015192
0.015420 0.015376 0.015359
0.013762 0.013792 0.013844
0.016793 0.016817 0.016810
0.015688 0.015685 0.015688
0.016326 0.016298 0.016272
0.014716 0.014941 0.015038
0.016849 0.016468 0.016180
0.016876 0.016777 0.016392
0.016698 0.016761 0.016814
0.015534 0.015451 0.015294
0.017651 0.016764 0.016439
0.017057 0.017117 0.017095
0.015895 0.015801 0.015769
0.017849 0.017957 0.018354
0.016893 0.016892 0.016869
0.015262 0.015181 0.015128
0.015874 0.015913 0.015983
0.016132 0.016045 0.016070
0.017143 0.017266 0.017095
0.017735 0.017699 0.017565
0.016426 0.016779 0.016939
0.015118 0.015514 0.015725
0.015318 0.015405 0.015352
0.016944 0.016837 0.016788
0.016296 0.016296 0.016433
0.016550 0.016555 0.016518
0.015478 0.015089 0.015453
0.016710 0.016595 0.016588
0.015827 0.015859 0.015761
0.015984 0.015813 0.015827
0.015960 0.015952 0.015959
0.017596 0.017609 0.017540
0.015200 0.015601 0.015920
0.016022 0.016030 0.016056
0.018418 0.018364 0.018350
0.017309 0.017351 0.017313
0.014748 0.015113 0.015301
0.016201 0.016946 0.017240
0.015826 0.015835 0.015876
0.019071 0.019080 0.019017
0.016668 0.016716 0.016708
0.015320 0.015804 0.015949
0.015795 0.015726 0.015758
0.015271 0.015244 0.015226
0.017401 0.017397 0.017313
0.014225 0.014228 0.014460
0.015484 0.016110 0.016340
0.016423 0.016447 0.016469
0.020758 0.021100 0.019973
0.016933 0.017516 0.017632
0.016819 0.016159 0.015491
0.015729 0.015712 0.015775
0.016881 0.016954 0.017051
0.015712 0.015775 0.015758
0.016235 0.016229 0.016249
0.015518 0.015566 0.015581
0.015174 0.015149 0.015141
0.015916 0.015119 0.014812
0.016555 0.016518 0.016166
0.015140 0.015182 0.015148
0.016163 0.016220 0.016211
0.017565 0.017584 0.017516
0.016783 0.016614 0.016569
0.017085 0.017027 0.017007
0.016167 0.016179 0.016245
0.015225 0.014911 0.014919
0.016197 0.016196 0.016177
0.015504 0.015525 0.015562
0.016050 0.016058 0.016063
0.014557 0.014660 0.014672
0.016110 0.016340 0.016410
0.021345 0.021000 0.020485
0.016785 0.016667 0.016655
0.015857 0.015719 0.015321
