0.179011 0.187685 0.194373
0.214397 0.220308 0.220342
0.217486 0.220196 0.219188
0.055866 0.056022 0.055778
0.074642 0.074779 0.074291
0.077752 0.077853 0.078692
0.150879 0.145302 0.145150
0.089209 0.089538 0.089837
0.191744 0.192864 0.194211
0.085662 0.086599 0.086402
0.093755 0.094988 0.096600
0.082982 0.083698 0.081667
0.328521 0.324806 0.323753
0.062408 0.062089 0.061646
0.213731 0.210999 0.206897
0.069275 0.069210 0.069618
0.264965 0.266679 0.267495
0.137746 0.137506 0.138474
0.128114 0.126803 0.125611
0.130918 0.124884 0.120432
0.200521 0.200173 0.200043
0.146439 0.146677 0.146720
0.140026 0.140233 0.141759
0.140005 0.138502 0.135658
0.210121 0.218540 0.221090
0.289987 0.289828 0.283161
0.169617 0.167153 0.167228
0.204017 0.205366 0.206232
0.209548 0.213754 0.214736
0.132241 0.133413 0.133053
0.124617 0.127181 0.128196
0.207257 0.206861 0.206828
0.101185 0.099803 0.094273
0.214923 0.217449 0.218315
0.134825 0.133009 0.131317
0.096477 0.096130 0.095522
0.241014 0.239527 0.239491
0.147208 0.147791 0.147852
0.131402 0.130335 0.130148
0.084258 0.084329 0.085857
0.080593 0.080740 0.080879
0.215151 0.214632 0.215555
0.124580 0.124421 0.124529
0.165279 0.179623 0.181823
0.135284 0.135914 0.138114
0.136971 0.136988 0.137018
0.075851 0.076271 0.077707
0.149403 0.148755 0.148861
0.195290 0.193795 0.193436
0.076899 0.076859 0.077491
0.240826 0.244564 0.244774
0.108219 0.108775 0.109749
0.095044 0.095230 0.094857
0.157985 0.158812 0.160038
0.108574 0.106778 0.106690
0.222333 0.221689 0.221597
0.188895 0.184146 0.180628
0.192182 0.192169 0.191940
0.078515 0.078440 0.078281
0.225345 0.232555 0.233660
0.165770 0.165665 0.165224
0.154369 0.154691 0.154509
0.094640 0.093976 0.094100
0.087491 0.085659 0.086438
0.085649 0.087395 0.087452
0.193261 0.193551 0.193991
0.185904 0.186105 0.184349
0.196412 0.195816 0.195749
0.108988 0.110086 0.110743
0.104765 0.104622 0.104871
0.087411 0.087869 0.088014
0.197494 0.201009 0.200091
0.068704 0.068518 0.068434
0.122674 0.122685 0.122934
0.269543 0.267771 0.264227
0.087713 0.082649 0.074328
0.068716 0.069153 0.068552
0.266454 0.269834 0.270936
0.189625 0.189776 0.189863
0.219875 0.220250 0.220430
0.174582 0.176014 0.175959
0.206804 0.207002 0.207167
0.175094 0.174910 0.174727
0.180296 0.180404 0.179603
0.110536 0.111197 0.110966
0.161801 0.161910 0.162414
0.056843 0.056744 0.056999
0.164023 0.162979 0.164212
0.182165 0.181357 0.181941
0.161191 0.165960 0.166116
0.069734 0.069940 0.069282
0.179956 0.180024 0.179934
0.188803 0.196364 0.199841
0.329566 0.328798 0.329427
0.075855 0.075897 0.074877
0.077628 0.076673 0.076487
0.175305 0.175896 0.175586
0.161522 0.161469 0.161190
0.234750 0.236268 0.234916
0.076967 0.077292 0.076499
0.131454 0.134093 0.138861
0.232177 0.231696 0.231916
0.172632 0.169241 0.168072
0.071496 0.071618 0.072101
0.258775 0.259571 0.260674
0.102932 0.103845 0.108321
0.253016 0.253639 0.255456
0.070086 0.069744 0.070048
0.051183 0.051237 0.051264
0.227513 0.230305 0.231587
0.076716 0.077025 0.076726
0.183648 0.193116 0.197312
0.103021 0.105143 0.108329
0.158356 0.160802 0.161217
0.055594 0.056695 0.060134
0.159605 0.159765 0.160783
0.083425 0.086673 0.087550
0.172740 0.169836 0.169866
0.159955 0.164450 0.165844
0.055872 0.056166 0.056218
0.065269 0.065656 0.065907
0.062188 0.063009 0.062894
0.165286 0.167352 0.167687
0.204294 0.204641 0.200854
0.156969 0.154756 0.154481
0.247617 0.247775 0.248407
0.110678 0.111151 0.109419
0.226142 0.226705 0.227165
0.459988 0.459606 0.456590
0.195511 0.188230 0.187112
0.167488 0.167194 0.166694
0.206730 0.199252 0.197984
0.236444 0.235695 0.235568
0.182613 0.182349 0.181692
0.078273 0.078007 0.077751
0.067290 0.067009 0.066888
0.136205 0.135290 0.134649
0.085630 0.086456 0.086439
0.088508 0.087412 0.085976
0.079212 0.079828 0.080909
0.182012 0.181170 0.178427
0.109680 0.109648 0.109573
0.242937 0.253733 0.256664
0.143781 0.143044 0.140284
0.234196 0.235483 0.237530
0.082291 0.081875 0.081790
0.157624 0.157347 0.157654
0.156841 0.155812 0.155501
0.217895 0.202443 0.203460
0.275774 0.276684 0.277349
0.472046 0.466908 0.468144
0.252418 0.253098 0.251391
0.172163 0.170854 0.170031
0.065252 0.066265 0.066505
0.054034 0.054163 0.054011
0.243792 0.243792 0.243554
0.077335 0.077820 0.077884
0.154731 0.158980 0.158879
0.062774 0.062891 0.062916
0.076042 0.075915 0.075889
0.064251 0.063052 0.063338
0.186161 0.181532 0.177366
0.118681 0.117161 0.115267
0.137182 0.136228 0.135807
0.220018 0.219940 0.219759
0.136782 0.135788 0.136296
0.193520 0.193299 0.193404
0.054917 0.054873 0.054585
0.168368 0.167703 0.167275
0.209646 0.213156 0.213700
0.089738 0.089995 0.089934
0.192541 0.192554 0.194158
0.093180 0.093860 0.094612
0.161133 0.162884 0.162082
0.127721 0.128728 0.128412
0.114047 0.114059 0.116108
0.099775 0.098757 0.097533
0.084536 0.085421 0.086062
0.228398 0.228093 0.229359
0.108553 0.108484 0.108571
0.214365 0.214021 0.210642
0.507278 0.505101 0.504466
0.167010 0.169794 0.167982
0.147374 0.145000 0.144104
0.070941 0.070593 0.070426
0.227863 0.227877 0.228573
0.093589 0.093355 0.093568
0.264915 0.265261 0.260917
0.085210 0.085621 0.085662
0.267281 0.267691 0.267143
0.154917 0.155106 0.156261
0.061181 0.060103 0.059635
0.172519 0.177427 0.177411
0.265105 0.267785 0.268434
0.169529 0.173854 0.180789
0.086285 0.086293 0.088143
0.060126 0.060414 0.060519
0.182923 0.183072 0.182267
0.165521 0.165084 0.165150
0.150374 0.150725 0.150592
0.203637 0.205048 0.212654
0.233162 0.233296 0.234423
0.179212 0.178466 0.180119
0.157318 0.157415 0.159395
0.086084 0.087877 0.087703
0.109512 0.110169 0.110004
0.087507 0.088031 0.088555
0.074818 0.075815 0.077011
0.179285 0.180172 0.180484
0.185466 0.182816 0.182584
0.172389 0.171602 0.170492
0.143690 0.145291 0.143152
0.162603 0.162951 0.162565
0.088989 0.096704 0.115901
0.055369 0.055564 0.055748
0.071713 0.071287 0.071417
0.154361 0.155352 0.151416
0.163643 0.165322 0.164080
0.131472 0.132946 0.135655
0.168528 0.168536 0.168263
0.221339 0.221790 0.220987
0.176293 0.176736 0.176246
0.153105 0.153624 0.156174
0.158241 0.158136 0.157505
0.208810 0.208594 0.207181
0.159049 0.158901 0.157895
0.163651 0.162798 0.162563
0.259139 0.258354 0.257031
0.172445 0.171325 0.167770
0.055421 0.055293 0.055071
0.139131 0.139219 0.138986
0.065143 0.064942 0.065213
0.067071 0.067814 0.067674
0.077429 0.077249 0.077327
0.176345 0.180147 0.180345
0.070679 0.071053 0.070904
0.084787 0.083109 0.081426
0.075957 0.075327 0.075284
0.155598 0.155437 0.154866
0.074877 0.075022 0.074927
0.212101 0.212695 0.212075
0.206429 0.207068 0.201940
0.159534 0.158818 0.161083
0.110813 0.110393 0.110188
0.189306 0.190073 0.189899
0.238875 0.240603 0.238098
0.262994 0.260653 0.249718
0.054365 0.054161 0.054205
0.276652 0.277502 0.281045
0.079836 0.080022 0.080184
0.131695 0.131431 0.131227
0.209276 0.208850 0.208054
0.201978 0.198040 0.196760
0.192987 0.191353 0.191320
0.086052 0.086053 0.087862
0.157798 0.157046 0.157246
0.183828 0.183824 0.185735
0.054251 0.054500 0.054322
0.211254 0.211591 0.212145
0.175398 0.174784 0.170620
0.061863 0.063173 0.063882
0.068697 0.069157 0.069349
0.155314 0.156572 0.156556
0.153384 0.153712 0.153811
0.208746 0.209833 0.209686
0.085807 0.085386 0.084812
0.149971 0.146849 0.146364
0.078666 0.077927 0.078080
0.090632 0.090116 0.089958
0.139728 0.139837 0.139802
0.131457 0.130364 0.129437
0.077927 0.078157 0.077972
0.148748 0.148431 0.150590
0.195697 0.196606 0.197782
0.216071 0.215882 0.215527
0.193036 0.192318 0.192223
0.156930 0.159014 0.157762
0.227007 0.226879 0.227035
0.069547 0.068943 0.068574
0.217624 0.217918 0.217472
0.054460 0.054773 0.054488
0.302648 0.301112 0.301543
0.172986 0.172604 0.170245
0.077589 0.076294 0.075993
0.217679 0.216838 0.216034
0.072585 0.073432 0.073506
0.177827 0.178491 0.180080
0.087767 0.088838 0.089146
0.149866 0.151398 0.152238
0.209690 0.208866 0.208738
0.100302 0.100689 0.101295
0.202284 0.202406 0.202969
0.199889 0.205541 0.206842
0.171798 0.171490 0.170718
0.139832 0.139987 0.140463
0.237037 0.236448 0.235705
0.219845 0.219833 0.219798
0.208751 0.211197 0.208366
0.145691 0.141547 0.140944
0.209076 0.210809 0.218781
0.327570 0.325945 0.326221
0.180881 0.180754 0.181905
0.175073 0.175302 0.175570
0.159763 0.159596 0.159273
0.150962 0.150271 0.149579
0.300447 0.299714 0.293643
0.068937 0.068820 0.069147
0.248567 0.248845 0.248367
0.217161 0.217324 0.219532
0.180024 0.179934 0.180336
0.158023 0.157303 0.157043
0.069667 0.073352 0.080948
0.231012 0.230933 0.231901
0.105755 0.104992 0.106868
0.107886 0.107891 0.107142
0.099183 0.099111 0.099020
0.216578 0.215754 0.214624
0.158394 0.157689 0.156233
0.216652 0.213478 0.211974
0.211963 0.213092 0.217816
0.193096 0.192420 0.192549
0.081359 0.082114 0.082588
0.171748 0.171527 0.171119
0.200283 0.201387 0.202304
0.078370 0.078622 0.078899
0.171235 0.171174 0.171414
0.149024 0.149028 0.149869
0.089352 0.090707 0.090328
0.141242 0.148474 0.181372
0.106693 0.107179 0.108373
0.073381 0.073580 0.073566
0.185490 0.185965 0.186082
0.070275 0.070403 0.070518
0.210119 0.211891 0.212671
0.196636 0.198879 0.201409
0.075450 0.075402 0.075688
0.132470 0.133998 0.134943
0.085877 0.085701 0.085751
0.069125 0.068912 0.068547
0.123095 0.123701 0.123631
0.160634 0.164213 0.165655
0.066766 0.067103 0.066902
0.195096 0.193057 0.192150
0.071674 0.071320 0.071386
0.122730 0.122955 0.122985
0.156962 0.154770 0.154249
0.183159 0.182319 0.181010
0.135715 0.135461 0.135149
0.214529 0.202884 0.204900
0.151626 0.152449 0.153210
0.069944 0.070377 0.070584
0.165936 0.166068 0.166167
0.506976 0.503700 0.504005
0.154397 0.153122 0.152410
0.221256 0.222797 0.224017
0.153743 0.154388 0.153870
0.075526 0.075484 0.075445
0.063159 0.063089 0.062978
0.072336 0.072417 0.072549
0.217748 0.219324 0.220137
0.192279 0.189328 0.186944
0.116446 0.116012 0.116147
0.069203 0.069491 0.069858
0.051205 0.051638 0.051493
0.160942 0.161315 0.162061
0.146621 0.147076 0.146493
0.089462 0.089361 0.089142
0.225312 0.225829 0.226635
0.237034 0.227564 0.221652
0.177058 0.179953 0.180409
0.223623 0.222985 0.222669
0.086698 0.086727 0.086689
0.071952 0.071948 0.072081
0.102720 0.102548 0.102973
0.233211 0.234924 0.236638
0.054683 0.054589 0.054739
0.179129 0.178902 0.176842
0.069791 0.069590 0.069256
0.230682 0.229633 0.226412
0.053302 0.053276 0.053213
0.065323 0.063708 0.063812
0.156394 0.156662 0.155747
0.083551 0.083397 0.083869
0.186062 0.187440 0.187940
0.186758 0.184285 0.195600
0.158922 0.156900 0.157253
0.159130 0.158908 0.159136
0.066727 0.066218 0.065901
0.180886 0.180196 0.180024
0.209445 0.208175 0.207462
0.128374 0.129218 0.129024
0.284103 0.282019 0.280706
0.108200 0.108686 0.108798
0.056711 0.056856 0.056644
0.052385 0.051733 0.051494
0.182816 0.182584 0.185223
0.096163 0.095972 0.095366
0.135227 0.124936 0.115070
0.229439 0.228836 0.226427
0.074040 0.073861 0.074140
0.466060 0.466431 0.467917
0.135277 0.138684 0.142620
0.116604 0.116576 0.116035
0.070756 0.070831 0.069573
0.054699 0.054491 0.054703
0.289413 0.289155 0.291234
0.056234 0.056063 0.056121
0.195170 0.195356 0.196528
0.210946 0.206470 0.206476
0.083465 0.083558 0.083437
0.194721 0.194777 0.193362
0.184969 0.185147 0.184978
0.129821 0.130757 0.131880
0.126115 0.127804 0.132424
0.073732 0.072929 0.072947
0.210948 0.191427 0.182216
0.077779 0.079711 0.080059
0.195589 0.196735 0.198828
0.083033 0.086014 0.099866
0.116966 0.117122 0.117463
0.219740 0.219728 0.218807
0.190972 0.192216 0.192163
0.150506 0.152030 0.151301
0.185681 0.185394 0.185379
0.202688 0.203893 0.205234
0.108597 0.108064 0.107741
0.224128 0.223986 0.221610
0.176060 0.175115 0.173515
0.074398 0.074572 0.074463
0.216321 0.214661 0.214468
0.121578 0.122138 0.122149
0.151515 0.152297 0.153158
0.214954 0.219875 0.220250
0.144770 0.144043 0.146142
0.207696 0.197732 0.193526
0.057880 0.057246 0.056723
0.223410 0.225549 0.229977
0.128487 0.128322 0.126303
0.169199 0.165897 0.160694
0.209220 0.209737 0.209481
0.171924 0.170255 0.170389
0.060272 0.060695 0.060835
0.242446 0.238215 0.233721
0.246848 0.248426 0.249791
0.304630 0.292366 0.294788
0.193002 0.192909 0.192520
0.234336 0.234700 0.231437
0.159886 0.160945 0.161011
0.153178 0.153267 0.153275
0.242445 0.241409 0.240882
0.171221 0.164174 0.159617
0.158145 0.158407 0.158756
0.188944 0.189365 0.190082
0.190813 0.193513 0.197014
0.062419 0.062212 0.062534
0.071257 0.071360 0.071396
0.064535 0.064818 0.065150
0.183037 0.177548 0.173440
0.157510 0.158106 0.157512
0.181610 0.181905 0.182230
0.233087 0.231479 0.231263
0.267921 0.266819 0.265856
0.216011 0.215696 0.215325
0.108941 0.108721 0.108806
0.173617 0.172569 0.174392
0.168132 0.167164 0.169203
0.184313 0.181825 0.180289
0.083285 0.082471 0.082027
0.064098 0.064389 0.065043
0.219781 0.212705 0.212952
0.069420 0.069014 0.068664
0.212843 0.213558 0.214377
0.081772 0.081925 0.080928
0.246271 0.243054 0.242657
0.160418 0.162187 0.162750
0.071297 0.071691 0.071572
0.209862 0.210475 0.211730
0.078863 0.078652 0.077688
0.077486 0.077465 0.077814
0.229749 0.229746 0.228604
0.076459 0.075989 0.075725
0.268260 0.269276 0.268069
0.123785 0.124301 0.124617
0.050926 0.051142 0.051189
0.324324 0.326921 0.328757
0.088765 0.088814 0.088811
0.272620 0.272646 0.272760
0.133944 0.134697 0.135192
0.176239 0.176486 0.176025
0.150750 0.151989 0.154239
0.250803 0.250524 0.250444
0.080445 0.080794 0.081274
0.083052 0.083262 0.083875
0.151170 0.151609 0.150975
0.056488 0.056750 0.057325
0.075707 0.075518 0.075459
0.156897 0.157444 0.157270
0.151396 0.150955 0.148728
0.494331 0.505519 0.504442
0.181089 0.180261 0.179469
0.168171 0.165242 0.162898
0.152344 0.152300 0.152980
0.069254 0.069537 0.070087
0.194080 0.194637 0.194713
0.189875 0.190538 0.190859
0.088487 0.088618 0.088270
0.178908 0.174207 0.173674
0.498675 0.498096 0.490838
0.085902 0.085905 0.086028
0.138684 0.138470 0.137948
0.243337 0.244759 0.247198
0.223282 0.222196 0.221339
0.160667 0.159602 0.158735
0.124803 0.125362 0.125751
0.180123 0.179692 0.178670
0.146755 0.148246 0.147093
0.173135 0.173110 0.173115
0.141115 0.137161 0.137119
0.079846 0.079880 0.079589
0.216506 0.214587 0.211811
0.055114 0.055696 0.056279
0.269613 0.269275 0.268184
0.070293 0.070783 0.070694
0.231192 0.232504 0.232660
0.161579 0.161130 0.161235
0.185320 0.185180 0.184283
0.223064 0.224503 0.229713
0.069406 0.069343 0.069333
0.065125 0.064551 0.064720
0.106465 0.106036 0.106074
0.203511 0.205847 0.207420
0.193411 0.186994 0.176049
0.220229 0.221069 0.221474
0.222853 0.222603 0.230156
0.080893 0.080398 0.079350
0.123090 0.122615 0.122159
0.105489 0.105158 0.105139
0.229536 0.228454 0.227763
0.180985 0.181111 0.180905
0.107050 0.106777 0.105557
0.076976 0.076385 0.075792
0.124351 0.123937 0.121314
0.234892 0.234509 0.232684
0.146595 0.147795 0.148408
0.056054 0.056278 0.055934
0.113464 0.112813 0.112753
0.193140 0.193258 0.194050
0.094711 0.094611 0.089492
0.069285 0.069157 0.069456
0.075617 0.075175 0.075108
0.207895 0.207857 0.206844
0.218723 0.218388 0.219342
0.173238 0.173154 0.172888
0.070206 0.069600 0.069920
0.197644 0.196876 0.196398
0.168078 0.165459 0.164568
0.180853 0.180117 0.180053
0.162095 0.158496 0.156470
0.066559 0.066923 0.067016
0.126162 0.127849 0.132624
0.217206 0.218319 0.219994
0.130358 0.131182 0.132792
0.118011 0.118714 0.119009
0.200604 0.209031 0.211296
0.512794 0.509434 0.507105
0.075181 0.075463 0.075573
0.213829 0.213753 0.213358
0.141929 0.142076 0.144635
0.161843 0.161844 0.161799
0.194853 0.195827 0.195487
0.054539 0.053793 0.053504
0.076601 0.077434 0.077440
0.085837 0.086633 0.087055
0.049998 0.050087 0.050163
0.170130 0.170016 0.169500
0.178044 0.173244 0.172707
0.216162 0.215666 0.215434
0.085489 0.085075 0.085707
0.075937 0.075500 0.075974
0.105386 0.105384 0.106293
0.109346 0.106567 0.105060
0.063716 0.066180 0.067196
0.062573 0.062599 0.062521
0.140190 0.140558 0.143228
0.158668 0.158648 0.152428
0.210666 0.213539 0.217070
0.171367 0.170110 0.170578
0.075691 0.075885 0.076360
0.183176 0.185049 0.186349
0.159986 0.160307 0.160010
0.177226 0.176646 0.177950
0.167097 0.167210 0.167390
0.140541 0.140601 0.139197
0.108950 0.108701 0.108677
0.182538 0.182864 0.183489
0.466906 0.472550 0.470848
0.053994 0.054114 0.054091
0.274425 0.276792 0.279421
0.244735 0.243715 0.241961
0.234710 0.234378 0.236252
0.324542 0.325185 0.325196
0.056747 0.056939 0.057196
0.246787 0.246642 0.246844
0.248319 0.249406 0.251140
0.051733 0.051186 0.051228
0.182962 0.181191 0.180333
0.251140 0.256339 0.265660
0.171398 0.170009 0.169748
0.148834 0.145823 0.143495
0.181404 0.180853 0.180629
0.064028 0.064251 0.064494
0.055961 0.055867 0.055809
0.052799 0.054004 0.054431
0.250228 0.248386 0.248069
0.161367 0.161740 0.162595
0.462456 0.463493 0.463651
0.062668 0.062489 0.062439
0.068997 0.069001 0.069033
0.111595 0.111417 0.110067
0.182733 0.182326 0.182307
0.117013 0.116993 0.117127
0.154941 0.154589 0.153384
0.163192 0.163137 0.163217
0.176979 0.176940 0.178897
0.173220 0.173480 0.173576
0.051193 0.050382 0.049577
0.277537 0.277222 0.277102
0.191715 0.192467 0.193211
0.206494 0.206437 0.207820
0.068937 0.068812 0.068618
0.085262 0.086081 0.085787
0.157927 0.157994 0.159076
0.110195 0.110108 0.110071
0.055922 0.055586 0.054372
0.063192 0.063930 0.067690
0.248367 0.249983 0.248954
0.185805 0.185309 0.184438
0.088923 0.088992 0.089378
0.139862 0.139807 0.139715
0.182307 0.177669 0.177310
0.150656 0.150978 0.151020
0.081814 0.080457 0.078810
0.108994 0.109671 0.110410
0.075750 0.075397 0.075656
0.190921 0.190893 0.191050
0.426384 0.418305 0.415791
0.196588 0.197321 0.203356
0.143975 0.139181 0.121440
0.056360 0.055833 0.055971
0.077511 0.077558 0.078239
0.121891 0.122035 0.122855
0.069390 0.069125 0.068912
0.167401 0.167960 0.168060
0.060829 0.060818 0.060906
0.125197 0.125988 0.126720
0.155626 0.155375 0.154792
0.183074 0.182165 0.181357
0.175427 0.176250 0.177615
0.267404 0.263898 0.264463
0.241555 0.243988 0.236226
0.180406 0.179822 0.180733
0.063382 0.063585 0.063716
0.189378 0.189460 0.189204
0.207301 0.207186 0.207022
0.169236 0.167431 0.167010
0.057655 0.057827 0.057665
0.171087 0.170706 0.171272
0.151183 0.152035 0.152242
0.179765 0.179913 0.179916
0.051291 0.051191 0.051114
0.093326 0.094004 0.094006
0.144501 0.144417 0.159616
0.271927 0.274025 0.275178
0.059233 0.058639 0.059338
0.137811 0.137295 0.135789
0.109789 0.110365 0.110583
0.183247 0.181707 0.180604
0.244263 0.245771 0.246139
0.146558 0.146650 0.146637
0.084277 0.084967 0.086499
0.171101 0.173125 0.176977
0.144629 0.144229 0.144197
0.076191 0.076146 0.076084
0.276373 0.276038 0.275025
0.101071 0.101365 0.101481
0.089210 0.085790 0.085187
0.166167 0.166199 0.166221
0.180422 0.180155 0.180187
0.191903 0.189081 0.187188
0.049561 0.049573 0.049854
0.279802 0.282463 0.284990
0.214934 0.213944 0.211931
0.215851 0.215621 0.216413
0.126669 0.127677 0.130369
0.088665 0.089559 0.089345
0.139908 0.140183 0.140466
0.075066 0.075319 0.075403
0.066265 0.066505 0.066220
0.235381 0.235214 0.234054
0.177681 0.178291 0.182222
0.221237 0.213733 0.212417
0.187606 0.185998 0.185750
0.064361 0.064385 0.063386
0.204976 0.205576 0.205852
0.150345 0.150745 0.150557
0.185864 0.184815 0.184590
0.152913 0.153029 0.153206
0.091722 0.091303 0.086926
0.062655 0.063922 0.063384
0.143993 0.145225 0.145298
0.058883 0.059008 0.059049
0.092188 0.091918 0.091772
0.223714 0.223337 0.223279
0.087628 0.087413 0.086296
0.247148 0.247654 0.248463
0.110276 0.105908 0.095483
0.070200 0.069917 0.070046
0.165592 0.164738 0.164756
0.181437 0.182250 0.182940
0.210830 0.211453 0.211309
0.181592 0.180834 0.180648
0.295958 0.296967 0.296801
0.159717 0.158816 0.159784
0.095684 0.095434 0.095498
0.150862 0.150927 0.150941
0.137472 0.137347 0.137200
0.055660 0.059229 0.061862
0.427694 0.423308 0.423065
0.255570 0.255819 0.255597
0.188573 0.188437 0.186627
0.428664 0.431762 0.432358
0.110048 0.109988 0.108628
0.066818 0.067044 0.067738
0.077600 0.077046 0.076348
0.453770 0.460846 0.463696
0.180543 0.181203 0.179711
0.187940 0.187202 0.188588
0.395386 0.394876 0.394458
0.267622 0.267670 0.268535
0.456632 0.454345 0.453250
0.242694 0.239008 0.237719
0.110514 0.111015 0.111434
0.195347 0.196241 0.196800
0.185346 0.185949 0.187929
0.052250 0.052889 0.053402
0.124531 0.124592 0.124493
0.088811 0.088834 0.088940
0.183444 0.185904 0.186105
0.152478 0.154815 0.158205
0.226036 0.224720 0.222135
0.087426 0.086481 0.085392
0.243629 0.239212 0.236701
0.393980 0.394280 0.394147
0.197346 0.196056 0.194712
0.069057 0.069286 0.070032
0.187786 0.188015 0.187635
0.153008 0.147973 0.141967
0.488635 0.487616 0.487606
0.076979 0.076464 0.077127
0.072672 0.073575 0.073268
0.184524 0.183373 0.183911
0.170436 0.167289 0.167476
0.228013 0.227782 0.227059
0.202289 0.202933 0.207766
0.077832 0.077757 0.077803
0.051305 0.051015 0.051035
0.416320 0.423458 0.427340
0.144992 0.145533 0.145382
0.103018 0.102359 0.102032
0.156497 0.157445 0.160931
0.160334 0.160811 0.161032
0.229457 0.229616 0.229521
0.125170 0.127189 0.127971
0.209684 0.213158 0.213902
0.158900 0.159274 0.161898
0.202930 0.203207 0.203500
0.132484 0.131781 0.131380
0.079139 0.079473 0.080022
0.208254 0.208350 0.208446
0.053519 0.053742 0.053771
0.174683 0.177086 0.177737
0.165942 0.165781 0.165784
0.069567 0.069162 0.069071
0.158983 0.159411 0.159577
0.156559 0.156813 0.157353
0.223626 0.216206 0.214812
0.071937 0.071861 0.071358
0.175801 0.177176 0.175209
0.077953 0.077718 0.077752
0.185870 0.186246 0.185861
0.166423 0.170060 0.169995
0.219285 0.219289 0.218843
0.111364 0.111849 0.112221
0.181916 0.182267 0.185862
0.062972 0.063159 0.063173
0.191133 0.190591 0.190435
0.143340 0.147374 0.145000
0.076205 0.075887 0.074870
0.122149 0.123017 0.123338
0.171328 0.170536 0.168939
0.079305 0.079456 0.079695
0.072727 0.072949 0.072998
0.074659 0.074894 0.073960
0.075496 0.070440 0.070339
0.084519 0.083966 0.082605
0.058491 0.058547 0.058734
0.470848 0.470260 0.470605
0.072232 0.071513 0.069966
0.141383 0.140029 0.139308
0.177387 0.177876 0.178291
0.245263 0.245943 0.246777
0.061052 0.061098 0.061284
0.137551 0.137557 0.138117
0.208272 0.207808 0.203940
0.189865 0.191673 0.190482
0.156019 0.155954 0.155708
0.078745 0.076881 0.075424
0.234887 0.235736 0.234983
0.056573 0.055697 0.054963
0.070353 0.070873 0.070819
0.203761 0.199164 0.196195
0.086469 0.085802 0.086346
0.180833 0.180729 0.182382
0.094203 0.093408 0.093137
0.146946 0.146073 0.145474
0.135093 0.135913 0.138109
0.153245 0.152700 0.149853
0.239291 0.244609 0.243782
0.103422 0.103956 0.103707
0.088214 0.088099 0.087565
0.167313 0.167601 0.168415
0.181569 0.179027 0.179871
0.187043 0.186708 0.185974
0.075909 0.076244 0.076819
0.141752 0.141797 0.141950
0.186599 0.184748 0.184741
0.226211 0.227983 0.227943
0.078739 0.078323 0.078379
0.231571 0.232263 0.231879
0.226773 0.228479 0.227425
0.091626 0.090852 0.090043
0.137918 0.139244 0.140602
0.109923 0.109742 0.109746
0.168993 0.169199 0.165897
0.176015 0.174174 0.171006
0.226686 0.227714 0.227964
0.153125 0.152228 0.149966
0.077292 0.076499 0.076211
0.198747 0.199323 0.199425
0.052399 0.052527 0.053162
0.175270 0.176678 0.178049
0.140306 0.139538 0.139389
0.159657 0.159482 0.159485
0.229250 0.225914 0.225932
0.137242 0.137162 0.136984
0.198269 0.195170 0.194398
0.082801 0.082540 0.082089
0.220133 0.220174 0.217740
0.081310 0.081362 0.081395
0.182565 0.180123 0.179692
0.187490 0.187171 0.187486
0.072766 0.072504 0.072261
0.048649 0.048877 0.048612
0.206412 0.207065 0.209456
0.133772 0.133802 0.133729
0.190637 0.190888 0.192201
0.071264 0.071235 0.071073
0.154976 0.155613 0.159112
0.074583 0.074499 0.074130
0.103845 0.108321 0.110189
0.156475 0.155581 0.154482
0.063364 0.063486 0.063162
0.245837 0.250655 0.254178
0.078365 0.078051 0.078099
0.208111 0.207446 0.208124
0.067770 0.067630 0.067768
0.167379 0.167028 0.165592
0.217497 0.217079 0.216765
0.223486 0.223029 0.223839
0.234466 0.233854 0.230079
0.063985 0.064179 0.064948
0.126806 0.119757 0.118958
0.161787 0.161235 0.160587
0.063065 0.062392 0.062216
0.246555 0.246722 0.245182
0.082932 0.083441 0.083426
0.116445 0.116475 0.116380
0.203615 0.208654 0.215954
0.310271 0.307571 0.301160
0.279440 0.279226 0.279217
0.224042 0.222942 0.214087
0.179613 0.178905 0.174161
0.085766 0.086033 0.085872
0.133757 0.134048 0.134707
0.363759 0.377744 0.379872
0.161956 0.161921 0.161729
0.184993 0.185410 0.185645
0.131362 0.132248 0.132886
0.141551 0.141462 0.141695
0.047132 0.047717 0.049111
0.152107 0.154086 0.154320
0.186627 0.186293 0.186222
0.207429 0.210208 0.212271
0.111470 0.111419 0.111512
0.107514 0.108224 0.108476
0.160222 0.161140 0.161944
0.219874 0.220102 0.222265
0.076830 0.076331 0.076906
0.202443 0.203460 0.201905
0.195470 0.196136 0.193820
0.312883 0.314590 0.315519
0.212413 0.211733 0.211786
0.384580 0.384126 0.384448
0.083098 0.082923 0.082665
0.108476 0.108251 0.108128
0.201787 0.198252 0.196323
0.065036 0.064888 0.064895
0.111108 0.111558 0.114034
0.156030 0.157843 0.157862
0.128393 0.128735 0.128371
0.168860 0.168528 0.168536
0.112171 0.112121 0.112090
0.168983 0.170824 0.172450
0.124421 0.124388 0.124365
0.065535 0.065007 0.063692
0.150989 0.152392 0.152629
0.224001 0.223360 0.223103
0.083949 0.085018 0.086001
0.070070 0.068598 0.068257
0.193667 0.195565 0.194023
0.076066 0.076917 0.077098
0.135868 0.135254 0.135097
0.054415 0.054150 0.054238
0.187591 0.187099 0.187273
0.171468 0.171631 0.171647
0.161485 0.161262 0.161366
0.193177 0.194581 0.195263
0.213998 0.209732 0.209260
0.192432 0.190912 0.191307
0.109490 0.110021 0.109506
0.384930 0.384537 0.382261
0.071551 0.071798 0.071655
0.170660 0.171274 0.170810
0.066795 0.066743 0.066572
0.160826 0.160556 0.161363
0.167853 0.167945 0.166891
0.233223 0.232136 0.229671
0.064197 0.064491 0.064864
0.157184 0.157701 0.157232
0.277794 0.278941 0.279225
0.139206 0.140668 0.140638
0.165472 0.165245 0.165922
0.152677 0.152144 0.152550
0.157426 0.158169 0.158208
0.105932 0.109042 0.110149
0.161029 0.160515 0.160114
0.220662 0.221202 0.225254
0.203239 0.203939 0.204275
0.195344 0.195243 0.194832
0.413847 0.414021 0.413616
0.179247 0.176818 0.176542
0.052368 0.052001 0.051847
0.085758 0.086024 0.086046
0.128624 0.128725 0.129116
0.302823 0.301510 0.301001
0.221947 0.223965 0.223113
0.092229 0.089225 0.078082
0.171665 0.168086 0.167413
0.179458 0.179013 0.178085
0.167194 0.166694 0.164472
0.205867 0.205661 0.205902
0.179390 0.177330 0.173972
0.138117 0.138483 0.140190
0.180080 0.179375 0.179941
0.210360 0.208408 0.208159
0.067845 0.067861 0.067832
0.173689 0.177956 0.177719
0.065913 0.065535 0.065007
0.053331 0.052930 0.052682
0.089373 0.089874 0.090562
0.151416 0.151278 0.149131
0.093156 0.088879 0.089288
0.282417 0.282733 0.285142
0.205255 0.206890 0.218683
0.132857 0.135928 0.137838
0.159964 0.160130 0.160287
0.180670 0.181158 0.181654
0.165063 0.168020 0.168961
0.150819 0.150197 0.149981
0.172736 0.172895 0.172836
0.285710 0.285115 0.285517
0.210691 0.213484 0.214042
0.164472 0.162110 0.161143
0.218469 0.220269 0.222468
0.252709 0.252110 0.249654
0.054521 0.054575 0.054791
0.134266 0.131191 0.130748
0.208311 0.208234 0.208300
0.208569 0.212928 0.215665
0.200379 0.201668 0.209694
