0.059037 0.059073 0.059112
0.163640 0.164042 0.164766
0.170069 0.161931 0.157525
0.175724 0.176002 0.175854
0.241611 0.243518 0.244332
0.218253 0.228178 0.228609
0.141278 0.140134 0.139756
0.111035 0.110583 0.110573
0.111248 0.111101 0.111033
0.188747 0.187167 0.180878
0.085775 0.086380 0.086162
0.173859 0.173740 0.173266
0.169953 0.169823 0.173030
0.192792 0.192451 0.188093
0.208467 0.204958 0.193314
0.063674 0.061297 0.061163
0.166110 0.166455 0.166631
0.179313 0.179098 0.177654
0.212090 0.205891 0.205024
0.103918 0.116110 0.114159
0.080120 0.079993 0.079502
0.191643 0.191176 0.190665
0.098711 0.098817 0.099108
0.189392 0.188438 0.188045
0.102981 0.103405 0.110884
0.149970 0.152468 0.153508
0.153221 0.145679 0.145628
0.210633 0.209608 0.210971
0.110720 0.110817 0.110859
0.094707 0.094657 0.094706
0.180654 0.185807 0.186240
0.173602 0.174206 0.174163
0.123483 0.123117 0.123460
0.173547 0.164606 0.162632
0.080901 0.080387 0.080256
0.162588 0.162067 0.161986
0.205991 0.206079 0.206130
0.165891 0.164068 0.164060
0.170333 0.169911 0.170834
0.189835 0.190339 0.197432
0.174858 0.174618 0.174033
0.058122 0.058208 0.058400
0.157446 0.158858 0.156849
0.052944 0.053017 0.053613
0.152156 0.152116 0.153933
0.179797 0.180464 0.183085
0.088760 0.088904 0.089020
0.142216 0.141961 0.140569
0.181975 0.182288 0.182346
0.167725 0.168116 0.167571
0.227793 0.227796 0.230520
0.121386 0.120730 0.120929
0.187837 0.188548 0.188630
0.165032 0.165006 0.164780
0.173522 0.173551 0.173676
0.117462 0.119598 0.130528
0.145301 0.145458 0.145547
0.172761 0.171939 0.172004
0.080427 0.080627 0.081053
0.156830 0.156109 0.154676
0.127918 0.127752 0.127056
0.179420 0.179441 0.179711
0.151501 0.144449 0.143952
0.127023 0.127143 0.127519
0.091118 0.092722 0.094013
0.172895 0.173113 0.173746
0.110336 0.117934 0.119775
0.163697 0.165780 0.165838
0.172209 0.179806 0.179615
0.192730 0.192352 0.192253
0.166444 0.166625 0.165698
0.194515 0.194328 0.194131
0.243499 0.242920 0.238335
0.212530 0.206388 0.205324
0.142850 0.142727 0.142842
0.178726 0.171697 0.171835
0.216998 0.215483 0.214224
0.102991 0.103501 0.108086
0.124909 0.124600 0.124374
0.186082 0.182145 0.181577
0.164968 0.164373 0.164515
0.189728 0.189710 0.189805
0.157673 0.157816 0.157450
0.217955 0.218204 0.218180
0.176703 0.175639 0.175732
0.137675 0.134924 0.134689
0.215837 0.215542 0.205483
0.140414 0.139923 0.139617
0.236448 0.234071 0.233268
0.196120 0.195455 0.193777
0.141310 0.140857 0.140758
0.103160 0.112357 0.112254
0.195920 0.193001 0.200327
0.114890 0.114373 0.114196
0.068488 0.068551 0.068197
0.174080 0.180130 0.181203
0.191833 0.193130 0.190375
0.213246 0.210421 0.210049
0.249539 0.249660 0.249827
0.140486 0.140855 0.141133
0.215618 0.215122 0.211395
0.215389 0.217113 0.217044
0.136881 0.136205 0.137364
0.139518 0.138729 0.134687
0.176864 0.173108 0.173190
0.123593 0.124005 0.129792
0.182120 0.182159 0.182152
0.182791 0.182697 0.182711
0.110139 0.109476 0.109530
0.172289 0.184808 0.186502
0.111760 0.111838 0.110935
0.171882 0.171319 0.163161
0.071269 0.071639 0.074038
0.164635 0.163271 0.163007
0.194078 0.193294 0.193031
0.098897 0.098764 0.098704
0.187618 0.185337 0.185104
0.154111 0.153407 0.153355
0.196498 0.192699 0.193918
0.177313 0.177292 0.176411
0.160606 0.161519 0.161339
0.226990 0.219048 0.220680
0.229971 0.227445 0.226848
0.048960 0.049074 0.048785
0.167647 0.168611 0.176445
0.159975 0.159472 0.159169
0.187659 0.188569 0.189049
0.058367 0.058655 0.058519
0.182686 0.182933 0.184163
0.158862 0.158818 0.160623
0.179875 0.183906 0.183607
0.214412 0.214308 0.209691
0.094706 0.094631 0.094518
0.195913 0.195392 0.194358
0.142764 0.142779 0.139230
0.178651 0.178772 0.178473
0.187140 0.186652 0.185700
0.213137 0.212997 0.213286
0.169499 0.165203 0.176902
0.155766 0.158700 0.155190
0.188255 0.190639 0.190576
0.064254 0.064139 0.063782
0.068059 0.068170 0.068347
0.177809 0.175607 0.182676
0.173465 0.173587 0.174216
0.188600 0.188479 0.188177
0.119815 0.119688 0.119463
0.178400 0.178177 0.178444
0.130602 0.131214 0.135623
0.080332 0.079830 0.079440
0.145977 0.145790 0.146960
0.160684 0.163500 0.163879
0.181200 0.181540 0.181390
0.194906 0.194420 0.188138
0.099804 0.099739 0.099571
0.201186 0.200613 0.202171
0.158495 0.158234 0.157877
0.190460 0.190778 0.190738
0.167360 0.165946 0.165183
0.184861 0.186338 0.186851
0.158205 0.157940 0.157520
0.186390 0.187719 0.188535
0.086419 0.085827 0.085757
0.206374 0.208965 0.210311
0.134814 0.135054 0.135139
0.074443 0.074457 0.074412
0.187196 0.188254 0.189533
0.170598 0.170834 0.176799
0.058001 0.058314 0.058330
0.091430 0.091382 0.091232
0.200383 0.208093 0.208565
0.101782 0.100488 0.093935
0.214035 0.218571 0.218768
0.243583 0.244003 0.244131
0.148608 0.147494 0.147369
0.106298 0.106694 0.106600
0.143580 0.142719 0.141774
0.111572 0.111674 0.111659
0.123643 0.123169 0.123369
0.195309 0.195565 0.196010
0.139036 0.134961 0.134254
0.065280 0.065169 0.065755
0.108557 0.110492 0.122852
0.053745 0.054182 0.054405
0.195316 0.195329 0.197699
0.191783 0.191459 0.190348
0.202418 0.201107 0.195126
0.097865 0.097690 0.097681
0.083888 0.083474 0.083328
0.149114 0.148859 0.148558
0.153465 0.153316 0.153238
0.181489 0.181479 0.181614
0.194231 0.194447 0.194496
0.145852 0.140829 0.140440
0.189591 0.192323 0.192958
0.110949 0.110900 0.110716
0.212612 0.213916 0.216121
0.208174 0.208163 0.207318
0.184827 0.184410 0.181305
0.049612 0.049171 0.049059
0.135355 0.135234 0.136262
0.135235 0.134992 0.134144
0.127402 0.126328 0.125032
0.076941 0.076905 0.076143
0.211238 0.211861 0.209159
0.055453 0.055304 0.055140
0.199576 0.178748 0.176008
0.165547 0.165513 0.164448
0.200122 0.200256 0.200621
0.220653 0.223818 0.223906
0.175483 0.175617 0.176289
0.184209 0.176652 0.176418
0.159720 0.159927 0.159741
0.207922 0.207311 0.207112
0.066300 0.065215 0.064936
0.163115 0.162681 0.161683
0.098156 0.096866 0.095692
0.164310 0.164165 0.163785
0.115599 0.115664 0.115443
0.104037 0.103908 0.103761
0.097254 0.096868 0.094960
0.201963 0.202301 0.200920
0.067047 0.066815 0.066469
0.187027 0.189882 0.189506
0.178368 0.177034 0.176087
0.190661 0.190620 0.190748
0.069178 0.068445 0.068469
0.056685 0.055826 0.055581
0.190272 0.189975 0.190051
0.097031 0.098912 0.098585
0.192642 0.192085 0.191019
0.181689 0.181661 0.181721
0.148630 0.148547 0.148515
0.140594 0.140839 0.141457
0.154225 0.153699 0.153416
0.165969 0.165993 0.173621
0.207746 0.207491 0.206463
0.190890 0.191112 0.190496
0.186014 0.185263 0.186649
0.171831 0.171854 0.171654
0.204676 0.212435 0.213214
0.146132 0.145826 0.145756
0.045521 0.045612 0.045239
0.127773 0.127600 0.128042
0.075376 0.075161 0.075140
0.209549 0.209298 0.209043
0.187595 0.188079 0.187668
0.166337 0.166785 0.165561
0.182803 0.177397 0.174957
0.190554 0.190512 0.190396
0.076876 0.077058 0.076623
0.182367 0.179588 0.179573
0.094963 0.094834 0.094865
0.187951 0.187617 0.188049
0.169114 0.169075 0.168715
0.058926 0.058311 0.058100
0.179000 0.183427 0.182892
0.065511 0.065336 0.065491
0.183629 0.192186 0.197416
0.181902 0.182363 0.182610
0.094841 0.094546 0.094436
0.178989 0.179000 0.179075
0.195421 0.195397 0.195212
0.094900 0.095225 0.095691
0.207922 0.208186 0.207931
0.145668 0.149982 0.149908
0.207977 0.208095 0.207741
0.095469 0.095648 0.095651
0.165288 0.167239 0.171710
0.185233 0.187492 0.190039
0.163671 0.166545 0.171406
0.058221 0.058636 0.058871
0.175727 0.172012 0.169997
0.189670 0.189590 0.189568
0.230367 0.225640 0.224746
0.177315 0.177612 0.178156
0.177751 0.178021 0.177685
0.149922 0.145797 0.145493
0.172999 0.173283 0.173485
0.166534 0.166299 0.164511
0.064292 0.064611 0.064350
0.193339 0.193389 0.196662
0.185648 0.185920 0.185584
0.174343 0.174063 0.173807
0.118476 0.118500 0.105277
0.211254 0.221949 0.221870
0.172789 0.172757 0.172819
0.187118 0.187242 0.187553
0.186351 0.186136 0.185856
0.115121 0.114636 0.113589
0.141009 0.143281 0.144992
0.227687 0.221213 0.220023
0.208091 0.208520 0.209822
0.143940 0.143238 0.142302
0.157464 0.151887 0.151172
0.130153 0.130480 0.126713
0.196753 0.196159 0.196034
0.172953 0.166312 0.166251
0.218727 0.213388 0.209749
0.190516 0.190154 0.189796
0.162149 0.165600 0.165536
0.162168 0.163654 0.164011
0.064862 0.065724 0.065326
0.212234 0.212415 0.212492
0.199501 0.201801 0.201852
0.213654 0.213338 0.213382
0.189848 0.189539 0.187840
0.101109 0.101346 0.101416
0.198100 0.197171 0.196576
0.161950 0.161892 0.162193
0.112355 0.112253 0.112160
0.234680 0.235614 0.236013
0.091997 0.093603 0.096101
0.236284 0.230809 0.229977
0.208408 0.210111 0.210421
0.233445 0.233207 0.233342
0.159417 0.159641 0.160566
0.044744 0.044031 0.044134
0.168814 0.168900 0.168960
0.214634 0.214530 0.214219
0.161096 0.161603 0.163002
0.112066 0.112095 0.112106
0.146186 0.146274 0.146305
0.205048 0.205575 0.206380
0.172096 0.171948 0.167861
0.208532 0.201113 0.197891
0.208351 0.208197 0.208097
0.158132 0.157743 0.157589
0.179129 0.178361 0.178464
0.187408 0.186957 0.186925
0.146218 0.146029 0.146004
0.187026 0.187189 0.190187
0.068469 0.067558 0.067045
0.164394 0.164304 0.164310
0.178942 0.179914 0.179853
0.183583 0.183623 0.182834
0.188263 0.189327 0.190206
0.067262 0.067424 0.067613
0.186722 0.186877 0.186718
0.088732 0.088659 0.088616
0.199038 0.198531 0.189144
0.123193 0.123761 0.123832
0.192147 0.196640 0.197855
0.200141 0.201354 0.200823
0.181964 0.179675 0.179485
0.137068 0.136370 0.135809
0.178454 0.178492 0.178364
0.204571 0.202565 0.196078
0.179061 0.179258 0.179334
0.197152 0.199193 0.199285
0.212679 0.213003 0.214803
0.050177 0.049403 0.049573
0.164139 0.168319 0.166172
0.210876 0.212106 0.211911
0.158244 0.157519 0.154913
0.157095 0.157763 0.157927
0.185885 0.185869 0.184850
0.064428 0.064172 0.064123
0.129372 0.129607 0.129565
0.119681 0.119431 0.119037
0.159905 0.159836 0.158564
0.148706 0.148044 0.147232
0.171748 0.170688 0.170073
0.161771 0.155921 0.155739
0.164374 0.164586 0.164357
0.157029 0.154080 0.153915
0.193950 0.193589 0.191186
0.192893 0.195991 0.196411
0.168208 0.167609 0.165429
0.181649 0.180459 0.179012
0.157787 0.156699 0.149093
0.200222 0.199898 0.200078
0.115664 0.115443 0.115225
0.154607 0.154501 0.154341
0.058781 0.058458 0.059624
0.194605 0.194976 0.195314
0.214076 0.215595 0.216416
0.125101 0.126585 0.132389
0.180090 0.177791 0.169156
0.132388 0.131959 0.130074
0.058347 0.058955 0.058690
0.178484 0.174107 0.173900
0.237925 0.237863 0.237837
0.180601 0.180232 0.180090
0.070547 0.070539 0.070244
0.162966 0.163157 0.162753
0.190665 0.187597 0.187033
0.194742 0.194841 0.194805
0.218567 0.211839 0.211651
0.199720 0.199752 0.207016
0.206214 0.212127 0.208501
0.169494 0.170054 0.171643
0.166266 0.166872 0.161575
0.169278 0.169051 0.169044
0.062693 0.061907 0.059885
0.135255 0.135023 0.128293
0.220263 0.220264 0.218721
0.188592 0.187889 0.188073
0.175359 0.174812 0.174537
0.121612 0.121608 0.121706
0.131501 0.131679 0.132690
0.190210 0.190398 0.190776
0.163271 0.163007 0.163790
0.126585 0.132389 0.132094
0.185452 0.185561 0.192954
0.187874 0.188022 0.187605
0.069846 0.070169 0.070906
0.194440 0.197128 0.197247
0.187226 0.189329 0.189950
0.172855 0.173013 0.173193
0.069279 0.068793 0.068457
0.196801 0.197573 0.197423
0.182226 0.181744 0.176651
0.052597 0.052577 0.051922
0.185975 0.185602 0.185060
0.058949 0.059012 0.059200
0.156539 0.155058 0.148995
0.129090 0.132154 0.132863
0.174566 0.166482 0.166063
0.176806 0.176394 0.176037
0.203806 0.204873 0.213248
0.210726 0.209920 0.210058
0.187850 0.190871 0.190837
0.164298 0.161085 0.163075
0.067956 0.067812 0.067861
0.210455 0.208946 0.208338
0.183564 0.183058 0.182834
0.200729 0.200572 0.200360
0.170818 0.170103 0.170271
0.150449 0.143060 0.142807
0.143565 0.143041 0.140231
0.159664 0.158889 0.159339
0.145685 0.144520 0.144628
0.056898 0.056393 0.056020
0.081833 0.082405 0.102569
0.160321 0.156032 0.155541
0.152704 0.154036 0.154254
0.178334 0.177826 0.170765
0.194595 0.194985 0.195450
0.189295 0.188917 0.192525
0.145500 0.145288 0.145217
0.156315 0.156221 0.156373
0.201718 0.201840 0.202886
0.182401 0.182412 0.182428
0.246157 0.247074 0.247251
0.163879 0.157571 0.157185
0.184618 0.184944 0.185334
0.198032 0.194286 0.196861
0.099850 0.099561 0.099804
0.184239 0.184488 0.178972
0.181123 0.181330 0.183418
0.174823 0.175064 0.175542
0.150170 0.151969 0.154626
0.216415 0.215990 0.215562
0.127160 0.127160 0.127613
0.147991 0.148171 0.139864
0.233394 0.233451 0.233476
0.067220 0.066598 0.066300
0.165584 0.170049 0.180638
0.205883 0.206469 0.206453
0.143691 0.143544 0.143328
0.174546 0.173040 0.173230
0.127086 0.126387 0.126610
0.232287 0.232639 0.233626
0.193558 0.194750 0.194717
0.200903 0.202164 0.200512
0.181982 0.181697 0.182992
0.057154 0.057034 0.056873
0.155894 0.155645 0.157686
0.070551 0.070456 0.070896
0.189016 0.178654 0.176905
0.205371 0.204769 0.204463
0.111823 0.112133 0.111879
0.123897 0.120563 0.118786
0.058655 0.058616 0.058476
0.201493 0.204632 0.206207
0.159784 0.160162 0.162816
0.156809 0.162289 0.162679
0.177867 0.177942 0.178444
0.195361 0.195244 0.195635
0.195561 0.195510 0.195830
0.189327 0.189354 0.189570
0.174606 0.179431 0.194333
0.178569 0.178348 0.173432
0.193372 0.193746 0.195647
0.186370 0.186257 0.186357
0.167543 0.167659 0.167672
0.099770 0.098780 0.098656
0.224082 0.223637 0.223092
0.189882 0.185791 0.185138
0.188894 0.187776 0.186522
0.061975 0.061364 0.061339
0.229393 0.231193 0.231018
0.158155 0.158250 0.159825
0.141972 0.143241 0.148286
0.163352 0.166620 0.170000
0.204805 0.204480 0.204233
0.185807 0.186240 0.186374
0.132675 0.127131 0.125253
0.112378 0.112814 0.113523
0.155329 0.155256 0.155512
0.161328 0.160610 0.162475
0.168180 0.167059 0.165604
0.165133 0.164939 0.164904
0.088810 0.088634 0.088339
0.169519 0.169765 0.169764
0.099806 0.099205 0.099195
0.176424 0.175356 0.171490
0.192835 0.188279 0.186805
0.149572 0.140791 0.140341
0.123693 0.125067 0.130235
0.054462 0.053892 0.053707
0.061040 0.060914 0.060476
0.169578 0.170763 0.172489
0.045749 0.045594 0.045190
0.157232 0.157614 0.157645
0.144817 0.144869 0.145112
0.217617 0.218843 0.218202
0.187738 0.187893 0.188080
0.196104 0.195973 0.196091
0.193421 0.193527 0.194654
0.206937 0.205881 0.198778
0.243883 0.242664 0.242230
0.239825 0.240469 0.240451
0.080650 0.081579 0.081678
0.173275 0.173231 0.174584
0.132494 0.132288 0.132014
0.053079 0.052968 0.052894
0.192405 0.200018 0.200715
0.195862 0.192534 0.192386
0.208942 0.208621 0.207720
0.136166 0.135685 0.135305
0.174463 0.174276 0.174161
0.184144 0.186446 0.186315
0.045932 0.045901 0.045775
0.154888 0.153358 0.144627
0.166348 0.165175 0.168688
0.168855 0.169030 0.169042
0.161138 0.160871 0.159000
0.119358 0.119209 0.118816
0.157034 0.157018 0.156585
0.114837 0.114820 0.114417
0.146496 0.146089 0.147201
0.187345 0.185939 0.183294
0.163408 0.164539 0.165964
0.178734 0.179220 0.179380
0.149656 0.149321 0.149441
0.060390 0.060310 0.059967
0.196253 0.201320 0.211251
0.157199 0.157764 0.157821
0.163598 0.162307 0.161379
0.049623 0.049439 0.048868
0.082795 0.082681 0.082506
0.192217 0.193189 0.195016
0.201121 0.200876 0.201047
0.100407 0.100588 0.100572
0.059889 0.060781 0.060967
0.072914 0.071386 0.071699
0.111969 0.112439 0.112940
0.220205 0.220361 0.220057
0.189684 0.189560 0.189716
0.057224 0.058027 0.057687
0.085855 0.086052 0.086043
0.249065 0.248469 0.248241
0.180212 0.176785 0.175995
0.092601 0.093395 0.093855
0.196278 0.196839 0.198331
0.181517 0.181169 0.180525
0.192722 0.194321 0.195337
0.187537 0.186108 0.185045
0.128378 0.128477 0.128656
0.161000 0.164661 0.164998
0.153249 0.154055 0.169604
0.181677 0.181844 0.181817
0.150069 0.142031 0.147362
0.214039 0.213434 0.213871
0.196599 0.201118 0.201732
0.152579 0.152463 0.152553
0.186846 0.187762 0.188504
0.187888 0.187909 0.187925
0.248219 0.247984 0.248065
0.207747 0.207637 0.208082
0.169805 0.165408 0.165056
0.079970 0.079972 0.080015
0.053060 0.052251 0.051236
0.181785 0.181710 0.181694
0.056084 0.055638 0.056041
0.189839 0.189210 0.189466
0.058100 0.058655 0.058616
0.184073 0.186540 0.186308
0.190205 0.184493 0.183946
0.119386 0.119753 0.119864
0.056762 0.056629 0.056287
0.157724 0.157097 0.157303
0.140242 0.140184 0.139926
0.057794 0.057570 0.057689
0.173554 0.173488 0.174711
0.147201 0.153095 0.154537
0.194696 0.200797 0.202657
0.088339 0.088113 0.088567
0.188206 0.189035 0.190248
0.191077 0.194095 0.188988
0.239396 0.232773 0.238013
0.178334 0.170517 0.170846
0.181055 0.180781 0.180793
0.215316 0.210789 0.210224
0.179745 0.179266 0.186525
0.152055 0.152233 0.153073
0.182240 0.181533 0.180907
0.055503 0.055529 0.055442
0.049060 0.048823 0.048672
0.053605 0.052824 0.050913
0.198079 0.197366 0.196568
0.200276 0.201174 0.201321
0.223528 0.229540 0.229896
0.183862 0.184186 0.184592
0.169914 0.170582 0.170051
0.214896 0.215014 0.215107
0.184480 0.184181 0.183059
0.098196 0.097564 0.097534
0.140189 0.139787 0.139650
0.228693 0.228634 0.230515
0.190860 0.191076 0.190174
0.185884 0.187728 0.187867
0.205099 0.205587 0.206283
0.208068 0.207853 0.204828
0.164939 0.164904 0.164459
0.147100 0.144554 0.143562
0.208176 0.208472 0.207668
0.171827 0.171787 0.171580
0.172107 0.171861 0.171854
0.168305 0.172354 0.173317
0.188008 0.187753 0.187146
0.212789 0.212888 0.213160
0.065328 0.065542 0.065280
0.193051 0.189668 0.188030
0.189266 0.189905 0.191017
0.087493 0.086415 0.085969
0.182624 0.182969 0.182820
0.237327 0.236027 0.234369
0.070632 0.070730 0.070572
0.070031 0.069556 0.069478
0.064094 0.064115 0.063737
0.180475 0.180382 0.180247
0.050148 0.049480 0.049605
0.053674 0.053478 0.053349
0.088225 0.088267 0.088592
0.063558 0.063540 0.063329
0.184531 0.186282 0.196078
0.209298 0.208649 0.208864
0.179720 0.180690 0.180817
0.115860 0.115442 0.115865
0.192521 0.198880 0.200690
0.184691 0.188280 0.189506
0.246604 0.246374 0.245761
0.185781 0.185880 0.186353
0.162291 0.161425 0.156809
0.217835 0.218031 0.219151
0.168853 0.168979 0.169149
0.157064 0.157379 0.157171
0.160918 0.157607 0.154900
0.155823 0.155797 0.155416
0.180303 0.177174 0.175825
0.191503 0.192987 0.193373
0.153335 0.154542 0.158568
0.190375 0.191235 0.191181
0.198691 0.196423 0.196574
0.094643 0.090265 0.091882
0.191961 0.190588 0.190716
0.216501 0.216244 0.219149
0.150765 0.150757 0.149156
0.060972 0.060800 0.060360
0.115502 0.115694 0.117322
0.144483 0.154888 0.156869
0.192129 0.192710 0.193212
0.150944 0.157957 0.157853
0.191528 0.192464 0.192326
0.182288 0.182931 0.183701
0.158252 0.158024 0.157764
0.161085 0.163075 0.164270
0.170140 0.170114 0.169779
0.207355 0.207750 0.208430
0.138788 0.135393 0.134892
0.197330 0.200069 0.201404
0.130912 0.130596 0.130748
0.195891 0.195679 0.193476
0.049862 0.049977 0.050129
0.179366 0.179299 0.179203
0.077329 0.080940 0.081397
0.164076 0.163984 0.170106
0.204531 0.204144 0.203352
0.154268 0.154885 0.154974
0.173929 0.176385 0.176382
0.090231 0.088721 0.088482
0.065027 0.065396 0.065938
0.214370 0.214267 0.213275
0.161626 0.161227 0.161826
0.110546 0.110737 0.111017
0.206718 0.208719 0.211460
0.198890 0.198681 0.198422
0.080729 0.081093 0.080946
0.088417 0.088588 0.087433
0.074314 0.093098 0.094361
0.181344 0.180985 0.181056
0.079541 0.078052 0.078365
0.214308 0.209691 0.209535
0.188914 0.189649 0.190058
0.064891 0.065859 0.065530
0.221804 0.218754 0.219414
0.090012 0.089606 0.088311
0.181220 0.179991 0.179630
0.048339 0.047954 0.048248
0.194251 0.191478 0.191053
0.149396 0.149365 0.149272
0.165964 0.166348 0.168289
0.046137 0.047340 0.055104
0.180273 0.190576 0.191871
0.152673 0.152967 0.152985
0.048823 0.048672 0.047213
0.205615 0.204974 0.180652
0.158418 0.158398 0.158567
0.183680 0.183179 0.182985
0.087227 0.093597 0.094963
0.204749 0.205208 0.205056
0.199730 0.199908 0.199805
0.170948 0.171653 0.173765
0.043920 0.044434 0.044687
0.234499 0.234677 0.234659
0.166470 0.166289 0.165904
0.046314 0.046218 0.046661
0.149078 0.149000 0.148492
0.178401 0.179128 0.183224
0.200982 0.201249 0.201126
0.099481 0.098354 0.097173
0.182901 0.182867 0.180622
0.212869 0.213680 0.213819
0.145058 0.144704 0.144933
0.172831 0.172649 0.173165
0.115586 0.115835 0.115515
0.117366 0.116135 0.108089
0.200541 0.199423 0.199734
0.143993 0.140051 0.145448
0.157573 0.156920 0.157047
0.192393 0.192206 0.192255
0.194757 0.195514 0.199155
0.150223 0.154151 0.150335
0.049727 0.049442 0.049318
0.069736 0.068137 0.067297
0.209286 0.207908 0.207537
0.097196 0.095940 0.096627
0.186181 0.185912 0.186116
0.152421 0.151926 0.152587
0.144229 0.140273 0.140557
0.181701 0.181682 0.181776
0.102201 0.102262 0.102301
0.103966 0.103765 0.104075
0.159823 0.160092 0.161266
0.195635 0.195675 0.195846
0.162621 0.162765 0.162973
0.079650 0.079970 0.079972
0.201983 0.201816 0.201983
0.181305 0.181573 0.181615
0.163134 0.163038 0.162089
0.143527 0.143498 0.143466
0.142721 0.142876 0.142932
0.141616 0.133490 0.136954
0.175413 0.174905 0.174729
0.189191 0.189330 0.189185
0.208865 0.209243 0.209667
0.202275 0.203618 0.203283
0.208621 0.208428 0.208132
0.162995 0.162879 0.162884
0.184505 0.184873 0.185131
0.196099 0.200063 0.201684
0.144628 0.144397 0.144291
0.201154 0.202030 0.202335
0.175693 0.175066 0.172855
0.053844 0.054350 0.054557
0.180302 0.191456 0.191523
0.158613 0.158037 0.158247
0.059211 0.059177 0.059388
0.056289 0.056718 0.057141
0.152897 0.152132 0.152202
0.178302 0.178724 0.179443
0.145007 0.144755 0.144687
0.180046 0.180456 0.180981
0.190097 0.191655 0.191025
0.181620 0.181725 0.182038
0.249648 0.249841 0.249752
0.088335 0.088783 0.088598
0.155732 0.155696 0.155558
0.124985 0.124994 0.124912
0.192388 0.192320 0.192303
0.126644 0.130991 0.132371
0.192872 0.196954 0.195708
0.238040 0.238476 0.239637
0.135371 0.140934 0.144412
0.184990 0.182760 0.182380
0.185363 0.185615 0.187072
0.179207 0.178559 0.175475
0.226366 0.226117 0.225822
0.181822 0.181581 0.181330
0.169032 0.169326 0.169673
0.161950 0.151163 0.149246
0.083722 0.083455 0.083611
0.200850 0.200733 0.200707
0.175757 0.175880 0.176468
0.163750 0.163827 0.169450
0.177706 0.177830 0.177157
0.076014 0.076172 0.076279
0.053510 0.053724 0.053340
0.208859 0.208961 0.208610
0.177509 0.187529 0.188017
0.082338 0.082790 0.084541
0.199159 0.199307 0.202691
0.109054 0.109118 0.109210
0.166509 0.165837 0.163808
0.227697 0.226854 0.225992
0.197664 0.197458 0.197478
0.106704 0.106606 0.106836
0.080731 0.081053 0.083936
0.212689 0.212145 0.208938
0.125553 0.125658 0.125205
0.184643 0.184710 0.183518
0.184008 0.184191 0.186205
0.182971 0.182602 0.178989
0.085893 0.086064 0.086023
0.096864 0.096693 0.096905
0.188811 0.189417 0.198335
0.073481 0.073757 0.074244
0.183640 0.183604 0.183408
0.125170 0.125143 0.125309
0.106044 0.106149 0.106566
0.198139 0.198724 0.204799
0.187597 0.187033 0.183387
0.191277 0.189881 0.191450
0.195915 0.197565 0.217713
0.097089 0.097069 0.097175
0.064734 0.064589 0.064981
0.200239 0.197426 0.197273
0.053187 0.053271 0.053447
0.196232 0.196202 0.192069
0.095374 0.095366 0.095378
0.159980 0.157370 0.158258
0.183487 0.183251 0.183431
0.246357 0.246786 0.247958
0.162340 0.162419 0.162291
0.199160 0.199021 0.198903
0.169715 0.169730 0.169615
0.181828 0.180995 0.178484
0.052981 0.052166 0.051804
0.167889 0.167448 0.165969
0.212554 0.212177 0.210713
0.143708 0.144224 0.144850
0.182990 0.183857 0.184487
0.070653 0.070525 0.070257
0.180767 0.176901 0.180729
0.161308 0.161310 0.161472
0.167299 0.167654 0.167669
0.228834 0.224332 0.223823
0.114720 0.114858 0.114696
0.065437 0.065713 0.067405
0.228846 0.209085 0.208184
0.169987 0.169595 0.169613
0.066724 0.066936 0.067692
0.154365 0.145589 0.145480
0.188842 0.188824 0.188492
0.194370 0.195473 0.195775
0.149727 0.150223 0.154151
0.076276 0.076722 0.076386
0.218684 0.211681 0.210486
0.058752 0.058712 0.058468
0.114611 0.115406 0.121742
0.188781 0.188560 0.188134
0.185309 0.186902 0.189814
0.194844 0.195963 0.196622
0.193426 0.193430 0.193391
0.092670 0.092431 0.092696
0.111413 0.111570 0.111630
0.192821 0.193668 0.200469
0.187835 0.190281 0.186626
0.157822 0.156686 0.149861
0.169654 0.169741 0.170251
0.201924 0.200735 0.201132
0.204992 0.204786 0.203671
0.207721 0.209687 0.210788
0.193943 0.192621 0.192934
0.221845 0.221636 0.219374
0.163822 0.163959 0.164159
0.063366 0.063329 0.062792
0.142951 0.143385 0.144748
0.173255 0.175289 0.173129
0.126972 0.127564 0.127547
0.053814 0.054335 0.054279
0.096221 0.096433 0.096658
0.219737 0.219701 0.219376
0.064292 0.064223 0.064236
0.206916 0.205383 0.205043
0.198707 0.193786 0.188766
0.169791 0.162616 0.169115
0.204254 0.204986 0.204823
0.157712 0.157445 0.157604
0.217234 0.217567 0.217604
0.139493 0.139838 0.140531
0.199446 0.199360 0.199349
0.187880 0.187738 0.187893
0.052927 0.052879 0.052736
0.054263 0.054249 0.054093
0.166739 0.166733 0.169392
0.102009 0.101112 0.100671
0.186840 0.187200 0.189679
0.109060 0.109410 0.109823
0.206397 0.206627 0.206917
0.186742 0.185998 0.182226
0.176002 0.176334 0.177073
0.206469 0.206453 0.206328
0.052893 0.052825 0.052968
0.211939 0.211545 0.206981
0.046251 0.046521 0.046144
0.190662 0.190055 0.189948
0.077620 0.077730 0.077247
0.184812 0.183982 0.185943
0.201503 0.200253 0.199893
0.208244 0.207894 0.207888
0.210141 0.210071 0.211378
0.154472 0.148723 0.156821
0.122734 0.120229 0.119860
0.151104 0.146525 0.142089
0.162351 0.169470 0.170052
0.171669 0.170040 0.170308
0.201185 0.207638 0.207211
0.192585 0.195783 0.195749
0.183526 0.185724 0.187226
0.074424 0.074347 0.074622
0.192727 0.192626 0.192806
0.189221 0.188792 0.187235
0.145142 0.144951 0.144229
0.053464 0.053460 0.053109
0.053374 0.059124 0.071122
0.171644 0.171241 0.170826
0.231056 0.231377 0.231318
0.165635 0.165775 0.165988
0.098782 0.098638 0.098412
0.051539 0.051597 0.051941
0.202522 0.199536 0.193051
0.175953 0.177810 0.181343
0.233849 0.233856 0.233645
0.153175 0.153050 0.153698
0.082151 0.082338 0.082790
0.182963 0.182807 0.182705
0.191866 0.190765 0.191115
0.145649 0.145321 0.145539
0.068856 0.069098 0.069293
0.152923 0.153251 0.152099
0.046146 0.046711 0.046621
0.242871 0.241634 0.212335
0.044667 0.044737 0.044736
0.228509 0.226861 0.226937
0.117086 0.117165 0.117440
0.189326 0.190962 0.190775
0.069884 0.070468 0.071165
0.183346 0.184792 0.185340
0.213675 0.213658 0.213679
0.198566 0.198913 0.198982
0.179850 0.179534 0.179763
0.188901 0.188872 0.189179
0.057463 0.057314 0.057182
0.134044 0.133868 0.133636
0.052642 0.052650 0.052596
0.170787 0.169001 0.168968
0.179431 0.194333 0.194223
0.173162 0.176333 0.172989
0.098694 0.097570 0.097518
0.213338 0.213210 0.213256
0.203357 0.200669 0.200218
0.183397 0.184246 0.186301
0.175995 0.176052 0.175294
0.056421 0.056650 0.057211
0.057621 0.053789 0.053680
0.148412 0.148002 0.147850
0.186814 0.187449 0.187395
0.058884 0.059067 0.058735
0.214923 0.209786 0.212424
0.153129 0.153500 0.153792
0.185978 0.187673 0.189006
0.065720 0.066315 0.066645
0.186995 0.187960 0.188252
0.134944 0.134679 0.134633
0.205187 0.205138 0.204939
0.216533 0.220037 0.220288
0.187265 0.188876 0.189147
0.197115 0.197214 0.200982
0.162299 0.162388 0.163801
0.170532 0.170522 0.170786
0.053551 0.053117 0.053734
0.182732 0.183058 0.182843
0.144979 0.144817 0.144869
0.224850 0.222063 0.221919
0.178360 0.178844 0.179040
0.060276 0.060255 0.060690
