0.517594 0.509234 0.507629
0.138558 0.137967 0.137638
0.189879 0.191889 0.197350
0.243879 0.243822 0.243817
0.130027 0.130560 0.130736
0.496977 0.495297 0.495049
0.110796 0.111542 0.113361
0.434940 0.432551 0.437154
0.418669 0.410801 0.408782
0.291379 0.291498 0.291623
0.089824 0.089780 0.088123
0.495297 0.495772 0.494625
0.399854 0.396888 0.400405
0.496511 0.490596 0.485687
0.511031 0.515110 0.513477
0.509353 0.508359 0.506283
0.426165 0.430523 0.433143
0.499839 0.500656 0.499606
0.254302 0.250520 0.250703
0.445383 0.439793 0.416889
0.171643 0.171727 0.171791
0.177698 0.176382 0.175381
0.368018 0.371893 0.377826
0.241157 0.238698 0.237047
0.220382 0.220546 0.220825
0.291988 0.291334 0.291203
0.503918 0.504833 0.506575
0.473363 0.471851 0.471539
0.147106 0.146638 0.146425
0.321639 0.318141 0.320986
0.598569 0.598784 0.599817
0.121782 0.118412 0.116868
0.173295 0.173366 0.171980
0.513040 0.524661 0.524376
0.069432 0.077734 0.078676
0.346217 0.343953 0.341253
0.134502 0.134875 0.136825
0.483453 0.481760 0.476851
0.156469 0.157140 0.159617
0.355104 0.360616 0.362116
0.181563 0.181822 0.182258
0.505587 0.505293 0.501802
0.155812 0.156054 0.157089
0.291640 0.290113 0.288025
0.327827 0.317102 0.329349
0.518869 0.523705 0.520541
0.563422 0.563841 0.559091
0.608735 0.608098 0.599843
0.153070 0.153023 0.152941
0.543317 0.542911 0.549329
0.580810 0.578560 0.578083
0.466044 0.455838 0.455034
0.735005 0.734946 0.734088
0.480758 0.477474 0.481888
0.139830 0.139822 0.140073
0.143266 0.143147 0.143240
0.503298 0.505523 0.497953
0.496490 0.496299 0.502430
0.146005 0.143280 0.140491
0.559268 0.557348 0.554618
0.139931 0.140202 0.140105
0.433811 0.433010 0.429570
0.163377 0.165477 0.168177
0.220956 0.221460 0.221752
0.523609 0.523284 0.523027
0.518837 0.519234 0.522118
0.440005 0.440265 0.441266
0.490145 0.497369 0.497338
0.188103 0.192847 0.193664
0.164665 0.163590 0.163556
0.272382 0.275129 0.277164
0.148116 0.148395 0.148462
0.173446 0.173445 0.173324
0.164054 0.164254 0.165468
0.215421 0.214686 0.212306
0.417372 0.417225 0.416296
0.609016 0.607611 0.602545
0.523459 0.523682 0.522165
0.386377 0.385393 0.384399
0.145320 0.146491 0.148020
0.445491 0.445531 0.445792
0.133629 0.133824 0.133811
0.423192 0.423193 0.420910
0.216661 0.217168 0.217715
0.145686 0.145257 0.144013
0.443265 0.457137 0.460436
0.428965 0.425232 0.423272
0.208808 0.208555 0.209153
0.463784 0.462552 0.442961
0.274572 0.289796 0.307783
0.128431 0.128129 0.125410
0.427786 0.429941 0.433016
0.479973 0.481483 0.482764
0.412124 0.411657 0.411579
0.511864 0.490106 0.486796
0.180875 0.181563 0.181822
0.209352 0.209298 0.209132
0.197643 0.196508 0.195749
0.265269 0.261476 0.262964
0.219271 0.220020 0.222277
0.432099 0.432835 0.434283
0.402550 0.400413 0.399722
0.508552 0.508976 0.509577
0.565845 0.564338 0.564242
0.278436 0.281873 0.284045
0.100659 0.101688 0.102341
0.508359 0.506283 0.500694
0.148621 0.148177 0.148061
0.506859 0.500277 0.498374
0.430070 0.430381 0.440697
0.261476 0.262964 0.264166
0.155861 0.153958 0.141910
0.273995 0.277589 0.277575
0.433833 0.434666 0.438413
0.529327 0.531291 0.531686
0.524505 0.525058 0.524618
0.318141 0.320986 0.322033
0.237048 0.234059 0.233451
0.455008 0.458449 0.458436
0.593641 0.589475 0.586593
0.133371 0.133434 0.133579
0.342547 0.346002 0.346433
0.127657 0.129069 0.131667
0.169825 0.168683 0.168440
0.184909 0.184975 0.184242
0.487708 0.482787 0.484024
0.096811 0.092757 0.079569
0.508200 0.514456 0.514355
0.086409 0.087182 0.087381
0.456376 0.449953 0.445717
0.278448 0.278308 0.277928
0.494340 0.494996 0.494684
0.411385 0.409755 0.406779
0.588250 0.587340 0.585533
0.497462 0.494145 0.493737
0.555832 0.554258 0.554739
0.466414 0.471157 0.473289
0.162211 0.182700 0.184205
0.171379 0.168690 0.167425
0.322999 0.323902 0.321035
0.433318 0.434064 0.440812
0.172295 0.174560 0.173876
0.405839 0.404624 0.398610
0.141967 0.141445 0.141325
0.112438 0.113750 0.117510
0.228259 0.229651 0.229819
0.384110 0.385933 0.389930
0.457100 0.465139 0.467686
0.076777 0.069094 0.059587
0.399344 0.391370 0.388706
0.365042 0.368256 0.369553
0.419988 0.426468 0.423652
0.178345 0.178459 0.178310
0.104783 0.105100 0.105442
0.130018 0.129000 0.126372
0.042862 0.040624 0.040447
0.075604 0.075595 0.075616
0.444861 0.453830 0.459073
0.148388 0.149205 0.151285
0.490732 0.491079 0.491980
0.193242 0.196308 0.197934
0.214066 0.214046 0.214150
0.174403 0.176314 0.177239
0.165804 0.165828 0.166101
0.213743 0.213580 0.213288
0.363559 0.362137 0.372342
0.173412 0.172957 0.171919
0.497645 0.495485 0.493326
0.300800 0.297628 0.296189
0.394474 0.393820 0.393061
0.213666 0.214828 0.215363
0.075455 0.076086 0.076300
0.165116 0.164154 0.163092
0.525486 0.525046 0.520729
0.526035 0.519974 0.519865
0.159600 0.160275 0.160571
0.488222 0.487100 0.487688
0.459852 0.461226 0.460864
0.462316 0.459580 0.456767
0.521151 0.521392 0.521104
0.435115 0.425089 0.413651
0.115662 0.115426 0.113064
0.130537 0.131357 0.131385
0.459162 0.457640 0.457657
0.076087 0.076246 0.075438
0.511768 0.513733 0.516008
0.406527 0.408049 0.408916
0.423851 0.415588 0.405919
0.581305 0.581427 0.581294
0.507613 0.508108 0.509057
0.733879 0.733568 0.733243
0.553947 0.554491 0.556363
0.384941 0.386932 0.383302
0.146337 0.146593 0.146389
0.532507 0.532380 0.531478
0.634227 0.636439 0.636316
0.302316 0.297077 0.294039
0.590912 0.589746 0.588250
0.141347 0.141612 0.141435
0.211717 0.211801 0.212310
0.221448 0.222669 0.226991
0.181108 0.184928 0.193919
0.485924 0.489751 0.488679
0.417221 0.421643 0.433684
0.561345 0.558582 0.559363
0.482082 0.480990 0.476669
0.187447 0.177477 0.177363
0.405919 0.407481 0.407647
0.422284 0.434293 0.435513
0.428665 0.429147 0.432301
0.483509 0.485804 0.486280
0.310628 0.312571 0.313663
0.196744 0.197325 0.198980
0.329456 0.330291 0.331382
0.226684 0.227161 0.227214
0.258742 0.258319 0.257970
0.545095 0.552248 0.549140
0.350706 0.355357 0.356962
0.425296 0.421691 0.389279
0.068551 0.068743 0.068889
0.434995 0.434923 0.434645
0.131385 0.132245 0.134412
0.140982 0.141776 0.142179
0.175052 0.174696 0.173962
0.251255 0.247320 0.246685
0.560936 0.561251 0.562489
0.186152 0.181862 0.181974
0.532549 0.530634 0.523768
0.467038 0.467281 0.468485
0.137073 0.137199 0.137793
0.419067 0.421422 0.422663
0.096671 0.096769 0.096849
0.444717 0.442905 0.442161
0.425518 0.426469 0.427653
0.486567 0.480734 0.473976
0.104014 0.103454 0.103032
0.134448 0.134469 0.134320
0.255217 0.254804 0.252675
0.505293 0.498710 0.486873
0.160196 0.160361 0.160221
0.149262 0.150357 0.150575
0.149467 0.149305 0.149478
0.523974 0.523428 0.522691
0.180869 0.179838 0.179433
0.376487 0.377187 0.378371
0.261267 0.264144 0.260613
0.113646 0.113326 0.112087
0.464066 0.462567 0.462629
0.139605 0.139649 0.139403
0.088123 0.087234 0.086250
0.510251 0.507510 0.508281
0.195173 0.199575 0.209958
0.167797 0.169868 0.171297
0.509752 0.508748 0.511065
0.565241 0.556032 0.541228
0.220044 0.220328 0.220378
0.533847 0.534991 0.532755
0.563195 0.562393 0.558573
0.512523 0.505516 0.501831
0.193048 0.193812 0.197091
0.456555 0.456654 0.455238
0.581974 0.580985 0.580787
0.366278 0.360474 0.352965
0.362650 0.361703 0.360916
0.397782 0.400835 0.402796
0.517349 0.515518 0.517413
0.446223 0.438586 0.438295
0.217905 0.216351 0.215165
0.530737 0.534065 0.535189
0.583047 0.586227 0.588552
0.182187 0.182673 0.184317
0.431258 0.430199 0.419170
0.113360 0.113592 0.113283
0.515346 0.517698 0.514433
0.487637 0.486972 0.483809
0.205886 0.204721 0.204598
0.203441 0.196307 0.213914
0.172643 0.172305 0.173172
0.040431 0.040374 0.040341
0.384955 0.369945 0.356631
0.520034 0.527114 0.524997
0.532934 0.532100 0.533653
0.327242 0.326886 0.326300
0.458687 0.458038 0.457997
0.132516 0.134183 0.134540
0.531383 0.526839 0.524380
0.365082 0.363890 0.363359
0.467110 0.461855 0.462757
0.135788 0.140192 0.140561
0.474725 0.480864 0.490521
0.429671 0.428462 0.429170
0.182700 0.184205 0.187030
0.619398 0.614994 0.618049
0.408684 0.407112 0.406100
0.223362 0.223444 0.223154
0.507064 0.514787 0.520448
0.404778 0.404720 0.403974
0.178422 0.178490 0.179159
0.330839 0.333429 0.350949
0.400737 0.402405 0.402191
0.237954 0.236409 0.236011
0.143587 0.145216 0.145425
0.198676 0.200678 0.201861
0.429454 0.430596 0.432809
0.388255 0.393499 0.396616
0.180342 0.167990 0.167223
0.478174 0.480956 0.484635
0.428139 0.427426 0.425694
0.472278 0.471708 0.469852
0.438055 0.441368 0.436910
0.218574 0.233506 0.235985
0.344317 0.347903 0.347833
0.192862 0.191732 0.191389
0.397499 0.389771 0.386646
0.137909 0.133792 0.131245
0.565088 0.560737 0.558146
0.174612 0.175075 0.174940
0.436782 0.437347 0.439987
0.413581 0.411639 0.411342
0.206207 0.208855 0.209669
0.475687 0.473798 0.469286
0.111400 0.117941 0.119473
0.240982 0.240879 0.240181
0.406111 0.407778 0.408747
0.509855 0.509353 0.508359
0.397387 0.398851 0.398694
0.211300 0.212257 0.211495
0.201067 0.198622 0.197142
0.250127 0.250296 0.250499
0.418833 0.420604 0.420954
0.175526 0.176328 0.172511
0.393405 0.394848 0.395339
0.406272 0.411014 0.407839
0.439981 0.444158 0.447405
0.193298 0.190831 0.187693
0.421413 0.425113 0.426715
0.393291 0.394590 0.404860
0.533263 0.528583 0.527516
0.243130 0.243211 0.242423
0.212930 0.213000 0.213047
0.133599 0.139766 0.139777
0.555419 0.526114 0.523173
0.218940 0.218670 0.218255
0.467260 0.464374 0.464466
0.123108 0.122285 0.121392
0.219582 0.220532 0.222275
0.549039 0.548786 0.547220
0.380730 0.368346 0.368365
0.157128 0.157296 0.156442
0.378153 0.378316 0.380460
0.171138 0.170393 0.169692
0.483291 0.480445 0.483434
0.553345 0.557083 0.560202
0.380555 0.380267 0.386327
0.158854 0.157512 0.157279
0.184016 0.178753 0.177609
0.536663 0.535900 0.536508
0.433363 0.434199 0.435761
0.403817 0.399854 0.396888
0.423855 0.415374 0.410233
0.159168 0.149980 0.147108
0.102999 0.096702 0.084682
0.391612 0.389349 0.385213
0.425703 0.426325 0.426327
0.412160 0.411638 0.411399
0.602545 0.591930 0.592400
0.322990 0.322611 0.321131
0.154968 0.155008 0.154451
0.135261 0.136616 0.137079
0.636294 0.635458 0.635533
0.494393 0.486135 0.485779
0.283156 0.282544 0.281145
0.141358 0.141516 0.141922
0.200441 0.203803 0.207969
0.227872 0.228976 0.228511
0.423772 0.426186 0.426173
0.218251 0.217812 0.217248
0.511184 0.509213 0.508636
0.287492 0.287718 0.288842
0.120668 0.120047 0.119491
0.151825 0.151785 0.148253
0.409037 0.408052 0.402220
0.408856 0.409807 0.409947
0.430793 0.433743 0.439317
0.092158 0.096929 0.102254
0.144527 0.142676 0.142859
0.120348 0.120858 0.121212
0.080996 0.084247 0.086381
0.234028 0.237881 0.240188
0.458631 0.457692 0.456514
0.284625 0.284256 0.282724
0.461626 0.452769 0.447651
0.214594 0.214694 0.215009
0.575287 0.574695 0.571847
0.176231 0.176197 0.176431
0.420393 0.418952 0.412835
0.503378 0.496946 0.486117
0.109704 0.108675 0.106292
0.348018 0.359424 0.383120
0.510740 0.509707 0.510465
0.130828 0.131153 0.135138
0.280217 0.280734 0.281034
0.178591 0.195892 0.206338
0.172235 0.172141 0.172223
0.408822 0.410276 0.411956
0.186604 0.186405 0.185622
0.216909 0.217018 0.217126
0.116271 0.116931 0.116363
0.420814 0.425537 0.438919
0.221498 0.223610 0.227064
0.115723 0.115742 0.115904
0.499741 0.498520 0.495266
0.310928 0.310913 0.310957
0.127965 0.127009 0.126638
0.110550 0.110796 0.111542
0.118218 0.109390 0.107090
0.157392 0.157295 0.156807
0.183373 0.188710 0.189204
0.444696 0.440057 0.440207
0.462535 0.460599 0.455681
0.418396 0.417736 0.420536
0.105704 0.105732 0.105577
0.423109 0.423641 0.421618
0.116361 0.118670 0.119530
0.179406 0.168835 0.167284
0.549621 0.546057 0.548833
0.515481 0.514175 0.513888
0.372321 0.377117 0.376722
0.177601 0.177496 0.177970
0.440878 0.440008 0.438295
0.489257 0.490454 0.489997
0.147317 0.148379 0.150756
0.734522 0.729887 0.730365
0.450367 0.448312 0.446680
0.496945 0.495253 0.495111
0.497624 0.498602 0.498547
0.591155 0.597738 0.596154
0.224891 0.223777 0.223961
0.548741 0.577130 0.581488
0.133885 0.130805 0.129891
0.204447 0.204633 0.204899
0.559075 0.561994 0.559728
0.184515 0.185059 0.185379
0.377455 0.379038 0.381936
0.426758 0.425307 0.426738
0.472198 0.473716 0.470733
0.558328 0.557161 0.554266
0.387940 0.387805 0.388579
0.164910 0.163371 0.162813
0.145892 0.146081 0.144570
0.406072 0.405968 0.407142
0.108851 0.109998 0.110004
0.371683 0.371957 0.373921
0.556748 0.556925 0.556857
0.238465 0.248984 0.248890
0.282694 0.282853 0.283123
0.154623 0.154788 0.156006
0.331340 0.327867 0.328031
0.505486 0.509171 0.510900
0.326844 0.330388 0.338532
0.442500 0.442319 0.445051
0.139412 0.139472 0.138699
0.405917 0.403736 0.403129
0.431541 0.431139 0.431427
0.365903 0.364000 0.365324
0.364620 0.365508 0.365641
0.544165 0.542649 0.541819
0.433033 0.425331 0.422422
0.390119 0.394023 0.393467
0.226541 0.223927 0.218573
0.455450 0.455932 0.457800
0.422376 0.421707 0.421202
0.140981 0.140019 0.138426
0.126383 0.126521 0.125521
0.155040 0.153485 0.153051
0.453916 0.454944 0.465950
0.436650 0.438854 0.439198
0.255851 0.258763 0.259059
0.149091 0.150306 0.152430
0.328279 0.337737 0.340331
0.166201 0.166730 0.167469
0.462795 0.458663 0.443309
0.253940 0.254948 0.256376
0.585926 0.584621 0.586961
0.155346 0.155960 0.156756
0.112260 0.112300 0.111271
0.525246 0.530555 0.532096
0.533134 0.535825 0.540546
0.110609 0.100261 0.095807
0.516438 0.515503 0.515387
0.327904 0.326943 0.326752
0.483062 0.485339 0.487414
0.138476 0.138060 0.137593
0.494772 0.495034 0.494567
0.510478 0.511938 0.512040
0.136808 0.136689 0.136704
0.534579 0.536269 0.536126
0.526901 0.529541 0.532949
0.191389 0.185857 0.185274
0.428877 0.429126 0.427105
0.262858 0.258835 0.256481
0.204561 0.186651 0.184504
0.481834 0.479937 0.479892
0.382934 0.391777 0.394392
0.482685 0.479761 0.471961
0.129689 0.129589 0.130108
0.148838 0.147619 0.147088
0.441567 0.442966 0.445729
0.152638 0.150922 0.150934
0.441203 0.443009 0.440156
0.472460 0.469290 0.451028
0.139238 0.137909 0.133792
0.405560 0.405348 0.407612
0.427980 0.428462 0.428365
0.145867 0.146081 0.147198
0.177459 0.180268 0.180301
0.452546 0.452838 0.454908
0.147723 0.148021 0.148540
0.420069 0.420444 0.422751
0.083587 0.084031 0.080781
0.162696 0.163310 0.165689
0.493487 0.494100 0.492009
0.066753 0.066802 0.066852
0.227681 0.228235 0.229566
0.187611 0.187518 0.187948
0.433951 0.428979 0.421061
0.556889 0.561563 0.557096
0.418995 0.419094 0.418852
0.207040 0.209399 0.218025
0.458136 0.462317 0.463557
0.354713 0.354677 0.354340
0.421716 0.427090 0.427431
0.219930 0.219958 0.220012
0.516377 0.518094 0.518903
0.136780 0.133266 0.133829
0.192563 0.192468 0.194288
0.179924 0.169629 0.167806
0.291884 0.291571 0.290161
0.186718 0.185410 0.184047
0.284257 0.281402 0.282337
0.146498 0.146610 0.146339
0.467207 0.472835 0.474235
0.547816 0.549820 0.549621
0.140011 0.139362 0.133223
0.452698 0.456968 0.461249
0.581294 0.581727 0.581217
0.186695 0.186521 0.185978
0.502150 0.504405 0.504580
0.062869 0.065164 0.065328
0.095698 0.104141 0.107383
0.140996 0.140088 0.138754
0.451416 0.449510 0.448912
0.137297 0.137118 0.137017
0.592918 0.593055 0.596918
0.493753 0.492130 0.487497
0.172390 0.173006 0.175561
0.155853 0.156081 0.156381
0.256361 0.260552 0.252787
0.150554 0.149030 0.149006
0.299932 0.298262 0.296656
0.474167 0.476099 0.481465
0.177977 0.177197 0.174575
0.130400 0.140723 0.142709
0.444799 0.444817 0.444807
0.404853 0.415000 0.419691
0.504108 0.512376 0.513948
0.194467 0.194516 0.194528
0.273524 0.276117 0.276560
0.085974 0.086126 0.086343
0.282703 0.282882 0.283163
0.153954 0.152933 0.152066
0.535950 0.535988 0.535816
0.148752 0.148684 0.148458
0.160792 0.160828 0.160972
0.174977 0.175491 0.176999
0.447152 0.447498 0.448660
0.110313 0.110543 0.110798
0.556620 0.557215 0.565134
0.245662 0.246992 0.248099
0.315181 0.313518 0.313070
0.152522 0.152519 0.152463
0.485663 0.484816 0.480791
0.153350 0.159200 0.165482
0.373357 0.371194 0.377256
0.538125 0.534527 0.521674
0.443933 0.441441 0.443809
0.521703 0.530280 0.533913
0.107932 0.111114 0.112356
0.150518 0.150466 0.150607
0.561878 0.563518 0.564394
0.442426 0.443284 0.440284
0.212205 0.213835 0.218787
0.432914 0.433724 0.435707
0.339399 0.340972 0.340593
0.444897 0.440557 0.441080
0.422648 0.426448 0.427581
0.418733 0.417921 0.417294
0.171980 0.171238 0.171248
0.306043 0.295172 0.293500
0.539982 0.546203 0.545900
0.408362 0.402866 0.401572
0.581890 0.573094 0.575270
0.558233 0.559020 0.560071
0.112753 0.114548 0.123733
0.146732 0.133637 0.134947
0.177300 0.176617 0.174468
0.370017 0.369982 0.372355
0.074055 0.061114 0.059420
0.531419 0.530883 0.528963
0.172656 0.173749 0.174631
0.219942 0.219890 0.219907
0.174385 0.175072 0.175414
0.188357 0.190144 0.190246
0.735239 0.734067 0.733826
0.364325 0.364698 0.365224
0.561196 0.556341 0.554479
0.255003 0.253243 0.257430
0.256153 0.255245 0.246524
0.231313 0.231057 0.232618
0.379883 0.379696 0.381018
0.513593 0.509979 0.508306
0.245087 0.239046 0.239058
0.547348 0.544286 0.539972
0.141589 0.139648 0.138535
0.149094 0.147637 0.145247
0.504318 0.508187 0.505876
0.484391 0.485445 0.494743
0.264323 0.266602 0.270970
0.173756 0.172235 0.172141
0.448552 0.447274 0.447495
0.437941 0.435942 0.438829
0.451261 0.446279 0.446418
0.432468 0.430403 0.424140
0.425420 0.423339 0.422109
0.167476 0.167825 0.167948
0.232616 0.233113 0.229132
0.113654 0.112048 0.112570
0.566462 0.566610 0.565659
0.137801 0.132529 0.130640
0.301327 0.302280 0.303000
0.158278 0.159249 0.159208
0.486741 0.485741 0.481379
0.192958 0.192790 0.193262
0.346904 0.340029 0.328860
0.107376 0.105827 0.105424
0.507135 0.507187 0.506054
0.453997 0.456598 0.463635
0.564033 0.562891 0.564606
0.242288 0.240116 0.239495
0.135070 0.135098 0.135440
0.124559 0.109595 0.108761
0.409979 0.408937 0.403382
0.279838 0.279491 0.279055
0.449224 0.450211 0.449655
0.151129 0.159405 0.168438
0.451702 0.450654 0.445575
0.533796 0.535100 0.535219
0.474066 0.472950 0.470207
0.433285 0.432029 0.432548
0.451506 0.446598 0.446135
0.435286 0.435299 0.434872
0.452123 0.455197 0.456728
0.350814 0.355133 0.357341
0.215483 0.215124 0.215982
0.198843 0.196930 0.196187
0.220336 0.219011 0.219527
0.168835 0.167284 0.165782
0.382163 0.380306 0.378494
0.576149 0.592436 0.597316
0.183906 0.180468 0.179695
0.512623 0.508761 0.505587
0.571733 0.563087 0.561345
0.169985 0.166520 0.161243
0.475428 0.476994 0.475300
0.177045 0.177444 0.177750
0.471139 0.471148 0.474660
0.572710 0.580150 0.577343
0.405458 0.405944 0.405760
0.485741 0.481379 0.477427
0.438420 0.437369 0.436754
0.289117 0.288972 0.291995
0.481706 0.482560 0.488175
0.180305 0.180252 0.180276
0.605155 0.605431 0.609416
0.553133 0.547634 0.552879
0.172175 0.176572 0.180059
0.150889 0.151601 0.152571
0.476276 0.478764 0.479107
0.430060 0.438979 0.445269
0.066754 0.066754 0.066777
0.398624 0.398693 0.396083
0.103628 0.100595 0.090262
0.193271 0.192967 0.189977
0.497752 0.498374 0.497408
0.238301 0.237178 0.236444
0.077682 0.078950 0.081872
0.486928 0.483741 0.487655
0.580025 0.589528 0.591275
0.201672 0.205020 0.205846
0.049594 0.049267 0.048997
0.180152 0.176936 0.167879
0.140903 0.140963 0.140886
0.442345 0.439103 0.441371
0.486324 0.488088 0.489147
0.187525 0.184205 0.177384
0.137150 0.139535 0.142722
0.505599 0.506306 0.509768
0.384429 0.384618 0.380545
0.168583 0.168962 0.169789
0.178315 0.178422 0.178490
0.285130 0.285950 0.296184
0.486935 0.484919 0.484380
0.139527 0.139339 0.139057
0.163820 0.163246 0.162698
0.196632 0.197613 0.197830
0.418369 0.417761 0.417419
0.146160 0.146214 0.146468
0.077481 0.077440 0.077398
0.487892 0.486031 0.491431
0.113336 0.114102 0.115864
0.729719 0.691965 0.685469
0.501271 0.512428 0.514271
0.490014 0.496623 0.497975
0.516066 0.516167 0.517134
0.112584 0.111997 0.110653
0.116294 0.116246 0.117030
0.552677 0.554567 0.556753
0.088991 0.089560 0.090012
0.433071 0.428887 0.419677
0.542559 0.541094 0.539879
0.471462 0.470860 0.470412
0.059666 0.061285 0.063697
0.513291 0.515033 0.515950
0.507655 0.505974 0.509025
0.574982 0.578393 0.579973
0.489311 0.490650 0.488978
0.250473 0.249582 0.241614
0.047146 0.043827 0.042608
0.412839 0.414061 0.419792
0.141811 0.142002 0.142553
0.208818 0.209216 0.209302
0.514146 0.513770 0.511573
0.494481 0.493795 0.493074
0.591273 0.592032 0.594137
0.312037 0.311956 0.311921
0.408539 0.409091 0.409618
0.582284 0.580275 0.580528
0.422506 0.421836 0.424043
0.267325 0.265109 0.264042
0.168753 0.173965 0.175668
0.298179 0.297433 0.295525
0.141097 0.144748 0.146557
0.196825 0.196308 0.194542
0.129260 0.129805 0.129714
0.138843 0.137789 0.137200
0.391556 0.396309 0.399266
0.453086 0.457190 0.455470
0.284892 0.285771 0.288097
0.143508 0.143566 0.144668
0.252084 0.263264 0.269103
0.475769 0.479922 0.482445
0.336884 0.338787 0.340692
0.245351 0.247380 0.242629
0.431057 0.433055 0.436013
0.394994 0.395468 0.395314
0.164714 0.164367 0.164053
0.157167 0.161928 0.163467
0.329615 0.337331 0.340427
0.089654 0.094328 0.096783
0.247306 0.272959 0.277561
0.053396 0.053136 0.052674
0.537101 0.541012 0.539255
0.163067 0.159208 0.155779
0.117264 0.116993 0.116944
0.315219 0.314337 0.316198
0.114450 0.118964 0.120370
0.489527 0.486704 0.486436
0.238410 0.233673 0.234973
0.140680 0.139392 0.137645
0.385325 0.378770 0.371280
0.195281 0.193293 0.184117
0.438652 0.432322 0.441638
0.466694 0.465348 0.465182
0.519283 0.518424 0.519048
0.419837 0.422375 0.434855
0.131778 0.131563 0.131569
0.364812 0.365191 0.365442
0.085404 0.085352 0.085312
0.362465 0.353805 0.349852
0.162441 0.162434 0.162828
0.449736 0.448190 0.446263
0.440618 0.442576 0.444280
0.503256 0.505604 0.505465
0.152519 0.152463 0.152337
0.146277 0.146258 0.146221
0.427630 0.427029 0.427320
0.208956 0.209681 0.210600
0.248661 0.248777 0.248743
0.197351 0.197726 0.198334
0.405205 0.406907 0.408700
0.151219 0.151019 0.150116
0.461342 0.459822 0.459842
0.377291 0.375604 0.374471
0.239802 0.239928 0.239208
0.145015 0.144834 0.145807
0.114080 0.113903 0.113457
0.279412 0.281167 0.282623
0.256393 0.257747 0.258622
0.113569 0.114402 0.114441
0.300470 0.299711 0.299735
0.498059 0.497906 0.499036
0.105241 0.114945 0.115566
0.147891 0.148925 0.150615
0.455236 0.452896 0.447457
0.534701 0.534525 0.534854
0.142765 0.143931 0.147330
0.174598 0.174977 0.175491
0.119706 0.120120 0.119858
0.150493 0.150710 0.149066
0.339252 0.356427 0.360743
0.508712 0.507203 0.507528
0.150328 0.149916 0.149349
0.207892 0.205174 0.200220
0.431938 0.431156 0.428342
0.141173 0.139017 0.137801
0.515033 0.515950 0.516507
0.199860 0.209753 0.213966
0.181890 0.180874 0.178589
0.177041 0.177028 0.176970
0.465139 0.467686 0.466801
0.055078 0.055009 0.054142
0.520185 0.518451 0.518698
0.321387 0.320615 0.317944
0.481435 0.483191 0.505784
0.141514 0.129984 0.129966
0.161259 0.170022 0.170390
0.214970 0.220545 0.220639
0.086376 0.087029 0.087131
0.427482 0.425628 0.423109
0.255319 0.252259 0.234136
0.407529 0.409588 0.405338
0.214893 0.213609 0.208942
0.475408 0.475869 0.471208
0.288960 0.290970 0.289749
0.241087 0.240871 0.239348
0.189998 0.195383 0.196674
0.386823 0.393249 0.395446
0.402661 0.402278 0.402231
0.513704 0.511550 0.511701
0.618677 0.617959 0.616934
0.182783 0.182844 0.182848
0.077928 0.080602 0.082483
0.196300 0.196741 0.195245
0.420005 0.423553 0.435160
0.151368 0.151417 0.151705
0.557522 0.556446 0.556887
0.111321 0.109348 0.100918
0.235855 0.235641 0.234799
0.185898 0.183335 0.188445
0.493971 0.490014 0.496623
0.479107 0.479476 0.480336
0.283634 0.273139 0.269683
0.206350 0.203311 0.199375
0.187114 0.187594 0.187930
0.507900 0.507339 0.506907
0.424369 0.419667 0.416845
0.144983 0.145770 0.145980
0.493977 0.513096 0.517535
0.535258 0.531259 0.531418
0.144707 0.144054 0.143475
0.386219 0.392910 0.384941
0.151453 0.155334 0.155805
0.376445 0.376524 0.378062
0.511935 0.512744 0.514371
0.170839 0.171604 0.171643
0.099114 0.098934 0.095450
0.179921 0.181403 0.181792
0.363573 0.367555 0.370263
0.427319 0.428620 0.428424
0.078264 0.075231 0.074673
0.523185 0.511738 0.504750
0.166763 0.167476 0.167825
0.180619 0.180639 0.180752
0.351233 0.353264 0.358186
0.141342 0.129260 0.129805
0.135796 0.138085 0.140283
0.081240 0.080349 0.081239
0.131664 0.131810 0.133073
0.430946 0.428361 0.424369
0.370267 0.375478 0.378559
0.170730 0.171834 0.172412
0.134679 0.134415 0.134578
0.543314 0.549733 0.550502
0.431559 0.431645 0.433001
0.193882 0.193517 0.193401
0.152776 0.152890 0.152829
0.169572 0.167894 0.166175
0.485265 0.485924 0.489751
0.221908 0.219558 0.218078
0.144576 0.144813 0.144691
0.284192 0.283900 0.285546
0.440639 0.442728 0.446222
0.168325 0.180090 0.181408
0.220340 0.220404 0.220968
0.224879 0.227673 0.229866
0.185256 0.185331 0.188093
0.444581 0.444676 0.444619
0.484400 0.487937 0.495483
0.407545 0.403015 0.405417
0.730602 0.729978 0.729016
0.507986 0.507915 0.512093
0.423466 0.425260 0.440175
0.429772 0.430804 0.433232
0.180781 0.180640 0.180619
0.513206 0.513981 0.510188
0.429609 0.426183 0.427478
0.479455 0.480534 0.480675
0.383512 0.382976 0.381242
0.452774 0.454398 0.449299
0.492042 0.491693 0.490459
0.094607 0.094932 0.096229
0.443681 0.444486 0.440755
0.191326 0.188263 0.188035
0.105366 0.105561 0.106035
0.270312 0.252806 0.244511
0.463364 0.460801 0.440159
0.457980 0.456252 0.454786
0.485445 0.494743 0.494549
0.203803 0.207969 0.211102
0.496293 0.489732 0.487051
0.546534 0.546865 0.546752
0.275419 0.276193 0.276739
0.438013 0.438040 0.437190
0.483759 0.484635 0.494057
0.323357 0.324134 0.328128
0.239904 0.241211 0.243109
0.471347 0.471118 0.470352
0.120091 0.120093 0.119551
0.506766 0.503066 0.501521
0.141762 0.142812 0.143830
0.242316 0.242527 0.240107
0.393452 0.391413 0.390965
0.458597 0.457421 0.460969
0.108242 0.108427 0.108387
0.435084 0.434774 0.434213
0.419098 0.419048 0.422154
0.128198 0.129843 0.130194
0.085763 0.085999 0.088087
0.145536 0.139537 0.137150
0.203752 0.199976 0.195937
0.478136 0.480555 0.484317
0.127965 0.129098 0.129851
0.201747 0.208059 0.210657
0.302741 0.307405 0.309521
0.420444 0.422751 0.419691
0.134787 0.131866 0.130411
0.138750 0.139181 0.139761
0.160559 0.160458 0.160390
0.102753 0.101580 0.100203
0.403974 0.402859 0.401912
0.210788 0.210284 0.210221
0.209366 0.209729 0.209389
0.361068 0.359642 0.359208
0.149958 0.152475 0.154444
0.184699 0.183200 0.182557
0.115962 0.116217 0.116254
0.444066 0.436788 0.436025
0.442946 0.438969 0.432940
0.170225 0.171684 0.172433
0.390256 0.398977 0.405344
0.250237 0.244133 0.231316
0.497043 0.500120 0.503462
0.543335 0.554022 0.557667
0.422782 0.419400 0.419685
0.173223 0.173145 0.172768
0.560835 0.560409 0.559383
0.444248 0.448570 0.448906
0.186062 0.184124 0.181486
0.175417 0.175228 0.175020
0.411790 0.411910 0.410991
0.176532 0.182629 0.184765
0.184972 0.184933 0.185381
0.429672 0.429353 0.432040
0.221481 0.221309 0.220753
0.215851 0.215549 0.211682
0.415746 0.416253 0.417709
0.108814 0.108778 0.108966
0.490638 0.491037 0.491849
0.235038 0.235628 0.234997
0.178496 0.178445 0.178308
0.421197 0.420348 0.416003
0.540403 0.528610 0.513782
0.163138 0.157876 0.157601
0.131908 0.131983 0.131983
0.196681 0.196546 0.195643
0.521856 0.534701 0.534525
0.144113 0.143808 0.140907
0.635274 0.634143 0.634134
0.206300 0.205628 0.204090
0.098733 0.098213 0.098071
