0.189108 0.188957 0.188282
0.221356 0.220525 0.222456
0.226452 0.226388 0.225365
0.228097 0.227279 0.228554
0.224152 0.223152 0.220453
0.218528 0.217856 0.218145
0.232892 0.230984 0.231228
0.200823 0.200958 0.202923
0.247961 0.247774 0.247503
0.201379 0.201527 0.201683
0.243774 0.243555 0.247771
0.227357 0.225299 0.228622
0.188564 0.188159 0.187338
0.215558 0.215886 0.218228
0.226313 0.223448 0.217373
0.205766 0.206924 0.209249
0.187323 0.186895 0.185828
0.202095 0.203685 0.203383
0.183472 0.180332 0.179867
0.225345 0.226381 0.227178
0.183950 0.184277 0.184195
0.226704 0.225738 0.226474
0.205919 0.205253 0.205223
0.202166 0.203227 0.202715
0.204413 0.206344 0.207228
0.187154 0.187605 0.188560
0.262614 0.263347 0.265702
0.202005 0.202599 0.201920
0.238337 0.238191 0.239403
0.195900 0.194722 0.195012
0.216699 0.216058 0.215790
0.216230 0.216121 0.216464
0.194204 0.193457 0.192270
0.209865 0.210716 0.211052
0.206082 0.205946 0.206064
0.192891 0.193113 0.194920
0.239308 0.242669 0.242395
0.223213 0.222650 0.221543
0.192557 0.191582 0.194455
0.201100 0.200802 0.200511
0.210402 0.212328 0.214781
0.220329 0.218698 0.218512
0.212322 0.213677 0.212787
0.241328 0.241537 0.241933
0.190651 0.190960 0.191380
0.219251 0.218632 0.217669
0.252545 0.251732 0.252193
0.225388 0.222050 0.221664
0.201338 0.201390 0.200945
0.232581 0.230645 0.226757
0.188055 0.188783 0.189776
0.190876 0.190152 0.190186
0.229605 0.231057 0.231819
0.238161 0.238745 0.241054
0.196424 0.196611 0.197503
0.240028 0.240881 0.241239
0.254064 0.253599 0.253802
0.230161 0.229299 0.228318
0.183798 0.183958 0.183118
0.201404 0.202030 0.201851
0.197143 0.196533 0.198268
0.188784 0.187097 0.186889
0.202825 0.204283 0.203969
0.225358 0.224341 0.225436
0.253881 0.254151 0.255275
0.195534 0.191646 0.190965
0.182792 0.182624 0.182703
0.236267 0.235840 0.236148
0.190488 0.190570 0.189261
0.203789 0.203406 0.206635
0.216085 0.215262 0.214291
0.223466 0.224941 0.227230
0.244983 0.250354 0.250902
0.192998 0.193292 0.194344
0.227506 0.226307 0.225581
0.180300 0.180816 0.182122
0.200143 0.201143 0.202187
0.214628 0.209662 0.210776
0.248804 0.248200 0.246600
0.204468 0.204880 0.206814
0.186363 0.186184 0.186549
0.189226 0.189216 0.189594
0.227599 0.227772 0.227108
0.242271 0.242163 0.241936
0.241916 0.245694 0.249134
0.204445 0.203201 0.203408
0.303453 0.302837 0.303083
0.205039 0.204606 0.202740
0.194598 0.195035 0.194807
0.208565 0.210531 0.210698
0.223903 0.223887 0.225993
0.237397 0.238481 0.241020
0.229595 0.228113 0.226384
0.226113 0.224813 0.225436
0.205216 0.203725 0.205718
0.192561 0.189440 0.190791
0.199990 0.199026 0.198994
0.202302 0.203170 0.203762
0.238215 0.237726 0.236711
0.242898 0.242335 0.242353
0.205065 0.207691 0.208938
0.238935 0.239356 0.235362
0.201781 0.201111 0.200831
0.208434 0.208688 0.212914
0.246734 0.247083 0.247443
0.191068 0.190475 0.190394
0.229368 0.228546 0.228207
0.206214 0.203902 0.203600
0.189375 0.188364 0.189044
0.188048 0.188831 0.188231
0.235146 0.238094 0.238126
0.205839 0.205463 0.204337
0.220957 0.222905 0.223661
0.235512 0.235142 0.236131
0.205320 0.205762 0.205975
0.186068 0.180811 0.180053
0.230674 0.231243 0.230575
0.186966 0.186280 0.185549
0.201663 0.201011 0.200536
0.197266 0.196922 0.194526
0.237679 0.237609 0.238878
0.228024 0.227373 0.228254
0.200134 0.199958 0.199559
0.241948 0.241766 0.237301
0.194690 0.198516 0.198320
0.244303 0.243730 0.243824
0.201136 0.201540 0.203299
0.208040 0.208669 0.208922
0.191390 0.192067 0.191580
0.227359 0.226268 0.227619
0.243212 0.242862 0.244469
0.242353 0.242847 0.243825
0.206792 0.206409 0.205664
0.238481 0.241020 0.242854
0.222626 0.223834 0.225560
0.239095 0.239674 0.241218
0.236144 0.235294 0.235958
0.212350 0.212107 0.210841
0.225931 0.224820 0.224466
0.235239 0.234761 0.236502
0.210641 0.210471 0.209433
0.195221 0.194748 0.195044
0.238400 0.241366 0.241433
0.227240 0.226615 0.226572
0.204005 0.203055 0.203364
0.201538 0.200443 0.201513
0.241906 0.244189 0.247082
0.225110 0.224892 0.226512
0.199026 0.198994 0.197010
0.204511 0.205709 0.205524
0.205877 0.203486 0.202835
0.198868 0.198674 0.198752
0.231926 0.232202 0.233502
0.215956 0.216259 0.215951
0.206363 0.207012 0.207728
0.203104 0.204532 0.204373
0.196944 0.196483 0.196171
0.246560 0.247155 0.248338
0.190745 0.191295 0.191396
0.250313 0.251878 0.249597
0.236089 0.236034 0.237995
0.202404 0.204904 0.204525
0.210408 0.209487 0.208819
0.241729 0.241323 0.244173
0.219845 0.219995 0.220221
0.226633 0.225796 0.224729
0.239880 0.238055 0.238443
0.189972 0.189833 0.187475
0.205722 0.206278 0.206160
0.199349 0.199360 0.202473
0.223366 0.225624 0.223054
0.224942 0.225632 0.225542
0.206538 0.206189 0.207061
0.224657 0.226539 0.227217
0.201359 0.201163 0.200482
0.198433 0.199005 0.198154
0.190735 0.191341 0.191533
0.231222 0.225751 0.224503
0.236304 0.240190 0.240332
0.204278 0.204101 0.203669
0.220636 0.222386 0.222186
0.238105 0.224928 0.223776
0.215976 0.215017 0.211854
0.246935 0.246875 0.245593
0.186471 0.186645 0.186654
0.216439 0.217632 0.217726
0.246432 0.252947 0.253330
0.239673 0.240732 0.243370
0.206212 0.205609 0.207140
0.252792 0.252541 0.250636
0.200385 0.203131 0.203249
0.239618 0.239243 0.238297
0.201983 0.201919 0.201534
0.201963 0.202089 0.202195
0.189890 0.189344 0.188645
0.199469 0.200128 0.199448
0.223059 0.223705 0.221848
0.210642 0.210213 0.210436
0.214319 0.213786 0.214360
0.198325 0.198628 0.198647
0.197257 0.196125 0.196278
0.249380 0.247212 0.245788
0.217414 0.215974 0.216989
0.188204 0.188327 0.188526
0.219020 0.219090 0.215678
0.224875 0.224625 0.224038
0.226758 0.227015 0.225448
0.241886 0.242472 0.242386
0.242619 0.243814 0.246076
0.206564 0.203064 0.203346
0.239374 0.240167 0.239612
0.202376 0.200115 0.200262
0.192672 0.193654 0.194318
0.198961 0.198145 0.198134
0.201638 0.202159 0.201397
0.190496 0.189375 0.189700
0.225758 0.225410 0.225825
0.255627 0.255455 0.252621
0.194439 0.194705 0.194193
0.206793 0.203928 0.201914
0.244901 0.246601 0.247059
0.219652 0.218680 0.217838
0.196734 0.197415 0.197418
0.211934 0.212200 0.212687
0.237376 0.242595 0.244057
0.189944 0.190150 0.189369
0.218624 0.219036 0.216706
0.205741 0.205927 0.206573
0.204967 0.204913 0.205938
0.179398 0.178987 0.179000
0.225068 0.224710 0.222106
0.212870 0.213188 0.211888
0.191481 0.189460 0.190481
0.224771 0.227359 0.226268
0.234844 0.232956 0.232297
0.205470 0.205487 0.205053
0.200858 0.200442 0.200510
0.236608 0.237334 0.236884
0.236439 0.236489 0.236455
0.212629 0.213472 0.211833
0.209413 0.208535 0.208534
0.215040 0.214960 0.215200
0.227566 0.228849 0.224680
0.195718 0.203702 0.203945
0.199451 0.199387 0.199568
0.223781 0.223469 0.223366
0.190644 0.189702 0.189651
0.203531 0.203748 0.206316
0.187362 0.185504 0.185826
0.237614 0.238098 0.238023
0.214391 0.216227 0.216537
0.189431 0.187709 0.188373
0.190884 0.195492 0.195299
0.202220 0.201846 0.200425
0.213407 0.212454 0.213936
0.201957 0.202304 0.201809
0.212577 0.214437 0.215460
0.219244 0.218843 0.216156
0.228586 0.227650 0.227841
0.249880 0.250342 0.247115
0.220599 0.223149 0.223141
0.185713 0.185265 0.185246
0.185265 0.185246 0.182933
0.241704 0.241400 0.240771
0.274170 0.274403 0.273450
0.194899 0.194818 0.194174
0.189874 0.187907 0.187718
0.221940 0.221019 0.216615
0.200487 0.200536 0.201175
0.184577 0.184014 0.184744
0.198668 0.198593 0.197842
0.254587 0.256181 0.255940
0.213202 0.214129 0.214745
0.198472 0.199560 0.199865
0.207026 0.205171 0.200432
0.228108 0.228291 0.228882
0.187302 0.188805 0.188818
0.204078 0.203927 0.203592
0.232029 0.230930 0.231515
0.226706 0.225958 0.225735
0.206989 0.206587 0.205192
0.200170 0.198191 0.198252
0.210481 0.209958 0.210942
0.228228 0.227470 0.226698
0.231134 0.230478 0.230480
0.240343 0.240239 0.239622
0.182122 0.180371 0.180689
0.292939 0.293281 0.297824
0.208938 0.209046 0.208462
0.235438 0.234902 0.237655
0.238313 0.238470 0.237769
0.201831 0.201202 0.200750
0.230575 0.232126 0.232645
0.203090 0.201956 0.201947
0.192495 0.192899 0.192684
0.245180 0.239758 0.239326
0.192617 0.192153 0.192276
0.207127 0.208265 0.204766
0.198249 0.198676 0.199401
0.226141 0.225348 0.225922
0.213703 0.215300 0.213210
0.252535 0.252508 0.251752
0.208443 0.209101 0.208505
0.199097 0.198730 0.200064
0.205316 0.205184 0.208076
0.194110 0.195785 0.195229
0.220486 0.221749 0.220711
0.217533 0.217676 0.216015
0.237300 0.237200 0.236694
0.251048 0.252668 0.252291
0.200519 0.199642 0.199463
0.192398 0.191807 0.191345
0.202021 0.202234 0.201551
0.246540 0.245067 0.243870
0.183598 0.182621 0.180468
0.208154 0.208272 0.211046
0.227424 0.226909 0.228320
0.189372 0.188050 0.182823
0.227265 0.225832 0.224597
0.197024 0.197000 0.197119
0.208636 0.208724 0.208789
0.191980 0.192272 0.191920
0.228588 0.228231 0.228078
0.197262 0.197978 0.196736
0.183584 0.183664 0.185106
0.229263 0.230244 0.230034
0.194790 0.194543 0.194803
0.199897 0.200408 0.199976
0.210128 0.210117 0.210346
0.227525 0.225434 0.224727
0.205289 0.206120 0.205549
0.230370 0.230885 0.231465
0.203998 0.203561 0.203069
0.210471 0.210171 0.210183
0.283143 0.282106 0.281812
0.194797 0.195319 0.194526
0.204108 0.203561 0.203801
0.198488 0.193152 0.192697
0.201089 0.203183 0.201992
0.245806 0.245324 0.246409
0.211251 0.211379 0.211498
0.248828 0.248460 0.244638
0.233661 0.231882 0.234469
0.198343 0.199014 0.198584
0.201244 0.204217 0.202353
0.228083 0.229737 0.229614
0.244262 0.244259 0.246916
0.190723 0.188442 0.188160
0.222154 0.221310 0.220868
0.224240 0.224771 0.226139
0.232584 0.237158 0.234680
0.231032 0.231794 0.232814
0.206346 0.205271 0.204150
0.227108 0.225984 0.226326
0.205387 0.204478 0.205778
0.216348 0.216261 0.216686
0.227613 0.228000 0.227102
0.237040 0.238386 0.239187
0.230606 0.231395 0.232772
0.228190 0.228178 0.225304
0.201568 0.200287 0.201143
0.245382 0.247495 0.247374
0.238943 0.238839 0.236811
0.213696 0.213803 0.213189
0.243926 0.242105 0.242522
0.225313 0.225590 0.225699
0.243000 0.243143 0.238724
0.235453 0.235640 0.235263
0.202921 0.203264 0.204270
0.190512 0.190713 0.189540
0.215737 0.216981 0.217838
0.226031 0.227301 0.227457
0.197144 0.197632 0.194893
0.195430 0.194221 0.194578
0.219158 0.220578 0.219775
0.187187 0.187421 0.188486
0.196584 0.196575 0.195970
0.229333 0.229703 0.230112
0.209601 0.210266 0.210858
0.206531 0.205804 0.205944
0.203653 0.203655 0.203937
0.191506 0.191553 0.192244
0.192256 0.195759 0.194736
0.180925 0.180702 0.180147
0.190550 0.190862 0.190695
0.193533 0.193320 0.195024
0.236528 0.238407 0.238223
0.276173 0.277092 0.277033
0.225820 0.226649 0.226652
0.224572 0.220985 0.219533
0.212304 0.213019 0.209770
0.227176 0.228516 0.229217
0.213278 0.212134 0.212370
0.227374 0.227823 0.227935
0.243381 0.243829 0.245507
0.196823 0.196951 0.196451
0.198837 0.198157 0.199119
0.217247 0.220637 0.220312
0.194114 0.193741 0.192574
0.245516 0.245158 0.248076
0.213286 0.213937 0.215242
0.212093 0.212006 0.210832
0.190886 0.189787 0.190466
0.201622 0.201553 0.201630
0.213384 0.212885 0.213303
0.252332 0.254046 0.252513
0.222702 0.223014 0.224272
0.298420 0.299067 0.299884
0.198429 0.195014 0.195520
0.190707 0.190758 0.190305
0.223304 0.223249 0.221672
0.217935 0.217950 0.218170
0.251062 0.251990 0.250582
0.203670 0.203818 0.204529
0.195479 0.193875 0.192664
0.241029 0.241258 0.242728
0.247043 0.247597 0.250784
0.256889 0.255704 0.255225
0.214310 0.214545 0.208387
0.195574 0.195514 0.195637
0.219991 0.220528 0.221036
0.216768 0.216993 0.216143
0.207495 0.208181 0.207177
0.205746 0.205834 0.205009
0.233658 0.233247 0.229160
0.197460 0.197002 0.196639
0.223324 0.230702 0.228869
0.238139 0.237098 0.236355
0.192233 0.192698 0.193354
0.233168 0.232353 0.234247
0.236878 0.236631 0.235317
0.247015 0.247398 0.246660
0.222923 0.223073 0.223329
0.191174 0.189232 0.190327
0.207621 0.207839 0.207843
0.230244 0.230034 0.230717
0.219489 0.219129 0.219881
0.208501 0.207528 0.207819
0.237797 0.232819 0.234117
0.231672 0.231668 0.232514
0.234291 0.234346 0.234697
0.244559 0.243872 0.243659
0.193883 0.193062 0.192976
0.287163 0.287498 0.288491
0.200290 0.199912 0.199874
0.255152 0.254657 0.255368
0.198790 0.197610 0.198758
0.242804 0.240007 0.240174
0.205943 0.205822 0.205764
0.232856 0.232479 0.229519
0.201745 0.201587 0.198776
0.233593 0.234342 0.234739
0.196941 0.195347 0.196019
0.199224 0.199959 0.199755
0.220127 0.219510 0.219681
0.238275 0.239756 0.239514
0.245441 0.246258 0.246208
0.220574 0.220779 0.221340
0.189728 0.190226 0.189967
0.272624 0.270907 0.271308
0.208859 0.207853 0.206919
0.229055 0.228086 0.227861
0.257016 0.257470 0.256916
0.204131 0.203995 0.207032
0.228883 0.228080 0.227504
0.208144 0.207726 0.207268
0.203405 0.203399 0.202698
0.191697 0.191994 0.192963
0.191571 0.192181 0.190211
0.241868 0.241455 0.238138
0.242248 0.241142 0.239887
0.244963 0.241388 0.243828
0.188296 0.188511 0.187164
0.204129 0.202568 0.203577
0.203558 0.204090 0.205100
0.191611 0.191573 0.192573
0.241760 0.240505 0.240175
0.201561 0.201260 0.199667
0.182435 0.182344 0.183825
0.196160 0.196586 0.196073
0.259160 0.258206 0.258703
0.221902 0.221534 0.216489
0.252016 0.253155 0.255252
0.249994 0.251318 0.243872
0.226421 0.222430 0.222481
0.208283 0.208008 0.210203
0.204486 0.205741 0.205927
0.178226 0.177383 0.175434
0.223185 0.222746 0.224117
0.198468 0.198212 0.198079
0.187379 0.187100 0.187855
0.185122 0.186121 0.185967
0.270750 0.271128 0.271285
0.194365 0.194620 0.195867
0.245910 0.248281 0.248819
0.179923 0.179974 0.179928
0.217727 0.224786 0.224103
0.244981 0.245638 0.246528
0.248039 0.242217 0.246510
0.194597 0.194436 0.193038
0.247899 0.246559 0.247386
0.189661 0.192619 0.192475
0.240735 0.240996 0.242272
0.224396 0.225064 0.225158
0.200049 0.197391 0.197475
0.284447 0.281899 0.281461
0.241675 0.241170 0.241874
0.184304 0.183621 0.183637
0.212216 0.211194 0.211045
0.190694 0.189967 0.189608
0.210119 0.210016 0.210147
0.217998 0.218561 0.222562
0.228470 0.228588 0.228231
0.229216 0.227862 0.226234
0.236356 0.235619 0.235165
0.199021 0.199516 0.199685
0.240691 0.239564 0.240495
0.242856 0.243058 0.241526
0.257831 0.258281 0.258430
0.198296 0.199242 0.200018
0.221767 0.222003 0.222322
0.223378 0.224386 0.225132
0.199639 0.199277 0.198660
0.184853 0.187033 0.188477
0.220139 0.220000 0.219891
0.195758 0.195978 0.196063
0.183652 0.184152 0.184622
0.205357 0.205577 0.205135
0.248582 0.248854 0.248915
0.236783 0.236577 0.236082
0.226459 0.226399 0.226414
0.219290 0.219573 0.220976
0.206942 0.207159 0.207692
0.214551 0.212568 0.212352
0.226311 0.226731 0.226739
0.229232 0.228046 0.228947
0.246739 0.246435 0.246142
0.222217 0.220278 0.222733
0.219392 0.216640 0.216888
0.214221 0.214881 0.216770
0.243983 0.243584 0.243836
0.199448 0.199127 0.198954
0.259091 0.258631 0.257856
0.188001 0.188253 0.188770
0.220564 0.221238 0.223387
0.194683 0.194953 0.195574
0.223712 0.221161 0.220686
0.233950 0.233888 0.231582
0.188175 0.187307 0.188494
0.202498 0.203333 0.204801
0.211188 0.211131 0.211402
0.205758 0.205941 0.207242
0.204886 0.203693 0.203728
0.214807 0.217856 0.218558
0.178015 0.177434 0.178088
0.242272 0.242084 0.241457
0.202169 0.202671 0.203306
0.192252 0.192435 0.192494
0.203452 0.203233 0.202602
0.253182 0.252819 0.250667
0.190740 0.190844 0.191264
0.227514 0.228118 0.229148
0.195882 0.194678 0.194512
0.192238 0.191420 0.191508
0.223321 0.225820 0.226649
0.187996 0.188572 0.189022
0.193301 0.193333 0.193095
0.211768 0.218322 0.216592
0.248874 0.247627 0.247046
0.243771 0.243732 0.243913
0.213907 0.213733 0.216804
0.210868 0.211027 0.214780
0.195347 0.195168 0.196205
0.212581 0.212406 0.211528
0.190750 0.190833 0.190619
0.191139 0.191104 0.191285
0.217805 0.215998 0.215698
0.211145 0.211317 0.211011
0.228837 0.229287 0.229446
0.184272 0.184461 0.184337
0.190695 0.190536 0.190830
0.197571 0.194884 0.194480
0.192540 0.193308 0.193401
0.215144 0.215250 0.214316
0.192044 0.193166 0.193637
0.190066 0.189442 0.189310
0.199987 0.200683 0.200869
0.230371 0.231242 0.233759
0.186201 0.186151 0.186275
0.221834 0.222957 0.225265
0.194759 0.194932 0.194176
0.231624 0.231287 0.231835
0.194559 0.194523 0.194326
0.207725 0.207686 0.207228
0.271351 0.270560 0.271082
0.264714 0.262907 0.259923
0.201939 0.201171 0.201258
0.220252 0.220149 0.220656
0.185486 0.185028 0.184663
0.216829 0.217888 0.218942
0.183687 0.183649 0.183037
0.202226 0.202267 0.203607
0.249609 0.249282 0.246376
0.191126 0.190232 0.191552
0.186799 0.188333 0.188503
0.225879 0.230384 0.232035
0.210755 0.212841 0.214908
0.193538 0.193556 0.194386
0.198434 0.198581 0.198730
0.228045 0.227605 0.227646
0.247584 0.247901 0.247736
0.217783 0.220438 0.220399
0.215824 0.216734 0.219712
0.271419 0.270654 0.269306
0.245959 0.247738 0.245014
0.238065 0.235883 0.237181
0.193739 0.193642 0.193266
0.225479 0.225743 0.224634
0.188450 0.189035 0.191963
0.193870 0.194206 0.193669
0.190414 0.191103 0.191071
0.199909 0.199289 0.197969
0.250670 0.251588 0.250899
0.191598 0.191919 0.192317
0.227596 0.228264 0.228399
0.192200 0.192619 0.194531
0.190690 0.192679 0.192838
0.198400 0.198349 0.197939
0.184465 0.184913 0.185112
0.204206 0.205207 0.205896
0.217882 0.217720 0.219204
0.205737 0.205413 0.205910
0.187344 0.186938 0.185676
0.208982 0.208612 0.208566
0.260166 0.260957 0.261087
0.182134 0.180718 0.180945
0.283910 0.280195 0.279987
0.185712 0.186126 0.186334
0.225159 0.224251 0.224967
0.215574 0.214990 0.215200
0.179212 0.178859 0.178756
0.169137 0.169427 0.169711
0.222336 0.222736 0.223059
0.222807 0.222490 0.223620
0.245107 0.246806 0.246843
0.204085 0.203827 0.203316
0.231027 0.230468 0.231591
0.211827 0.212918 0.213028
0.213813 0.215192 0.213242
0.243502 0.242808 0.243799
0.189396 0.190454 0.192131
0.210667 0.214230 0.214996
0.205170 0.206761 0.206247
0.227613 0.229047 0.228933
0.203877 0.204297 0.203151
0.222332 0.224191 0.224733
0.197450 0.199419 0.199956
0.185597 0.186204 0.186009
0.254664 0.254359 0.254333
0.193758 0.193735 0.194257
0.241510 0.241499 0.241775
0.297099 0.296361 0.299286
0.242472 0.242386 0.243189
0.197032 0.197185 0.197349
0.216378 0.216858 0.216154
0.215203 0.214828 0.214404
0.241974 0.242895 0.241646
0.202111 0.201710 0.201991
0.192662 0.191789 0.190827
0.230035 0.228171 0.228149
0.204645 0.203693 0.201488
0.246575 0.245854 0.246724
0.228531 0.228377 0.228635
0.187140 0.186819 0.186477
0.219279 0.218131 0.218152
0.194823 0.194371 0.194645
0.204009 0.202295 0.198464
0.254600 0.251714 0.250583
0.227770 0.227365 0.228089
0.242685 0.242713 0.243460
0.219134 0.218682 0.218299
0.228859 0.228736 0.233417
0.211622 0.212205 0.211506
0.213709 0.211512 0.211906
0.194644 0.193624 0.194128
0.231584 0.231839 0.231905
0.197395 0.196830 0.195893
0.242237 0.245979 0.244024
0.236798 0.236583 0.238257
0.182083 0.180693 0.180942
0.198421 0.200514 0.198704
0.190554 0.189788 0.187511
0.206861 0.207878 0.208740
0.207305 0.205748 0.204388
0.195461 0.196199 0.195535
0.204238 0.206822 0.207298
0.191575 0.191949 0.194397
0.216768 0.216377 0.216546
0.205575 0.204406 0.203677
0.207414 0.207270 0.207138
0.208649 0.208520 0.206601
0.207239 0.209363 0.208279
0.185259 0.185773 0.183068
0.218691 0.218194 0.221221
0.204090 0.206676 0.206436
0.188432 0.187534 0.187517
0.244018 0.244301 0.243146
0.222554 0.221330 0.219644
0.184594 0.180438 0.179501
0.227016 0.226603 0.224838
0.208973 0.208497 0.210441
0.197496 0.196675 0.196014
0.246006 0.246606 0.246369
0.227804 0.227137 0.227259
0.240617 0.241637 0.241869
0.205577 0.205923 0.206246
0.207357 0.204520 0.204783
0.190117 0.190919 0.192909
0.191572 0.192156 0.196573
0.225281 0.224452 0.222895
0.222542 0.222012 0.222631
0.210188 0.210914 0.211075
0.201106 0.200878 0.200209
0.212703 0.212217 0.211628
0.270719 0.272280 0.271513
0.247335 0.248209 0.249070
0.196802 0.196949 0.197486
0.213607 0.212519 0.212144
0.223173 0.224725 0.223907
0.192246 0.192020 0.191388
0.199512 0.199142 0.199266
0.195180 0.194973 0.194339
0.199392 0.200161 0.199272
0.185171 0.184946 0.186424
0.247817 0.248084 0.246682
0.245370 0.247028 0.247789
0.200361 0.200517 0.201054
0.193154 0.194120 0.194759
0.217091 0.216819 0.216454
0.243517 0.244571 0.244615
0.190505 0.190937 0.192455
0.239898 0.244264 0.242541
0.192860 0.192737 0.193165
0.224455 0.224734 0.223966
0.192494 0.192938 0.190416
0.196023 0.196339 0.196077
0.193101 0.191946 0.191914
0.246541 0.246766 0.246406
0.192681 0.191740 0.191755
0.254657 0.255368 0.255181
0.228508 0.227735 0.227017
0.196206 0.196692 0.195627
0.253203 0.252960 0.251397
0.226988 0.227222 0.226565
0.204700 0.206253 0.206935
0.219760 0.219917 0.219661
0.199965 0.199259 0.200181
0.192773 0.193722 0.194036
0.184556 0.184762 0.185242
0.192363 0.192573 0.192411
0.187007 0.184669 0.186647
0.195068 0.195093 0.195013
0.206996 0.206663 0.206418
0.247035 0.245526 0.244401
0.201962 0.201874 0.202196
0.256919 0.256195 0.255808
0.223111 0.223805 0.224057
0.219246 0.219364 0.219062
0.240252 0.239411 0.239889
0.195803 0.196465 0.195812
0.217038 0.215366 0.217720
0.202467 0.202866 0.202778
0.190902 0.191552 0.189819
0.236202 0.238329 0.238762
0.223457 0.222425 0.219912
0.223790 0.224636 0.226120
0.184879 0.184898 0.185393
0.208021 0.208002 0.208654
0.198362 0.197313 0.194269
0.236458 0.236878 0.236631
0.187440 0.187389 0.187357
0.228974 0.228789 0.228109
0.244185 0.243877 0.243906
0.219007 0.220026 0.220937
0.238889 0.237817 0.237615
0.200782 0.201927 0.201782
0.196374 0.196688 0.194815
0.211990 0.211946 0.211714
0.207819 0.209524 0.213125
0.229289 0.229194 0.227136
0.238807 0.238943 0.238839
0.240420 0.240509 0.240683
0.193045 0.193394 0.194117
0.200905 0.200507 0.199450
0.188478 0.190440 0.191446
0.238304 0.241045 0.240714
0.211833 0.210768 0.210952
0.199511 0.199242 0.198942
0.224062 0.218623 0.217741
0.200581 0.200326 0.199559
0.191285 0.190591 0.191031
0.210834 0.206384 0.205853
0.212558 0.212222 0.211693
0.234793 0.235216 0.235034
0.230692 0.230725 0.229773
0.200325 0.200138 0.200242
0.247709 0.246092 0.245884
0.269110 0.269254 0.268795
0.219874 0.220241 0.220448
0.193920 0.193166 0.192405
0.226758 0.228049 0.228215
0.187542 0.186616 0.185902
0.185322 0.183909 0.183396
0.219327 0.218111 0.217895
0.227646 0.226939 0.226421
0.186315 0.188998 0.189426
0.198132 0.197733 0.198820
0.173820 0.170859 0.170809
0.218336 0.220062 0.221239
0.202485 0.202724 0.204900
0.197246 0.197051 0.197301
0.185902 0.186521 0.187217
0.243489 0.242640 0.243480
0.194117 0.194236 0.195643
0.231848 0.232346 0.232946
0.178766 0.179322 0.179436
0.186641 0.186207 0.185981
0.219348 0.219240 0.217582
0.177383 0.176570 0.176391
0.197138 0.197417 0.196468
0.172129 0.173505 0.171285
0.220503 0.221013 0.225058
0.209018 0.209419 0.210992
0.233676 0.233664 0.233328
0.245737 0.243946 0.245034
0.190157 0.189592 0.188666
0.240753 0.240277 0.237265
0.228827 0.228879 0.229894
0.195728 0.196725 0.197925
0.274486 0.273462 0.274214
0.191104 0.191184 0.191367
0.197418 0.198075 0.198086
0.195334 0.196091 0.192384
0.191184 0.190968 0.190995
0.255113 0.258145 0.258833
0.220872 0.221138 0.222340
0.247798 0.244327 0.243073
0.218178 0.217671 0.218200
0.191173 0.191350 0.193511
0.198707 0.198197 0.198246
0.189586 0.191692 0.192253
0.196686 0.197422 0.196849
0.222638 0.223729 0.229348
0.204384 0.205633 0.207176
0.200348 0.200043 0.199375
0.195165 0.194573 0.194797
0.231091 0.231478 0.234390
0.225100 0.224826 0.227549
0.215475 0.217665 0.216486
0.222243 0.219065 0.220243
0.238845 0.239196 0.238115
0.227203 0.227938 0.227680
0.215674 0.215570 0.215593
0.191217 0.191204 0.188738
0.198513 0.198315 0.195170
0.189959 0.188875 0.187288
0.192947 0.192578 0.193519
0.197718 0.196856 0.196184
0.201092 0.200798 0.202958
0.181941 0.182334 0.187706
0.210369 0.211020 0.209802
0.212866 0.212533 0.210283
0.219190 0.218532 0.217829
0.203507 0.204008 0.202585
0.213249 0.213390 0.213099
0.231044 0.230033 0.227627
0.206474 0.206086 0.203845
0.301703 0.301151 0.300132
0.203418 0.204423 0.207303
0.211279 0.210381 0.209674
0.232310 0.232666 0.234200
0.185933 0.186211 0.186763
0.209119 0.208663 0.208523
0.239478 0.239756 0.240265
0.189651 0.191214 0.191202
0.190637 0.191364 0.191674
0.211349 0.211629 0.209734
0.198830 0.199793 0.197789
0.231677 0.230823 0.229315
0.191512 0.191535 0.191503
0.205444 0.201686 0.200932
0.200619 0.200419 0.200155
0.191301 0.192961 0.194176
0.206011 0.205102 0.205227
0.224551 0.225402 0.226274
0.212796 0.213484 0.212608
0.199236 0.201106 0.201071
0.228318 0.228180 0.228248
0.201007 0.200413 0.199469
0.211896 0.212124 0.210215
0.198734 0.198674 0.198970
0.232956 0.226058 0.225872
0.207918 0.207967 0.207091
0.201405 0.200533 0.198101
0.221771 0.222724 0.224300
0.198273 0.200695 0.200428
0.219707 0.221616 0.220118
0.242155 0.240908 0.241169
0.256500 0.256053 0.257475
0.228877 0.230625 0.230280
0.218927 0.219251 0.218632
0.198963 0.197723 0.195497
0.225630 0.226151 0.225826
0.199821 0.199094 0.198583
0.216169 0.215236 0.215187
0.188869 0.187170 0.188430
0.211435 0.211737 0.211275
0.241058 0.241006 0.241181
0.197664 0.197721 0.198800
0.189527 0.190846 0.190493
0.201712 0.200580 0.200446
0.198501 0.197441 0.196023
0.229788 0.229637 0.230901
0.199273 0.199081 0.199188
0.237900 0.238560 0.241311
0.209893 0.209265 0.209318
0.229205 0.231899 0.228111
0.242922 0.240649 0.238845
0.230971 0.230872 0.232867
0.188039 0.188121 0.190938
0.200483 0.200623 0.199618
0.242442 0.242026 0.241729
0.218389 0.217935 0.217950
0.211925 0.212958 0.212974
0.203601 0.202830 0.202281
0.192741 0.188107 0.190308
0.186690 0.187828 0.188744
0.207586 0.207513 0.204880
0.197033 0.199641 0.199804
0.243746 0.243957 0.244177
0.212992 0.212451 0.213472
0.226842 0.225487 0.225032
0.227918 0.226202 0.225577
0.198763 0.198271 0.198506
0.242200 0.242006 0.237897
0.214285 0.215359 0.214544
0.197158 0.196429 0.195687
0.204347 0.204799 0.205378
0.190327 0.192595 0.192157
0.193313 0.193747 0.196012
0.258668 0.258559 0.258611
0.243441 0.242627 0.242630
0.212576 0.215396 0.215290
0.198917 0.197600 0.198217
0.242339 0.241198 0.241004
0.226957 0.226134 0.225108
0.211122 0.209875 0.208392
0.176595 0.176949 0.177924
0.194777 0.195253 0.194486
0.207929 0.208587 0.209651
0.228351 0.229915 0.229969
0.218159 0.217799 0.216142
0.221401 0.221773 0.217824
0.231492 0.230378 0.231377
0.199408 0.199481 0.198827
0.193938 0.194618 0.194678
0.227453 0.227924 0.224455
0.191128 0.190941 0.190730
0.218693 0.219877 0.220544
0.210986 0.210988 0.210882
0.230034 0.228392 0.227519
0.184274 0.184745 0.184789
0.193222 0.192778 0.193826
0.263115 0.262939 0.262611
0.208629 0.207818 0.208176
0.224983 0.222823 0.223191
0.218736 0.217880 0.215856
0.221135 0.220590 0.220927
0.205559 0.205879 0.202637
0.241823 0.241445 0.241435
0.232085 0.231501 0.231713
0.194070 0.193453 0.193660
0.204506 0.205407 0.205542
0.222404 0.221960 0.222639
0.210160 0.210534 0.208773
0.199285 0.199093 0.197723
0.197359 0.199858 0.200215
0.226803 0.226032 0.223536
0.194781 0.195000 0.194645
0.202098 0.198830 0.198485
0.192415 0.194012 0.189189
0.237606 0.241001 0.241809
0.180271 0.180174 0.184959
0.193066 0.192450 0.191889
0.180504 0.180740 0.180973
0.187050 0.187395 0.185422
0.261087 0.260817 0.260116
0.223674 0.223112 0.223970
0.201477 0.201009 0.198705
0.221112 0.221470 0.222470
