0.445376 0.444925 0.447285
0.464429 0.464197 0.459754
0.463308 0.463241 0.461928
0.471909 0.466563 0.463306
0.508961 0.509775 0.509956
0.370573 0.371162 0.373311
0.448876 0.451511 0.454158
0.448332 0.449654 0.449242
0.467414 0.473895 0.476267
0.455278 0.455611 0.458449
0.409309 0.409805 0.410815
0.376619 0.376800 0.374560
0.393855 0.393897 0.394060
0.444942 0.439597 0.434639
0.389145 0.387111 0.386695
0.446552 0.447306 0.451178
0.475264 0.469213 0.469978
0.375722 0.378633 0.374514
0.401388 0.400831 0.398044
0.412747 0.412823 0.412444
0.452800 0.451427 0.448737
0.409904 0.409975 0.411770
0.400900 0.400827 0.401115
0.423028 0.424685 0.423603
0.487340 0.492376 0.495235
0.395418 0.392518 0.390751
0.441309 0.442794 0.442981
0.471575 0.470936 0.471095
0.413831 0.411088 0.412707
0.434586 0.436068 0.436003
0.374902 0.378429 0.377784
0.414940 0.413855 0.416720
0.451275 0.450314 0.446832
0.388937 0.390062 0.391657
0.410776 0.408922 0.406120
0.416871 0.414404 0.413422
0.470129 0.471455 0.475748
0.465895 0.468668 0.469954
0.424326 0.424882 0.420946
0.420756 0.418963 0.413734
0.454201 0.452441 0.457482
0.416446 0.423650 0.426861
0.441858 0.442712 0.445700
0.428069 0.431597 0.435717
0.387353 0.387742 0.390716
0.416455 0.416213 0.415123
0.537262 0.536755 0.537309
0.507636 0.502307 0.493071
0.407674 0.412554 0.412846
0.439083 0.435523 0.438235
0.418322 0.418858 0.426523
0.366156 0.367210 0.368764
0.458319 0.454932 0.452522
0.411516 0.412069 0.411746
0.406227 0.407609 0.405980
0.373713 0.370915 0.369243
0.404540 0.402722 0.405362
0.433801 0.439074 0.439336
0.426238 0.419446 0.411493
0.450887 0.450643 0.450550
0.395207 0.394378 0.391265
0.435076 0.435694 0.431987
0.456579 0.456556 0.455933
0.423586 0.421727 0.419869
0.432928 0.433237 0.432732
0.418499 0.415502 0.422679
0.420487 0.420930 0.421141
0.415290 0.418937 0.417307
0.397699 0.392581 0.390076
0.422848 0.418420 0.416617
0.449261 0.451671 0.446411
0.444240 0.444019 0.444836
0.463074 0.462871 0.461725
0.416031 0.423089 0.421733
0.510194 0.510309 0.512647
0.382787 0.377109 0.377298
0.388317 0.389452 0.388356
0.417553 0.412677 0.416020
0.455877 0.458374 0.455049
0.433731 0.435174 0.434577
0.427044 0.430298 0.430043
0.470413 0.472829 0.474598
0.390675 0.391977 0.396088
0.456475 0.461050 0.456634
0.414199 0.414046 0.411090
0.461852 0.463353 0.464390
0.409795 0.412909 0.411524
0.393648 0.391369 0.395319
0.452510 0.448576 0.444966
0.509098 0.514450 0.515141
0.431568 0.435339 0.433576
0.423841 0.425280 0.425252
0.370710 0.372244 0.373817
0.385174 0.385665 0.385771
0.460249 0.457746 0.457104
0.406383 0.403496 0.403952
0.396385 0.396119 0.398709
0.451362 0.450970 0.448936
0.475266 0.474166 0.474842
0.473583 0.469042 0.469106
0.417968 0.418638 0.418275
0.424372 0.424184 0.424824
0.427701 0.431993 0.430074
0.412715 0.412925 0.412616
0.427309 0.426970 0.425724
0.378231 0.378348 0.378329
0.433833 0.433865 0.430653
0.430867 0.431510 0.431542
0.393791 0.393206 0.395104
0.410069 0.412348 0.411775
0.453667 0.453615 0.449312
0.440247 0.439729 0.444564
0.412563 0.414506 0.413749
0.455811 0.453430 0.455363
0.425974 0.425979 0.426568
0.417195 0.417952 0.418952
0.403809 0.406063 0.412833
0.439266 0.438022 0.439164
0.396119 0.398709 0.399584
0.425170 0.426426 0.425226
0.414539 0.411665 0.410977
0.459422 0.458930 0.458006
0.399901 0.398484 0.397380
0.418397 0.418166 0.425016
0.438234 0.438507 0.439389
0.453872 0.450688 0.451280
0.374714 0.372716 0.375534
0.427031 0.427243 0.424929
0.477910 0.476591 0.472761
0.403069 0.399878 0.399127
0.392623 0.391457 0.390816
0.379127 0.387838 0.389219
0.414315 0.411223 0.411747
0.453245 0.457663 0.452551
0.423170 0.425875 0.424615
0.427136 0.421510 0.421182
0.448245 0.449426 0.450978
0.426151 0.426162 0.424338
0.394198 0.392894 0.388196
0.439296 0.439652 0.438039
0.455136 0.454877 0.454829
0.431689 0.431244 0.430617
0.401400 0.399784 0.395252
0.448667 0.446236 0.443219
0.439626 0.436858 0.435710
0.406063 0.406921 0.402674
0.389971 0.390301 0.393545
0.429080 0.422349 0.428012
0.397112 0.395478 0.396074
0.407881 0.408940 0.407904
0.487203 0.485944 0.482739
0.462134 0.457354 0.454987
0.437195 0.436062 0.436551
0.408872 0.409358 0.410352
0.402359 0.402508 0.401381
0.406141 0.408314 0.401894
0.457577 0.457032 0.452235
0.438304 0.438455 0.439359
0.457765 0.465017 0.464854
0.402276 0.402480 0.409842
0.480155 0.481570 0.483353
0.412922 0.409634 0.408657
0.427563 0.429753 0.431764
0.372136 0.371321 0.370388
0.370309 0.370008 0.372079
0.394783 0.394497 0.391509
0.418992 0.417260 0.415815
0.422114 0.422502 0.421712
0.403930 0.407611 0.407060
0.404547 0.403353 0.401127
0.394656 0.395052 0.394195
0.439045 0.437402 0.438258
0.473088 0.477392 0.479396
0.420653 0.417771 0.414240
0.416375 0.417315 0.418791
0.438209 0.438086 0.438293
0.430738 0.434917 0.433512
0.371445 0.371886 0.375524
0.399768 0.399014 0.399154
0.416803 0.414188 0.415886
0.419321 0.419003 0.426120
0.378326 0.382647 0.383103
0.402074 0.406060 0.409480
0.413366 0.413052 0.409637
0.469664 0.468735 0.470097
0.422867 0.418444 0.419222
0.386148 0.388116 0.389732
0.394389 0.393368 0.392803
0.427676 0.430505 0.431791
0.386803 0.384001 0.381137
0.408921 0.403587 0.403685
0.363089 0.361334 0.368984
0.391112 0.391323 0.396577
0.400344 0.403006 0.402485
0.523706 0.520599 0.516834
0.456929 0.449452 0.439025
0.407789 0.406756 0.405778
0.445601 0.445450 0.443629
0.438117 0.438926 0.439493
0.412050 0.412449 0.413783
0.417226 0.417897 0.428172
0.407263 0.403658 0.406027
0.432617 0.430068 0.422023
0.428227 0.421847 0.421977
0.465333 0.465425 0.467679
0.442422 0.439380 0.434617
0.397512 0.395183 0.394670
0.401880 0.399215 0.397940
0.431434 0.430814 0.431790
0.435459 0.433807 0.428842
0.440693 0.437836 0.436985
0.401593 0.407336 0.407293
0.440307 0.441923 0.447606
0.410707 0.420040 0.419949
0.412729 0.410998 0.416111
0.415526 0.413794 0.409874
0.471354 0.472627 0.472668
0.470010 0.469857 0.469732
0.458447 0.458463 0.459475
0.438087 0.441057 0.436470
0.431962 0.427155 0.427603
0.410608 0.407907 0.406352
0.495346 0.496115 0.497376
0.459071 0.457167 0.453374
0.379490 0.380264 0.380307
0.430954 0.432087 0.431144
0.403747 0.404394 0.403129
0.442132 0.440890 0.437775
0.391511 0.391839 0.389367
0.481080 0.481142 0.482205
0.421923 0.416200 0.415935
0.418029 0.428805 0.446338
0.476394 0.475737 0.476990
0.408509 0.410048 0.408225
0.469922 0.470067 0.475271
0.385643 0.382725 0.381823
0.434301 0.434634 0.431652
0.429260 0.428411 0.426887
0.470432 0.471033 0.473437
0.390012 0.387414 0.389925
0.400310 0.404077 0.404392
0.404286 0.404458 0.404533
0.426022 0.429632 0.431412
0.421449 0.414645 0.414439
0.390124 0.392097 0.390126
0.410130 0.414568 0.412173
0.432340 0.431846 0.433670
0.446682 0.443566 0.443778
0.404586 0.400656 0.403126
0.406868 0.403566 0.404929
0.408603 0.407021 0.402410
0.441814 0.441542 0.445711
0.424335 0.425311 0.424981
0.459726 0.459921 0.459403
0.417442 0.417539 0.415161
0.420878 0.421882 0.420765
0.406053 0.403009 0.400421
0.445420 0.445460 0.443137
0.486330 0.486727 0.487718
0.425427 0.426072 0.425755
0.389363 0.386186 0.386955
0.427994 0.431010 0.437619
0.447417 0.443194 0.444751
0.384340 0.385583 0.387507
0.467910 0.468427 0.468268
0.439553 0.437697 0.437420
0.390219 0.387554 0.387197
0.391129 0.398250 0.397003
0.437917 0.436180 0.437585
0.445193 0.445387 0.448158
0.390115 0.390588 0.389590
0.458616 0.458162 0.459268
0.464545 0.466626 0.473874
0.409817 0.409853 0.411185
0.442339 0.441697 0.441695
0.427167 0.425510 0.424746
0.428610 0.428548 0.430756
0.399811 0.403270 0.401728
0.397541 0.396336 0.397085
0.449423 0.447362 0.446318
0.538760 0.544731 0.546599
0.471765 0.472293 0.475701
0.402712 0.402113 0.395557
0.432754 0.433648 0.437137
0.426995 0.427705 0.430459
0.402832 0.399886 0.400873
0.504832 0.510227 0.514071
0.446476 0.446711 0.446300
0.452161 0.450943 0.451137
0.372704 0.374409 0.376400
0.420479 0.418034 0.417137
0.364759 0.362493 0.367678
0.387106 0.382325 0.386939
0.434526 0.435773 0.435950
0.411219 0.410593 0.412037
0.398831 0.399758 0.401256
0.442046 0.456902 0.457369
0.399127 0.396208 0.397375
0.364482 0.367537 0.363750
0.438679 0.434119 0.435140
0.415115 0.418636 0.417769
0.464877 0.464892 0.463190
0.411486 0.416792 0.416963
0.455263 0.456910 0.455283
0.441599 0.441107 0.444135
0.423367 0.424172 0.427232
0.461726 0.460257 0.462518
0.402572 0.405787 0.403172
0.406246 0.406087 0.409269
0.451708 0.459897 0.460287
0.417581 0.410265 0.402765
0.418856 0.421271 0.418223
0.405752 0.407494 0.407278
0.426241 0.429740 0.431874
0.453891 0.456055 0.457014
0.407313 0.414020 0.413752
0.402275 0.399912 0.400890
0.372401 0.371990 0.367979
0.372691 0.375810 0.372744
0.410085 0.414545 0.413722
0.398431 0.398400 0.399430
0.385932 0.380577 0.379387
0.465760 0.462874 0.461401
0.425957 0.423139 0.419551
0.498167 0.498952 0.497406
0.455587 0.458438 0.458848
0.400303 0.403159 0.397980
0.399338 0.399563 0.397569
0.438386 0.442029 0.447715
0.420284 0.421044 0.419263
0.414366 0.416681 0.417737
0.415244 0.418441 0.419430
0.477073 0.476750 0.476360
0.411542 0.410428 0.407719
0.483232 0.483386 0.482914
0.389785 0.392336 0.393799
0.423532 0.423811 0.425555
0.401336 0.404391 0.400431
0.462065 0.462950 0.462956
0.454289 0.453749 0.455067
0.471021 0.466970 0.458899
0.407286 0.409779 0.410538
0.408350 0.407853 0.419321
0.439287 0.436347 0.434331
0.419800 0.419306 0.415051
0.371865 0.372004 0.372627
0.464041 0.464101 0.456547
0.455066 0.452849 0.449926
0.402053 0.404124 0.402975
0.435293 0.436221 0.431797
0.476337 0.474744 0.471267
0.366991 0.365864 0.368743
0.397121 0.396128 0.397753
0.413418 0.412265 0.411314
0.427005 0.426056 0.429203
0.449137 0.453785 0.458492
0.416369 0.416161 0.414315
0.440928 0.436957 0.435766
0.389044 0.389947 0.394023
0.403498 0.404466 0.406862
0.440069 0.443443 0.442063
0.384149 0.383988 0.384092
0.398778 0.398243 0.397979
0.456436 0.455126 0.456465
0.393495 0.396419 0.396412
0.423788 0.426606 0.432422
0.468763 0.469346 0.468965
0.401635 0.408684 0.408584
0.465284 0.468203 0.470541
0.456329 0.453631 0.452437
0.379135 0.381282 0.378601
0.407035 0.413095 0.411838
0.367407 0.367436 0.366453
0.381125 0.384039 0.391449
0.423499 0.424811 0.421359
0.402290 0.402164 0.402773
0.434038 0.435590 0.434659
0.419631 0.417310 0.418506
0.422467 0.424327 0.426212
0.404679 0.404685 0.404918
0.472413 0.478918 0.479054
0.428989 0.428400 0.427270
0.512422 0.512127 0.512780
0.388925 0.388458 0.386245
0.437043 0.439240 0.439868
0.381470 0.383441 0.383876
0.429215 0.431184 0.429573
0.418680 0.417413 0.417340
0.396709 0.399235 0.400666
0.428624 0.430948 0.428609
0.411426 0.412478 0.412220
0.457205 0.458458 0.458124
0.405240 0.404003 0.404427
0.536755 0.537309 0.537352
0.427177 0.429873 0.426296
0.400361 0.399861 0.397655
0.415054 0.413231 0.411550
0.488271 0.486843 0.481765
0.439721 0.436398 0.436204
0.427057 0.427887 0.433624
0.458500 0.462998 0.467160
0.409163 0.410039 0.411010
0.437404 0.438718 0.440541
0.510139 0.507636 0.502307
0.429326 0.429062 0.419856
0.410095 0.408912 0.407168
0.449267 0.450565 0.452068
0.403985 0.405709 0.402782
0.393675 0.390663 0.388963
0.428049 0.426123 0.425385
0.397348 0.396892 0.400689
0.442856 0.443699 0.445039
0.434232 0.428057 0.429543
0.418265 0.414959 0.415091
0.399270 0.398462 0.393177
0.431190 0.431087 0.430108
0.438658 0.439355 0.438240
0.415674 0.417431 0.412942
0.474279 0.478701 0.479563
0.423380 0.420783 0.416391
0.430431 0.434891 0.437856
0.408582 0.407845 0.408788
0.402106 0.409342 0.409976
0.435221 0.434393 0.434664
0.433856 0.437249 0.435852
0.396056 0.398093 0.398886
0.392935 0.383649 0.383788
0.452712 0.453721 0.455708
0.394289 0.394406 0.399660
0.412612 0.412303 0.411984
0.429288 0.419732 0.416531
0.431427 0.432055 0.432474
0.365676 0.366200 0.367210
0.403458 0.404072 0.402715
0.434765 0.433795 0.437856
0.375875 0.374466 0.376390
0.475989 0.477300 0.475332
0.449718 0.452611 0.455587
0.406113 0.405489 0.405177
0.483022 0.479134 0.480893
0.386873 0.389894 0.390153
0.447646 0.447076 0.449095
0.485801 0.485479 0.486989
0.385362 0.387933 0.387020
0.366466 0.363601 0.360212
0.420745 0.425608 0.424128
0.500979 0.502977 0.501504
0.406777 0.408200 0.407300
0.477498 0.476796 0.473320
0.445203 0.445836 0.445121
0.409041 0.409076 0.407489
0.412851 0.413199 0.416605
0.416128 0.417080 0.416740
0.489057 0.489448 0.490513
0.486505 0.483092 0.482144
0.475349 0.469745 0.465722
0.410806 0.406280 0.406250
0.440997 0.439828 0.437568
0.402256 0.402821 0.403015
0.409639 0.408782 0.408410
0.433512 0.435727 0.438545
0.451497 0.450777 0.447968
0.442712 0.445700 0.444100
0.386831 0.385986 0.387283
0.396653 0.392323 0.386492
0.423575 0.425685 0.422410
0.487534 0.480194 0.479639
0.464776 0.464409 0.463399
0.472882 0.477410 0.478753
0.443478 0.442608 0.438862
0.475413 0.479622 0.484016
0.484514 0.487203 0.485944
0.449867 0.449893 0.456607
0.433037 0.427195 0.426625
0.431570 0.430580 0.431411
0.453615 0.453754 0.455526
0.446976 0.445728 0.443973
0.476609 0.473992 0.470528
0.460042 0.453543 0.452580
0.510805 0.508126 0.506618
0.426625 0.425212 0.422244
0.390569 0.387277 0.389697
0.366080 0.368833 0.369809
0.383215 0.387539 0.389086
0.381377 0.383888 0.382811
0.435970 0.434822 0.433802
0.390020 0.388983 0.389692
0.403818 0.400651 0.398848
0.461301 0.459072 0.459601
0.401145 0.398900 0.398048
0.434838 0.431698 0.428762
0.405819 0.410670 0.407641
0.453063 0.454463 0.458574
0.422826 0.419702 0.419518
0.387838 0.389219 0.391432
0.377193 0.376224 0.377575
0.442780 0.444565 0.448897
0.468838 0.467092 0.460545
0.455103 0.454012 0.454035
0.407908 0.415486 0.415559
0.413621 0.414144 0.412184
0.415214 0.422152 0.422881
0.385372 0.388383 0.389144
0.431404 0.428175 0.422942
0.449619 0.443874 0.441903
0.450008 0.448504 0.446026
0.480842 0.482633 0.482541
0.426929 0.427679 0.426275
0.427262 0.427703 0.428312
0.396178 0.394423 0.396686
0.441682 0.446221 0.444219
0.412312 0.411210 0.409187
0.422842 0.422428 0.419403
0.407252 0.406303 0.407642
0.432625 0.429600 0.431882
0.457116 0.456261 0.451196
0.457823 0.457792 0.457650
0.419786 0.424486 0.424420
0.452396 0.452440 0.453922
0.447484 0.442605 0.442018
0.350116 0.350334 0.354328
0.449626 0.451570 0.457797
0.435552 0.434286 0.434604
0.412254 0.413342 0.415625
0.400746 0.403319 0.400781
0.409525 0.409464 0.408780
0.490049 0.485962 0.484740
0.408848 0.409314 0.408298
0.486684 0.491404 0.491324
0.414561 0.414096 0.412631
0.397456 0.400531 0.395288
0.446593 0.446416 0.447036
0.403042 0.404478 0.403736
0.388577 0.392293 0.392852
0.413923 0.411972 0.412755
0.491882 0.493313 0.493116
0.388626 0.389159 0.398459
0.410792 0.416816 0.416504
0.438776 0.439489 0.440027
0.398589 0.400138 0.401400
0.350705 0.350619 0.349001
0.386156 0.384979 0.386937
0.446413 0.444019 0.446181
0.387412 0.388075 0.388340
0.407328 0.408394 0.407841
0.481340 0.478688 0.473846
0.389154 0.382938 0.376240
0.473689 0.474088 0.473359
0.400462 0.399423 0.400575
0.436398 0.436204 0.435471
0.409423 0.408382 0.412258
0.466992 0.466650 0.467687
0.443346 0.441815 0.442407
0.441741 0.440548 0.438511
0.499888 0.496660 0.486245
0.475003 0.473322 0.469748
0.389539 0.388399 0.388473
0.490051 0.485359 0.479278
0.443528 0.440359 0.439609
0.426430 0.425673 0.429593
0.367249 0.368736 0.370402
0.405157 0.406923 0.413581
0.414861 0.417792 0.416375
0.386303 0.389500 0.388815
0.368991 0.373428 0.379711
0.393968 0.395132 0.405359
0.440614 0.440763 0.440601
0.442317 0.442285 0.441593
0.431716 0.431286 0.430606
0.415716 0.419732 0.429693
0.430282 0.428875 0.425803
0.458536 0.449783 0.451205
0.450760 0.448649 0.449889
0.452095 0.452380 0.453806
0.460628 0.463836 0.466014
0.490607 0.487984 0.484961
0.379903 0.378893 0.380219
0.382838 0.384316 0.386287
0.432953 0.433422 0.433803
0.418254 0.417292 0.415285
0.365395 0.367964 0.364322
0.406392 0.405203 0.407330
0.374432 0.375388 0.373230
0.411012 0.412013 0.413477
0.417539 0.415161 0.412164
0.429570 0.431076 0.431172
0.474963 0.475172 0.473248
0.449979 0.441602 0.439817
0.410430 0.404236 0.403771
0.438444 0.438706 0.437231
0.410235 0.413641 0.413871
0.398017 0.397341 0.399082
0.407597 0.408117 0.401520
0.408932 0.405811 0.405865
0.455929 0.458449 0.458032
0.469362 0.472402 0.466095
0.406140 0.402241 0.401868
0.502979 0.501429 0.500363
0.377180 0.374656 0.374022
0.407562 0.405513 0.405946
0.436152 0.433898 0.437945
0.472890 0.473327 0.471216
0.418091 0.414714 0.414019
0.399887 0.403878 0.401988
0.436861 0.437554 0.437287
0.436180 0.436683 0.437309
0.463245 0.469485 0.470140
0.474427 0.475989 0.477300
0.436961 0.435201 0.436681
0.411090 0.408454 0.408226
0.417357 0.414969 0.418153
0.432222 0.436373 0.437464
0.468452 0.462747 0.459511
0.466628 0.470288 0.470675
0.385594 0.384338 0.385515
0.422747 0.418329 0.411374
0.415604 0.418856 0.421271
0.434561 0.434502 0.435332
0.476163 0.479925 0.477947
0.411748 0.413295 0.413030
0.481862 0.486978 0.488143
0.506064 0.502266 0.491378
0.388080 0.388398 0.394560
0.531110 0.529954 0.536167
0.471720 0.469782 0.473374
0.376480 0.378187 0.378059
0.421612 0.419306 0.419198
0.391251 0.389835 0.382248
0.435220 0.435305 0.432352
0.424312 0.419587 0.420303
0.407997 0.416552 0.418280
0.427402 0.428082 0.426929
0.374514 0.375161 0.374392
0.416041 0.415625 0.416874
0.485471 0.488969 0.489880
0.399365 0.398216 0.397630
0.375668 0.373694 0.372828
0.427978 0.430961 0.435553
0.442914 0.444461 0.448408
0.426665 0.425880 0.426027
0.388653 0.384302 0.382533
0.410204 0.407121 0.399373
0.496670 0.498405 0.497503
0.433046 0.430781 0.422499
0.459683 0.461083 0.460829
0.427362 0.434510 0.437533
0.397649 0.397019 0.398075
0.413897 0.415176 0.412799
0.402326 0.401697 0.399427
0.439232 0.440228 0.441624
0.405289 0.405566 0.405064
0.473132 0.476714 0.477150
0.408127 0.409276 0.413413
0.442242 0.440241 0.440920
0.406847 0.407925 0.408026
0.454965 0.454357 0.452700
0.398355 0.397866 0.398431
0.449189 0.446843 0.444958
0.415213 0.414553 0.415339
0.379927 0.378107 0.374118
0.391215 0.397663 0.397964
0.428028 0.427489 0.425309
0.427512 0.426418 0.427701
0.451944 0.452059 0.450888
0.396548 0.398604 0.398953
0.405998 0.406421 0.407655
0.411629 0.411545 0.412135
0.414529 0.414247 0.414011
0.448581 0.444619 0.440211
0.491136 0.489502 0.488271
0.374893 0.376477 0.377012
0.429743 0.426160 0.425138
0.412170 0.409070 0.409797
0.417108 0.415907 0.412471
0.472127 0.475420 0.477132
0.420818 0.426053 0.429615
0.372721 0.372327 0.378681
0.418817 0.417156 0.415964
0.419261 0.421797 0.425724
0.390323 0.389353 0.387440
0.530733 0.529705 0.536392
0.438032 0.437727 0.433709
0.387937 0.390603 0.390889
0.390440 0.390287 0.385491
0.478505 0.478854 0.472588
0.441789 0.439244 0.438444
0.482649 0.484157 0.492155
0.422754 0.421982 0.419413
0.411525 0.411095 0.412125
0.430509 0.431030 0.431233
0.408345 0.409422 0.408748
0.453914 0.453010 0.452968
0.465785 0.463479 0.461460
0.419180 0.418713 0.418799
0.483726 0.485674 0.483434
0.434664 0.438936 0.439106
0.444617 0.447132 0.444869
0.508247 0.506544 0.507828
0.415170 0.412751 0.416247
0.394678 0.396129 0.398125
0.452556 0.454874 0.450744
0.455283 0.454602 0.452271
0.428877 0.429409 0.426960
0.367452 0.369212 0.375118
0.419446 0.411493 0.407099
0.527390 0.526918 0.527206
0.399963 0.399404 0.394830
0.439714 0.439168 0.441052
0.391899 0.391664 0.395103
0.466312 0.466165 0.462402
0.382009 0.380424 0.381655
0.408660 0.406964 0.406587
0.415454 0.412181 0.411145
0.406480 0.407164 0.406270
0.383623 0.381958 0.380475
0.428077 0.425941 0.423510
0.395474 0.400199 0.405051
0.426694 0.426897 0.423829
0.377695 0.379531 0.379249
0.417015 0.413338 0.406976
0.394737 0.397344 0.390380
0.438960 0.440491 0.442999
0.375859 0.381710 0.381476
0.462956 0.464859 0.475402
0.453567 0.452944 0.451555
0.381374 0.383691 0.388054
0.472870 0.480846 0.483235
0.437099 0.433810 0.429170
0.392651 0.391387 0.390697
0.486751 0.478325 0.476356
0.450731 0.453981 0.454386
0.444403 0.443901 0.437480
0.409873 0.412819 0.412186
0.405816 0.405421 0.408034
0.447137 0.451157 0.453220
0.442988 0.447668 0.456543
0.384955 0.382628 0.383259
0.381710 0.381476 0.384687
0.421409 0.422798 0.420562
0.401591 0.402040 0.406822
0.403752 0.403173 0.403635
0.428182 0.423437 0.419634
0.412125 0.412803 0.417570
0.411330 0.411308 0.411894
0.433802 0.433579 0.429322
0.375637 0.375435 0.374698
0.400225 0.399650 0.401663
0.409654 0.409279 0.410048
0.438558 0.431509 0.429865
0.466139 0.464059 0.465062
0.378779 0.381840 0.375225
0.414826 0.418680 0.417413
0.449825 0.457646 0.461943
0.427732 0.424932 0.431528
0.395296 0.405426 0.404547
0.510656 0.511234 0.512516
0.416449 0.418394 0.418347
0.375083 0.374266 0.374936
0.447898 0.448580 0.446695
0.436681 0.438597 0.436964
0.400077 0.400998 0.406271
0.413600 0.411006 0.411262
0.471735 0.475577 0.472472
0.412693 0.408600 0.407932
0.454518 0.453906 0.451393
0.506206 0.497862 0.486684
0.430577 0.431856 0.430500
0.406575 0.408669 0.410125
0.417945 0.414277 0.412009
0.358671 0.360936 0.358894
0.398709 0.399422 0.400717
0.417999 0.415853 0.414631
0.395916 0.390721 0.390147
0.425823 0.421175 0.420854
0.416956 0.413667 0.412618
0.417764 0.420059 0.417306
0.426480 0.426588 0.426945
0.399878 0.399127 0.396208
0.493320 0.492902 0.492436
0.372327 0.378681 0.382073
0.471277 0.475061 0.474177
0.452522 0.452729 0.451834
0.435014 0.434309 0.432249
0.480327 0.482076 0.481158
0.521999 0.524523 0.527390
0.410395 0.410977 0.408986
0.393124 0.395643 0.399958
0.411711 0.413209 0.407280
0.372312 0.369046 0.368499
0.510959 0.506714 0.505093
0.395612 0.394309 0.392880
0.403683 0.404659 0.406807
0.378611 0.377086 0.377927
0.397754 0.399049 0.396871
0.400548 0.400648 0.400207
0.483121 0.483164 0.486354
0.397530 0.397816 0.396288
0.360583 0.360630 0.369138
0.395926 0.396375 0.395283
0.498952 0.497406 0.497456
0.372935 0.373791 0.372182
0.393516 0.396534 0.396440
0.463435 0.463563 0.464378
0.395935 0.397022 0.395691
0.417795 0.432026 0.430840
0.459431 0.457577 0.454957
0.458860 0.460663 0.459865
0.409591 0.411429 0.411557
0.436322 0.440102 0.438771
0.439469 0.439737 0.439123
0.466128 0.470413 0.472829
0.406406 0.407373 0.411534
0.454907 0.454762 0.456605
0.393892 0.393747 0.390310
0.450908 0.451766 0.453010
0.429799 0.430920 0.430771
0.369964 0.366751 0.367156
0.391236 0.392972 0.392588
0.441585 0.442307 0.442113
0.371032 0.365112 0.364999
0.423826 0.424665 0.426603
0.414708 0.415847 0.413590
0.411514 0.408774 0.409278
0.397707 0.396371 0.396821
0.441619 0.442180 0.447213
0.410070 0.411891 0.415716
0.405894 0.404520 0.407678
0.414831 0.414696 0.411044
0.444733 0.450944 0.449506
0.397019 0.398075 0.400878
0.435751 0.433885 0.438224
0.414823 0.412857 0.405959
0.449387 0.447375 0.445299
0.393885 0.394546 0.391467
0.500830 0.499289 0.502862
0.449996 0.453932 0.453398
0.436361 0.436530 0.435430
0.430581 0.429516 0.432060
0.428826 0.430468 0.431435
0.449730 0.447906 0.447349
0.428758 0.429172 0.427103
0.433512 0.431429 0.431296
0.391874 0.385932 0.380577
0.416888 0.418567 0.418105
0.475430 0.478922 0.478412
0.412160 0.408633 0.408054
0.470261 0.468321 0.469136
0.438580 0.439120 0.440768
0.371604 0.372504 0.373354
0.401663 0.402173 0.402921
0.412351 0.417969 0.416430
0.429971 0.431239 0.428180
0.399513 0.393115 0.387324
0.456364 0.458072 0.460345
0.447323 0.454155 0.464114
0.442381 0.441892 0.439556
0.390361 0.394389 0.393368
0.485784 0.486119 0.488904
0.431922 0.432901 0.432728
0.403057 0.402317 0.395990
0.453072 0.455792 0.452792
0.406046 0.404921 0.400889
0.469263 0.470129 0.471455
0.432218 0.435114 0.442061
0.385949 0.386544 0.387423
0.397873 0.404304 0.408531
0.420180 0.420760 0.420713
0.454072 0.456531 0.454107
0.409334 0.411578 0.408283
0.386811 0.391532 0.391420
0.398274 0.397968 0.397338
0.370067 0.368410 0.369522
0.400579 0.401581 0.399156
0.499848 0.503357 0.503951
0.408470 0.408059 0.407464
0.435375 0.436319 0.436122
0.422574 0.412390 0.411707
0.409095 0.410889 0.412636
0.423113 0.424390 0.424302
0.444690 0.442060 0.438751
0.433469 0.432402 0.432048
0.408832 0.407821 0.409980
0.374292 0.374159 0.369368
0.429830 0.429835 0.424038
0.472232 0.474208 0.474600
0.458667 0.453718 0.452005
0.386917 0.382244 0.382713
0.457287 0.450188 0.449664
0.458406 0.459255 0.457801
0.445184 0.444179 0.441971
0.389867 0.390348 0.394957
0.417617 0.416923 0.417083
0.439661 0.440388 0.440931
0.439720 0.440238 0.437698
0.369209 0.370016 0.373112
0.479813 0.480540 0.475710
0.402060 0.402928 0.410008
0.372128 0.372398 0.378831
0.461765 0.455479 0.456663
0.409837 0.410883 0.412877
0.379579 0.378182 0.376522
0.479312 0.479114 0.479135
0.402635 0.402665 0.404479
0.396663 0.395220 0.394155
0.426073 0.422775 0.423912
0.430580 0.431411 0.424854
0.445490 0.448491 0.450065
0.435769 0.438412 0.438386
0.407494 0.406847 0.408865
0.389819 0.389956 0.389665
0.418804 0.417521 0.419751
0.421175 0.420854 0.412977
0.410824 0.410437 0.412848
0.432612 0.438795 0.432957
0.486901 0.491600 0.497169
0.440632 0.439882 0.440747
0.425322 0.427005 0.426056
0.418466 0.411648 0.411553
0.415100 0.415997 0.417073
0.410062 0.408553 0.410358
0.395137 0.398638 0.398848
0.415677 0.416445 0.422197
0.473226 0.472863 0.472615
0.407622 0.408693 0.407042
0.451142 0.449169 0.451200
0.404684 0.404446 0.403677
0.438045 0.443120 0.444497
0.491022 0.488638 0.485004
0.369856 0.369489 0.372332
0.405666 0.406215 0.406489
0.405727 0.407482 0.404121
0.403821 0.405427 0.405963
0.389256 0.387599 0.386308
0.433160 0.433362 0.433945
0.408414 0.407660 0.407215
0.409461 0.408810 0.400559
0.415866 0.418596 0.419480
0.413887 0.406674 0.408376
0.395974 0.397868 0.395892
0.408639 0.408128 0.406306
0.481594 0.479579 0.484793
0.445227 0.443556 0.443785
0.434133 0.434790 0.435422
0.371961 0.373554 0.375696
0.369691 0.369667 0.372227
0.469481 0.473469 0.472608
0.394714 0.396908 0.398968
0.433815 0.433347 0.433178
0.441624 0.442493 0.445019
0.431058 0.432930 0.437312
0.427850 0.429865 0.431888
0.468602 0.472830 0.473758
0.437946 0.436996 0.437766
0.397560 0.395694 0.393747
0.408581 0.401925 0.399278
0.474130 0.477455 0.479271
0.448700 0.447092 0.445300
0.410039 0.411010 0.409833
0.387539 0.389086 0.390192
0.494783 0.498596 0.498762
0.421369 0.418471 0.417840
0.460995 0.460140 0.457878
0.416456 0.417372 0.414883
0.430373 0.431162 0.431941
0.501586 0.501410 0.500153
0.421109 0.413809 0.412781
0.411972 0.412855 0.414494
0.448639 0.449108 0.450057
0.470198 0.467575 0.465056
0.461598 0.467502 0.468634
0.454203 0.453963 0.452320
0.416993 0.417069 0.419351
0.407393 0.409061 0.410882
0.461903 0.460212 0.460253
0.443327 0.442911 0.443974
0.492087 0.492408 0.492163
0.437396 0.436201 0.436612
0.461571 0.461375 0.464264
0.433658 0.433790 0.434039
0.412506 0.412603 0.410643
0.411342 0.410701 0.411032
0.408637 0.408157 0.408528
0.420122 0.413250 0.412822
0.414376 0.415504 0.417411
0.399094 0.403190 0.405050
0.379256 0.376774 0.376674
0.415867 0.414036 0.415645
0.449406 0.443997 0.443076
0.424420 0.423374 0.420038
0.438896 0.440718 0.440860
0.480346 0.480147 0.477937
0.454325 0.449484 0.443107
0.446654 0.446872 0.446607
0.468833 0.468086 0.473025
0.402822 0.404145 0.403880
0.428916 0.426527 0.425455
0.391653 0.396787 0.392843
0.421420 0.419863 0.416033
0.468645 0.469862 0.470917
0.459287 0.455985 0.459973
