0.584065 0.583543 0.582957
0.615757 0.615381 0.615319
0.407533 0.414226 0.417763
0.570140 0.569842 0.571294
0.729996 0.720663 0.719079
0.638203 0.639580 0.640896
0.597706 0.601883 0.604285
0.592320 0.592846 0.593492
0.751938 0.754049 0.752062
0.508017 0.508226 0.509445
0.616502 0.617062 0.615221
0.569529 0.561455 0.563253
0.611135 0.609797 0.609662
0.569125 0.564153 0.564380
0.613329 0.612789 0.595735
0.691463 0.698975 0.709059
0.568677 0.573632 0.574459
0.623191 0.625647 0.627852
0.475050 0.472893 0.475408
0.616535 0.615577 0.618953
0.678229 0.672136 0.666576
0.527374 0.527265 0.525976
0.622687 0.623342 0.624741
0.377708 0.379733 0.377921
0.562021 0.563460 0.567567
0.535479 0.536508 0.537613
0.504392 0.499777 0.497553
0.651674 0.652722 0.653784
0.575928 0.577758 0.578237
0.644054 0.644222 0.643896
0.489226 0.488675 0.485324
0.521117 0.522998 0.522276
0.736427 0.741080 0.749751
0.560709 0.566155 0.576369
0.637319 0.637413 0.635654
0.554100 0.554312 0.553292
0.571122 0.573652 0.575937
0.363318 0.362712 0.362758
0.385319 0.388809 0.389921
0.617320 0.602512 0.603369
0.410431 0.407116 0.399629
0.525554 0.512306 0.513388
0.880461 0.884048 0.891883
0.590238 0.595879 0.590717
0.593835 0.593580 0.593178
0.772435 0.769595 0.758299
0.839881 0.837796 0.836057
0.427490 0.427634 0.428232
0.581886 0.578930 0.585231
0.646377 0.643129 0.636258
0.593079 0.594743 0.590094
0.407786 0.407694 0.410177
0.931562 0.935399 0.927043
0.596432 0.597584 0.599092
0.418746 0.419615 0.410008
0.575688 0.576258 0.582395
0.577695 0.584730 0.583749
0.570983 0.566781 0.566827
0.589992 0.584258 0.548847
0.583990 0.583950 0.582696
0.574990 0.574559 0.572945
0.580518 0.580751 0.579400
0.579486 0.580138 0.582012
0.608769 0.605828 0.608041
0.415016 0.415300 0.414239
0.384884 0.385177 0.384237
0.586031 0.586132 0.582202
0.877615 0.875677 0.871796
0.531214 0.528051 0.532655
0.550450 0.552883 0.554345
0.637852 0.640498 0.639177
0.517066 0.517851 0.518859
0.564525 0.565607 0.569930
0.726625 0.725828 0.719298
0.579382 0.573301 0.574414
0.755898 0.762081 0.757983
0.593101 0.593391 0.592983
0.689978 0.695543 0.700265
0.643496 0.649808 0.649444
0.508099 0.509702 0.508811
0.732660 0.733187 0.737737
0.561127 0.560974 0.559878
0.625064 0.611962 0.606985
0.580651 0.576771 0.584145
0.735804 0.735988 0.727608
0.494027 0.495478 0.493911
0.652087 0.651936 0.650581
0.627292 0.637505 0.632404
0.540551 0.540056 0.534963
0.720602 0.720152 0.733149
0.718547 0.716434 0.718534
0.598534 0.600706 0.600610
0.406915 0.404994 0.405070
0.719367 0.711128 0.711304
0.502331 0.494637 0.495907
0.728255 0.723432 0.724228
0.554431 0.554884 0.552610
0.622176 0.622758 0.623745
0.701911 0.714934 0.715840
0.384109 0.384420 0.383103
0.526815 0.528692 0.528329
0.601802 0.623047 0.631990
0.596287 0.593216 0.591488
0.729612 0.730134 0.729980
0.609930 0.607490 0.602338
0.703841 0.703606 0.707958
0.572154 0.576494 0.585079
0.723369 0.723216 0.726419
0.546660 0.545505 0.538824
0.654730 0.654086 0.650323
0.759997 0.760523 0.755111
0.620889 0.617347 0.614428
0.574652 0.575660 0.574205
0.448714 0.448883 0.449283
0.725853 0.727732 0.726130
0.569842 0.571294 0.581985
0.881169 0.890709 0.889984
0.891317 0.890661 0.893409
0.564588 0.553964 0.558376
0.731998 0.734890 0.746523
0.585079 0.591246 0.601162
0.639363 0.641093 0.640524
0.408348 0.405763 0.405236
0.613432 0.613061 0.612855
0.701078 0.697060 0.695020
0.475144 0.473147 0.459766
0.516892 0.516572 0.504503
0.513741 0.505696 0.505775
0.595280 0.612168 0.613150
0.680763 0.677412 0.682379
0.571449 0.576873 0.579927
0.641295 0.649654 0.656737
0.662440 0.668297 0.666464
0.523187 0.528967 0.529670
0.384395 0.380049 0.380861
0.727693 0.723857 0.727867
0.562558 0.562344 0.560803
0.425629 0.422494 0.391794
0.632516 0.633099 0.632561
0.540991 0.535613 0.535333
0.597768 0.601657 0.602064
0.657493 0.656937 0.654667
0.835560 0.838048 0.836997
0.555040 0.552404 0.549504
0.690712 0.696690 0.694585
0.471917 0.470360 0.468607
0.641552 0.648672 0.653001
0.501762 0.500832 0.501161
0.422970 0.421540 0.425328
0.739683 0.739192 0.727512
0.609823 0.599347 0.602177
0.587629 0.588852 0.587355
0.551103 0.540679 0.542638
0.575157 0.570137 0.568351
0.595781 0.599908 0.609533
0.631219 0.629488 0.629189
0.823596 0.820943 0.808374
0.614915 0.615222 0.624966
0.369809 0.365348 0.364933
0.550288 0.552233 0.561160
0.533049 0.523790 0.489933
0.570556 0.569765 0.569723
0.592619 0.592320 0.592846
0.627627 0.628409 0.634124
0.774295 0.781465 0.771443
0.532487 0.527306 0.539425
0.685600 0.686452 0.683641
0.535069 0.534009 0.538267
0.627077 0.626919 0.630909
0.418645 0.418660 0.419365
0.515469 0.513356 0.510266
0.607270 0.604993 0.602565
0.650993 0.655652 0.654784
0.352781 0.351837 0.351550
0.609765 0.610340 0.611224
0.688263 0.687364 0.689981
0.532989 0.547956 0.549590
0.653167 0.662701 0.670182
0.606980 0.594271 0.593185
0.784659 0.795211 0.794591
0.686915 0.686568 0.686202
0.601889 0.599437 0.596561
0.540892 0.552672 0.552968
0.612093 0.605999 0.591487
0.543420 0.542699 0.541104
0.634735 0.637037 0.644157
0.654607 0.654903 0.657659
0.502678 0.501305 0.499889
0.615381 0.615319 0.625744
0.804340 0.799121 0.799111
0.579242 0.577285 0.573844
0.589029 0.592978 0.586931
0.785732 0.783702 0.795007
0.624394 0.619654 0.619474
0.619078 0.622348 0.625079
0.612797 0.612347 0.611039
0.432798 0.433010 0.434461
0.504806 0.501629 0.501802
0.766345 0.762562 0.758612
0.583041 0.579963 0.581908
0.882996 0.881603 0.882536
0.753899 0.757288 0.760808
0.563828 0.563310 0.562046
0.567796 0.566499 0.565210
0.554398 0.553797 0.552146
0.884007 0.882690 0.883570
0.410227 0.402795 0.408258
0.625969 0.607730 0.609756
0.818759 0.823018 0.829691
0.978457 0.989827 0.996178
0.671107 0.671147 0.682645
0.547959 0.557212 0.561983
0.633271 0.627298 0.626505
0.903565 0.892123 0.883726
0.484433 0.480314 0.508304
0.635651 0.635232 0.633038
0.692912 0.693424 0.688865
0.704804 0.707563 0.707992
0.732185 0.732367 0.732665
0.522166 0.523408 0.524504
0.611214 0.613680 0.614789
0.626169 0.622721 0.624224
0.701400 0.703030 0.703976
0.596376 0.617926 0.623647
0.728976 0.734560 0.729252
0.595841 0.596836 0.594663
0.684588 0.686082 0.685844
0.495580 0.489226 0.488675
0.537329 0.543605 0.543445
0.744079 0.746248 0.742390
0.519569 0.520867 0.523090
0.573907 0.572222 0.574129
0.649051 0.650679 0.672523
0.354057 0.360210 0.363721
0.591416 0.592297 0.591157
0.652572 0.663052 0.669938
0.612493 0.613302 0.613006
0.381221 0.380021 0.383611
0.592811 0.592922 0.592573
0.598382 0.595994 0.598527
0.619454 0.619407 0.622534
0.742314 0.747498 0.772445
0.559987 0.568323 0.579912
0.669250 0.667976 0.674927
0.360820 0.362869 0.360756
0.520931 0.524535 0.524858
0.582615 0.583034 0.584124
0.712405 0.699854 0.701137
0.614479 0.617513 0.618357
0.674886 0.675095 0.670896
0.688945 0.689831 0.689935
0.678785 0.679227 0.672131
0.526970 0.528362 0.536616
0.573121 0.572715 0.572398
0.827420 0.826692 0.826457
0.420135 0.420679 0.420694
0.851191 0.850429 0.850089
0.642839 0.652616 0.657432
0.534762 0.536324 0.534669
0.639606 0.627174 0.634173
0.702260 0.703738 0.708645
0.964624 0.968092 0.970275
0.700060 0.705908 0.707360
0.783824 0.767314 0.769154
0.631344 0.629213 0.629220
0.674401 0.672973 0.670792
0.550517 0.550409 0.557035
0.697191 0.695410 0.695208
0.638062 0.639935 0.641551
0.613737 0.623632 0.626011
0.583471 0.580439 0.579181
0.563320 0.587136 0.582651
0.673714 0.668950 0.671659
0.406601 0.451553 0.451989
0.414658 0.413808 0.413753
0.840663 0.853499 0.858587
0.547332 0.547666 0.550243
0.692488 0.690354 0.691463
0.601190 0.601749 0.600544
0.573229 0.573153 0.572823
0.491339 0.493008 0.495459
0.594312 0.588406 0.586795
0.553213 0.552522 0.565328
0.675914 0.677567 0.675572
0.548595 0.546515 0.545103
0.609951 0.616535 0.615577
0.743812 0.742782 0.756061
0.620814 0.626891 0.627391
0.638216 0.638132 0.636962
0.592004 0.592474 0.597962
0.582318 0.582065 0.583729
0.584001 0.586184 0.583546
0.697832 0.700898 0.713787
0.588923 0.598052 0.602438
0.702722 0.699128 0.699417
0.613837 0.611938 0.611653
0.642300 0.641023 0.643592
0.649053 0.632320 0.632550
0.571862 0.573161 0.575441
0.645797 0.648709 0.642994
0.435707 0.434248 0.434344
0.646010 0.646399 0.643163
0.638381 0.638939 0.643517
0.600002 0.602158 0.602285
0.553391 0.549259 0.545736
0.585224 0.580236 0.578790
0.619238 0.616664 0.615620
0.548880 0.551098 0.553294
0.783916 0.774415 0.773976
0.558731 0.558562 0.561387
0.567791 0.565766 0.571245
0.873380 0.870243 0.868536
0.637499 0.634873 0.633620
0.588253 0.612444 0.614199
0.593786 0.594233 0.588235
0.757448 0.760783 0.761164
0.648701 0.644100 0.646667
0.662374 0.662233 0.658143
0.601605 0.599736 0.598391
0.647991 0.652896 0.654709
0.605551 0.602702 0.602964
0.502362 0.503782 0.505095
0.594115 0.593430 0.575416
0.572348 0.579483 0.575020
0.564915 0.570522 0.568117
0.518657 0.517619 0.517332
0.703188 0.704023 0.707046
0.595790 0.610279 0.613281
0.543844 0.550694 0.550128
0.483393 0.486235 0.486030
0.723239 0.723788 0.725769
0.599379 0.598151 0.597998
0.628784 0.637079 0.638988
0.696815 0.695899 0.695006
0.899917 0.903145 0.905447
0.553180 0.550496 0.547809
0.568931 0.568642 0.567661
0.699735 0.702707 0.704750
0.651748 0.649153 0.645118
0.557226 0.564978 0.595529
0.671147 0.682645 0.683750
0.741003 0.747527 0.748095
0.505464 0.503368 0.502325
0.644786 0.643488 0.642132
0.628682 0.627209 0.630265
0.692762 0.706308 0.706357
0.613302 0.613006 0.593964
0.519218 0.522060 0.528199
0.713102 0.713313 0.711871
0.543668 0.546200 0.545767
0.995636 0.991759 0.984034
0.727672 0.718276 0.720038
0.715843 0.718516 0.718404
0.544356 0.552266 0.563516
0.581997 0.591310 0.598533
0.571584 0.572919 0.575071
0.562047 0.562325 0.566754
0.744473 0.746567 0.740605
0.729728 0.729417 0.722938
0.588667 0.589834 0.591335
0.564510 0.563631 0.562268
0.547880 0.546287 0.549701
0.613637 0.609823 0.599347
0.654029 0.651983 0.654935
0.632528 0.635506 0.639561
0.700729 0.697518 0.698361
0.555321 0.555151 0.550872
0.594050 0.628083 0.632322
0.576536 0.570845 0.572650
0.561691 0.565960 0.568932
0.680203 0.679531 0.678581
0.507124 0.507003 0.506547
0.581162 0.580373 0.579369
0.564336 0.559586 0.562540
0.629261 0.628172 0.629134
0.732150 0.729788 0.731794
0.715198 0.715580 0.713254
0.591060 0.592810 0.593338
0.631486 0.651427 0.657582
0.517827 0.517966 0.514689
0.623883 0.617347 0.611763
0.984917 0.989227 0.988733
0.542047 0.547552 0.544793
0.744145 0.741777 0.756082
0.503607 0.508265 0.518052
0.945471 0.942085 0.941160
0.556429 0.556210 0.553667
0.768781 0.768511 0.767234
0.617128 0.614070 0.613273
0.504460 0.502264 0.503767
0.607590 0.603361 0.601072
0.384820 0.382466 0.377545
0.607478 0.608081 0.605451
0.653620 0.646717 0.643162
0.376131 0.379254 0.381248
0.688132 0.695610 0.697949
0.604049 0.603232 0.603625
0.590657 0.589008 0.588961
0.625922 0.628893 0.629147
0.571848 0.568818 0.567708
0.556486 0.555610 0.558061
0.547855 0.546529 0.547992
0.563394 0.564187 0.566325
0.707379 0.724496 0.723541
0.608978 0.611573 0.621075
0.675873 0.677821 0.685552
0.450467 0.451446 0.452597
0.621491 0.623452 0.623350
0.364478 0.366587 0.368192
0.584266 0.581116 0.579602
0.656726 0.658662 0.659366
0.507011 0.505045 0.504990
0.607440 0.612354 0.617359
0.619123 0.619178 0.627763
0.625956 0.626236 0.621550
0.657032 0.663252 0.666919
0.616243 0.620999 0.621780
0.438017 0.435259 0.432205
0.641180 0.639338 0.626944
0.638565 0.638040 0.638153
0.632418 0.631199 0.626124
0.582980 0.595477 0.599065
0.684941 0.677992 0.668857
0.656602 0.655092 0.641009
0.654628 0.653882 0.651416
0.586123 0.588038 0.586443
0.604275 0.600575 0.599463
0.670766 0.665513 0.666145
0.510175 0.511406 0.512797
0.632269 0.632528 0.635506
0.525414 0.529670 0.526988
0.619301 0.625221 0.627068
0.661794 0.662690 0.657634
0.781787 0.777774 0.779005
0.676581 0.676882 0.680286
0.631275 0.625952 0.626769
0.577689 0.574566 0.576876
0.773588 0.764763 0.764021
0.993571 0.995613 0.995741
0.519695 0.520771 0.519653
0.623885 0.627082 0.627471
0.628296 0.627466 0.614219
0.595735 0.595958 0.597458
0.589184 0.584708 0.567851
0.566965 0.566516 0.574107
0.601300 0.599875 0.601757
0.595785 0.594208 0.591557
0.554232 0.554793 0.548500
0.923484 0.917915 0.948217
0.492749 0.492803 0.496062
0.661039 0.665777 0.697321
0.642878 0.647451 0.647705
0.885389 0.883184 0.877219
0.626698 0.626926 0.630455
0.702179 0.707341 0.704899
0.716811 0.711590 0.711720
0.614656 0.612967 0.613490
0.664024 0.680162 0.682527
0.829530 0.831849 0.832251
0.596326 0.593966 0.592306
0.525655 0.524907 0.522857
0.602905 0.597588 0.591657
0.707802 0.724326 0.723855
0.583429 0.575610 0.570333
0.685855 0.678877 0.676950
0.532775 0.537280 0.544934
0.683013 0.684095 0.682174
0.676185 0.673724 0.671004
0.578910 0.581616 0.590768
0.723011 0.726491 0.720412
0.439634 0.409576 0.408723
0.513819 0.517952 0.528427
0.631564 0.629609 0.629677
0.809013 0.809530 0.807847
0.677392 0.689759 0.688570
0.981176 0.989035 0.988465
0.473977 0.471137 0.471623
0.405900 0.406669 0.406746
0.515383 0.520979 0.514844
0.782743 0.775276 0.777886
0.755578 0.751424 0.747789
0.617550 0.614674 0.614417
0.514236 0.515065 0.515446
0.363235 0.350800 0.352781
0.596256 0.599638 0.611691
0.571245 0.575688 0.576258
0.565550 0.565901 0.566806
0.576937 0.577695 0.584730
0.697102 0.699396 0.698763
0.572947 0.574787 0.574836
0.670944 0.674298 0.674484
0.740919 0.748541 0.749018
0.616774 0.624291 0.627041
0.614010 0.615195 0.612191
0.576967 0.571872 0.570548
0.534514 0.542044 0.542816
0.655112 0.655470 0.664211
0.690145 0.695049 0.692998
0.620550 0.619929 0.619306
0.585694 0.585172 0.584201
0.722521 0.726117 0.724188
0.695388 0.697227 0.702094
0.575769 0.571245 0.571528
0.613214 0.615689 0.617564
0.581063 0.589339 0.590832
0.491446 0.490992 0.495498
0.545526 0.537183 0.534355
0.493376 0.493065 0.494042
0.670115 0.659700 0.658195
0.481146 0.485568 0.486902
0.545347 0.545327 0.547631
0.937963 0.943622 0.933439
0.598799 0.598907 0.599010
0.474282 0.472629 0.472741
0.676216 0.682488 0.685862
0.570134 0.570810 0.570877
0.381801 0.381913 0.381476
0.657475 0.659639 0.658127
0.438555 0.439117 0.441254
0.612607 0.614485 0.614614
0.640111 0.642245 0.641481
0.588918 0.590175 0.596672
0.719910 0.721275 0.724343
0.514426 0.515178 0.514059
0.705776 0.709528 0.725267
0.575490 0.571964 0.580676
0.603892 0.601126 0.598434
0.621293 0.621781 0.620988
0.698966 0.700175 0.699471
0.609125 0.602992 0.594423
0.738629 0.736500 0.733890
0.681180 0.680914 0.681853
0.603032 0.600320 0.599054
0.704728 0.705861 0.704943
0.604231 0.604235 0.600802
0.566181 0.561846 0.560679
0.636217 0.629723 0.631252
0.529258 0.532145 0.553816
0.615726 0.616291 0.625103
0.728451 0.735402 0.738390
0.590106 0.582751 0.584081
0.651416 0.636085 0.640768
0.594411 0.590173 0.585510
0.528743 0.527194 0.527494
0.566236 0.573283 0.573626
0.723344 0.714018 0.710391
0.432742 0.432638 0.430233
0.998816 0.998879 0.992512
0.555225 0.554602 0.553778
0.544229 0.543310 0.540252
0.649843 0.632011 0.628064
0.528826 0.527058 0.527647
0.649665 0.650805 0.652355
0.521450 0.520829 0.517871
0.649405 0.649172 0.642346
0.413766 0.414575 0.414332
0.514983 0.524320 0.526305
0.598072 0.591454 0.590197
0.566715 0.561957 0.558304
0.415309 0.414169 0.415529
0.869994 0.871118 0.871424
0.383339 0.383975 0.384530
0.597789 0.597807 0.596312
0.683512 0.683655 0.670662
0.620656 0.625761 0.629021
0.670847 0.662300 0.663441
0.594765 0.592811 0.592922
0.512176 0.516096 0.516836
0.382868 0.382810 0.383054
0.710050 0.716391 0.716601
0.419122 0.420056 0.419913
0.435971 0.436793 0.435924
0.474022 0.471119 0.471856
0.594918 0.591961 0.590242
0.627796 0.626804 0.627708
0.576795 0.573765 0.565511
0.625193 0.629459 0.639303
0.554559 0.555284 0.553836
0.591228 0.592999 0.599867
0.384180 0.383575 0.381668
0.525175 0.526952 0.530723
0.565145 0.559941 0.551137
0.603271 0.601652 0.611869
0.559726 0.563997 0.563045
0.602510 0.598724 0.598773
0.575446 0.574174 0.573529
0.476796 0.479812 0.480864
0.697554 0.702933 0.705118
0.526850 0.528701 0.532963
0.627053 0.626744 0.629984
0.637238 0.638403 0.638583
0.575995 0.569460 0.569364
0.876315 0.874234 0.874014
0.609379 0.609497 0.605710
0.583392 0.581381 0.581367
0.511873 0.513658 0.506813
0.759117 0.759655 0.757807
0.709983 0.693378 0.690766
0.475111 0.476503 0.479745
0.843326 0.846093 0.847720
0.593329 0.590888 0.589676
0.576695 0.573855 0.573581
0.667983 0.670229 0.670509
0.608023 0.608489 0.606557
0.605013 0.592719 0.593941
0.558303 0.550829 0.547717
0.863075 0.883660 0.883096
0.850983 0.862545 0.856321
0.574937 0.577748 0.582188
0.589553 0.587779 0.586038
0.739661 0.739410 0.734929
0.618957 0.624385 0.633270
0.737805 0.735703 0.735444
0.551828 0.547555 0.547177
0.609772 0.617932 0.617411
0.517348 0.516970 0.516615
0.604125 0.644237 0.639945
0.604569 0.600552 0.594906
0.414111 0.415659 0.420231
0.383655 0.384442 0.385512
0.624439 0.616545 0.615763
0.558337 0.567790 0.567170
0.571490 0.570440 0.565235
0.571457 0.573519 0.570423
0.479182 0.478970 0.483007
0.873500 0.872642 0.873190
0.674410 0.678569 0.678121
0.591357 0.591862 0.595007
0.729030 0.725941 0.719400
0.596806 0.596239 0.595299
0.354820 0.354362 0.353773
0.691449 0.678491 0.677008
0.533446 0.531274 0.531577
0.554180 0.554069 0.552845
0.761188 0.767992 0.769375
0.688570 0.689920 0.693565
0.591908 0.592879 0.593845
0.597445 0.592911 0.588680
0.367707 0.361463 0.361875
0.739797 0.726845 0.724117
0.656152 0.661951 0.666126
0.557599 0.555752 0.542061
0.561251 0.560053 0.560055
0.707563 0.707992 0.713051
0.640864 0.640827 0.640562
0.561875 0.559068 0.558871
0.593749 0.590775 0.591328
0.402092 0.400762 0.407267
0.603794 0.601709 0.591848
0.561721 0.559468 0.563522
0.600749 0.602251 0.605176
0.588956 0.598699 0.562215
0.507878 0.511715 0.514503
0.666576 0.663893 0.666609
0.514018 0.515263 0.515383
0.683083 0.677459 0.677692
0.568596 0.566810 0.555078
0.861321 0.835028 0.837968
0.429854 0.429665 0.432684
0.558152 0.564516 0.565753
0.524370 0.522027 0.520640
0.594211 0.599147 0.594581
0.606890 0.609190 0.607051
0.636739 0.639242 0.638091
0.533037 0.533369 0.536342
0.612967 0.613490 0.610263
0.710318 0.709727 0.712635
0.716917 0.717594 0.718042
0.739277 0.738791 0.739985
0.622779 0.626553 0.633523
0.595562 0.592338 0.602422
0.693906 0.692544 0.705280
0.626056 0.631874 0.639738
0.554182 0.554206 0.554431
0.532253 0.532435 0.533546
0.714523 0.704526 0.701339
0.723339 0.721026 0.725459
0.552100 0.549872 0.551650
0.501793 0.496518 0.493008
0.541700 0.542305 0.544663
0.574434 0.569118 0.569777
0.481934 0.481857 0.484747
0.515127 0.515618 0.513964
0.673724 0.671004 0.661433
0.764161 0.763870 0.752641
0.693281 0.695954 0.695867
0.656984 0.682682 0.682148
0.560584 0.585092 0.582661
0.659807 0.651695 0.648174
0.472180 0.475200 0.473023
0.885345 0.898349 0.900427
0.602958 0.603983 0.607107
0.764261 0.758258 0.759120
0.545293 0.556166 0.557093
0.601317 0.614725 0.616674
0.582476 0.588527 0.588779
0.594030 0.594042 0.592407
0.835005 0.829737 0.828251
0.513078 0.517316 0.517799
0.652047 0.665335 0.669058
0.598909 0.596465 0.593994
0.561176 0.557172 0.552120
0.687666 0.687642 0.689957
0.513271 0.509612 0.508198
0.977802 0.975372 0.976246
0.638081 0.636075 0.634578
0.598464 0.599606 0.601447
0.592685 0.588319 0.590016
0.615004 0.615194 0.617934
0.577936 0.581328 0.583242
0.617058 0.614861 0.613173
0.410204 0.409315 0.410608
0.546699 0.556614 0.556491
0.566186 0.565849 0.573194
0.436287 0.433288 0.431681
0.514026 0.512107 0.510633
0.566388 0.563993 0.564571
0.669761 0.671061 0.674300
0.676728 0.671281 0.665161
0.561753 0.560135 0.556728
0.591158 0.592699 0.591413
0.692796 0.694398 0.706598
0.582962 0.581888 0.584704
0.580084 0.581219 0.584244
0.528377 0.529488 0.529995
0.578137 0.575272 0.575570
0.726379 0.728514 0.728914
0.620737 0.621173 0.622265
0.549894 0.555816 0.557719
0.604213 0.611284 0.610854
0.505042 0.505143 0.502608
0.564065 0.571114 0.570764
0.756626 0.753873 0.742934
0.681224 0.678866 0.687278
0.482901 0.483516 0.483182
0.414256 0.415878 0.415372
0.611315 0.603666 0.604221
0.438234 0.439378 0.437883
0.664401 0.668397 0.668850
0.575785 0.579593 0.584526
0.492504 0.492082 0.493831
0.876852 0.877531 0.878116
0.631746 0.630034 0.637195
0.501264 0.500577 0.503466
0.509981 0.506238 0.508140
0.382445 0.382963 0.382130
0.486020 0.477967 0.477559
0.715524 0.711207 0.708962
0.627533 0.626145 0.627610
0.546092 0.548003 0.550323
0.921873 0.922781 0.920618
0.590128 0.593203 0.591978
0.588861 0.592028 0.590495
0.597957 0.601800 0.599593
0.616095 0.620056 0.628445
0.598434 0.597076 0.597888
0.541990 0.547938 0.557050
0.384811 0.386948 0.381015
0.389416 0.392436 0.390203
0.827864 0.821449 0.823773
0.557543 0.560626 0.563864
0.556853 0.555806 0.552389
0.806238 0.805794 0.806942
0.573540 0.571918 0.571222
0.649545 0.649101 0.648254
0.377248 0.380534 0.381302
0.568551 0.568959 0.570108
0.620884 0.620918 0.616217
0.603430 0.604867 0.604679
0.569922 0.571597 0.570642
0.602775 0.586512 0.582298
0.580869 0.583614 0.582777
0.611697 0.602172 0.597921
0.453980 0.452398 0.452988
0.410916 0.413738 0.418497
0.508158 0.520682 0.522739
0.555068 0.553866 0.549816
0.576371 0.574122 0.570668
0.623288 0.626972 0.627125
0.621781 0.620988 0.620171
0.375042 0.375943 0.369168
0.633099 0.632561 0.623736
0.655077 0.656211 0.665120
0.569732 0.569725 0.580380
0.585809 0.587913 0.597791
0.491522 0.492442 0.496157
0.578159 0.578748 0.579758
0.685949 0.683630 0.679080
0.467123 0.467151 0.465688
0.460800 0.463330 0.469052
0.589430 0.588594 0.585326
0.604169 0.602146 0.596642
0.582341 0.587876 0.587047
0.990923 0.998923 0.996404
0.632304 0.632398 0.630458
0.684558 0.697696 0.696928
0.595796 0.593768 0.591280
0.367423 0.399488 0.401021
0.514898 0.517437 0.514901
0.770732 0.765565 0.765497
0.692190 0.692871 0.692694
0.653449 0.650511 0.637108
0.618196 0.614005 0.616192
0.522816 0.531841 0.535708
0.644631 0.644396 0.642470
0.606944 0.609890 0.617253
0.693961 0.692582 0.685962
0.590477 0.588499 0.584713
0.586610 0.591759 0.590024
0.589226 0.594827 0.601328
0.385609 0.387563 0.407324
0.723209 0.724240 0.724508
0.586508 0.582214 0.581521
0.501655 0.503108 0.508824
0.592926 0.590648 0.589216
0.561219 0.561433 0.559378
0.531887 0.545017 0.541231
0.503157 0.503761 0.503180
0.680088 0.672109 0.670754
0.417106 0.420609 0.418361
0.571705 0.590206 0.579553
0.571690 0.571623 0.569869
0.943891 0.936293 0.930357
0.420914 0.420088 0.418646
0.805905 0.803454 0.803475
0.583474 0.580576 0.579521
0.565235 0.567793 0.564701
0.540346 0.543841 0.538023
0.522998 0.521928 0.533574
0.712544 0.713970 0.712008
0.567023 0.561781 0.556540
0.626721 0.625288 0.621320
0.570909 0.560925 0.566117
0.619075 0.603132 0.598273
0.642402 0.636720 0.635711
0.634478 0.639109 0.639643
0.544616 0.550669 0.551553
0.766743 0.770491 0.772269
0.645268 0.650701 0.668099
0.585237 0.582262 0.581787
0.596059 0.595733 0.592483
0.639077 0.632116 0.628593
0.382816 0.378991 0.379534
0.575140 0.575404 0.575652
0.517133 0.516982 0.518111
0.637216 0.635748 0.632920
0.360996 0.363046 0.361750
0.637670 0.635544 0.639363
0.575961 0.574890 0.575665
0.734479 0.733317 0.734287
0.643632 0.644790 0.644973
0.511397 0.512092 0.513702
0.566274 0.571328 0.580133
0.584504 0.583126 0.580888
0.623243 0.625810 0.626330
0.680290 0.678891 0.678783
0.829834 0.829886 0.831136
0.813331 0.813872 0.811841
0.365109 0.363235 0.350800
0.510536 0.511311 0.509285
0.559004 0.558711 0.560187
0.564448 0.564245 0.562719
0.734179 0.737724 0.726766
0.614047 0.601339 0.592597
0.589774 0.587831 0.587403
0.567974 0.581182 0.581061
0.453019 0.452266 0.453407
0.389810 0.384372 0.384580
0.643216 0.632529 0.632252
0.719009 0.720978 0.699431
0.736856 0.732577 0.740473
0.535957 0.536006 0.539956
0.557228 0.555040 0.552404
0.726949 0.718344 0.718430
0.707046 0.717257 0.718443
0.628541 0.631311 0.640460
0.628417 0.628247 0.625558
0.440802 0.441400 0.443096
0.924167 0.925987 0.918696
0.460302 0.455368 0.453905
0.982718 0.980324 0.980359
0.519836 0.512687 0.510439
0.632011 0.628064 0.624406
0.605181 0.608556 0.603306
0.694915 0.693664 0.693093
0.569041 0.570328 0.566465
0.545919 0.538288 0.533512
0.519175 0.516016 0.515696
0.629266 0.639752 0.641997
0.696332 0.694806 0.695067
0.583948 0.584566 0.583819
0.436364 0.437408 0.437619
0.562174 0.560989 0.562808
0.881381 0.877276 0.869739
0.592924 0.595842 0.596680
0.566376 0.565723 0.566918
0.613625 0.613593 0.619353
0.578718 0.577566 0.574434
0.622044 0.622855 0.627682
0.428828 0.433767 0.437370
0.583318 0.585224 0.586161
0.687353 0.672368 0.667663
0.390738 0.389163 0.388254
0.429113 0.426624 0.428709
0.674708 0.681198 0.683255
0.588868 0.590506 0.588625
0.643488 0.642132 0.650663
0.690945 0.692550 0.696327
0.504917 0.492764 0.492977
0.559984 0.564737 0.563882
0.414710 0.419258 0.418799
0.510443 0.505052 0.505728
0.567411 0.553409 0.551211
0.600900 0.597545 0.597381
0.561104 0.567180 0.571534
0.567503 0.569860 0.574855
0.611335 0.611976 0.612831
0.583301 0.584998 0.583541
0.564393 0.563526 0.563902
0.388299 0.385868 0.383633
0.587326 0.575581 0.573651
0.702497 0.698268 0.703386
0.685899 0.685352 0.683209
0.643332 0.667184 0.668270
0.364650 0.367092 0.370215
0.590974 0.593158 0.596804
0.792819 0.792201 0.791943
0.512407 0.522043 0.528479
0.578196 0.571355 0.568314
0.739229 0.747552 0.743179
0.618899 0.619929 0.621192
0.749284 0.746979 0.745164
0.694704 0.693791 0.693109
0.677774 0.672021 0.674762
0.559720 0.564309 0.565518
0.896609 0.897884 0.895716
0.578076 0.568533 0.570430
0.521356 0.523304 0.528695
0.540761 0.539520 0.539148
0.545896 0.546310 0.544361
0.613053 0.607397 0.609311
0.926064 0.921019 0.922604
0.606671 0.606263 0.607719
0.603556 0.601577 0.604942
0.923336 0.920058 0.923862
0.593185 0.591894 0.591766
0.430704 0.431810 0.433285
0.542780 0.542989 0.542937
0.596642 0.609221 0.610725
0.430299 0.428539 0.427040
0.603060 0.598846 0.598836
0.575603 0.574559 0.574682
0.893542 0.881381 0.877276
0.443351 0.444230 0.444417
0.643444 0.647132 0.645142
0.501957 0.499877 0.496891
0.688261 0.683903 0.690336
0.688811 0.692286 0.691195
0.874506 0.872409 0.844888
0.692802 0.696930 0.703736
0.639303 0.656152 0.661951
0.587412 0.589783 0.596173
0.609091 0.601940 0.603378
0.668889 0.669772 0.676141
0.542436 0.531000 0.532170
0.540607 0.544009 0.544294
0.373603 0.372098 0.372704
0.517951 0.515963 0.513802
0.575990 0.575080 0.575564
0.662286 0.662093 0.658521
0.433767 0.437370 0.436502
0.579692 0.578185 0.584214
0.634033 0.633805 0.631578
0.574876 0.574418 0.566103
0.404306 0.409586 0.411915
0.748034 0.763586 0.762513
0.587789 0.582675 0.584695
0.411763 0.412189 0.412634
0.628062 0.629950 0.632557
0.365277 0.364868 0.364457
0.884831 0.886908 0.885641
0.415300 0.413260 0.412373
0.529687 0.529417 0.528557
0.409758 0.409533 0.411205
0.542908 0.542006 0.538412
0.578657 0.573388 0.569744
0.562662 0.562142 0.561383
0.838514 0.835218 0.832002
0.672625 0.671671 0.671494
0.622315 0.623721 0.630815
0.417865 0.420442 0.421267
0.515008 0.514536 0.514817
0.667505 0.670651 0.661954
0.726263 0.727336 0.726302
0.603146 0.597187 0.591934
0.545701 0.545880 0.545691
0.690859 0.689941 0.687570
0.618502 0.620161 0.622158
0.655470 0.647945 0.640493
0.575642 0.574661 0.574941
