0.846029 0.843684 0.840019
0.669166 0.671285 0.672153
0.824307 0.823759 0.826316
0.678461 0.674899 0.677107
0.632611 0.628805 0.631533
0.779670 0.775815 0.773289
0.893352 0.890788 0.885020
0.602509 0.600229 0.598206
0.732158 0.739283 0.745269
0.692768 0.689360 0.686160
0.762564 0.749366 0.748442
0.685616 0.684044 0.680560
0.657005 0.647983 0.648084
0.729000 0.733000 0.746133
0.692864 0.694277 0.694473
0.600919 0.600864 0.600750
0.593361 0.594311 0.592660
0.812583 0.814650 0.819030
0.834005 0.830902 0.829647
0.668874 0.666607 0.663955
0.634385 0.637599 0.631673
0.708933 0.702077 0.706425
0.713584 0.723023 0.720008
0.759031 0.773793 0.760820
0.620464 0.624902 0.632042
0.906617 0.904729 0.908044
0.809817 0.807958 0.810749
0.732490 0.730477 0.727042
0.681380 0.685610 0.687055
0.531003 0.529697 0.530037
0.807113 0.809726 0.808078
0.736787 0.733971 0.732149
0.659098 0.661291 0.665578
0.792175 0.788508 0.808706
0.755660 0.754631 0.750825
0.825908 0.826075 0.825130
0.761914 0.762698 0.764482
0.890328 0.888691 0.868140
0.706209 0.695846 0.693820
0.781665 0.781110 0.782593
0.816777 0.814533 0.807642
0.751612 0.751939 0.751768
0.896408 0.891814 0.882235
0.686658 0.689472 0.690964
0.658869 0.667729 0.669803
0.838194 0.842202 0.843734
0.716809 0.715115 0.695262
0.658951 0.663501 0.665311
0.720031 0.723319 0.727340
0.678151 0.678511 0.682752
0.721255 0.721647 0.713418
0.732279 0.729850 0.730021
0.803426 0.803424 0.807591
0.728711 0.730970 0.740348
0.758354 0.758178 0.756964
0.799256 0.787611 0.788291
0.668555 0.667801 0.665437
0.789134 0.790951 0.791694
0.728577 0.728435 0.727990
0.713655 0.715035 0.715373
0.630452 0.632567 0.636896
0.665407 0.660910 0.660889
0.757700 0.760725 0.760478
0.710378 0.708067 0.704006
0.726707 0.716989 0.716526
0.621279 0.616422 0.616353
0.830748 0.836589 0.834505
0.677476 0.676102 0.675380
0.779422 0.779526 0.777551
0.819934 0.828552 0.829335
0.770145 0.758714 0.753550
0.544019 0.538356 0.541193
0.713131 0.714167 0.709723
0.811732 0.814272 0.803561
0.760079 0.756901 0.754721
0.631436 0.631065 0.623337
0.693830 0.690947 0.679269
0.708796 0.716157 0.714584
0.829105 0.830717 0.831689
0.926581 0.922971 0.921045
0.788769 0.790191 0.791225
0.767423 0.766275 0.765716
0.751647 0.756564 0.759127
0.699988 0.699040 0.701091
0.652434 0.658233 0.654851
0.790279 0.790996 0.792213
0.737343 0.738916 0.741759
0.733966 0.729625 0.732995
0.677515 0.677081 0.686778
0.834749 0.845575 0.847009
0.832209 0.820460 0.818622
0.834757 0.831358 0.832642
0.711064 0.710565 0.708160
0.654741 0.649160 0.659291
0.695494 0.692127 0.694367
0.572651 0.578962 0.578000
0.713009 0.715941 0.714244
0.670773 0.669036 0.671587
0.697897 0.697665 0.694196
0.610760 0.610832 0.615219
0.720200 0.722464 0.728407
0.793578 0.794473 0.792450
0.902620 0.904307 0.921350
0.715806 0.714933 0.716373
0.658473 0.660147 0.658926
0.850886 0.839652 0.838942
0.775648 0.774815 0.786110
0.724514 0.726199 0.728090
0.810272 0.810490 0.804412
0.709568 0.711594 0.706416
0.567009 0.567252 0.567843
0.657843 0.673174 0.673456
0.866314 0.868252 0.880689
0.799395 0.801329 0.786425
0.632073 0.629008 0.628568
0.724383 0.691383 0.697364
0.747931 0.743901 0.776788
0.744013 0.742465 0.742085
0.681222 0.672173 0.664122
0.661498 0.673095 0.672158
0.615000 0.623307 0.638603
0.822168 0.825107 0.823625
0.862703 0.865620 0.866347
0.738006 0.730961 0.732588
0.742190 0.735705 0.740950
0.801897 0.798281 0.800532
0.808710 0.812856 0.816013
0.901038 0.899932 0.894984
0.611472 0.610048 0.615511
0.724078 0.728140 0.723145
0.911651 0.908137 0.906935
0.664706 0.662933 0.662692
0.653679 0.647341 0.649465
0.700269 0.699616 0.699518
0.624628 0.623556 0.624859
0.676981 0.668862 0.684451
0.809765 0.809294 0.810558
0.716109 0.726755 0.729332
0.723992 0.722672 0.708399
0.489557 0.491940 0.497019
0.804359 0.805220 0.804735
0.585822 0.580690 0.588063
0.706689 0.707454 0.705977
0.675114 0.672769 0.662187
0.764500 0.771295 0.767429
0.776629 0.775652 0.775109
0.633766 0.634408 0.635661
0.728620 0.730644 0.729968
0.967599 0.975136 0.980699
0.716274 0.715235 0.694974
0.637679 0.640319 0.642161
0.841428 0.833721 0.832051
0.568898 0.568657 0.561146
0.604671 0.607024 0.609345
0.798798 0.788894 0.764779
0.656840 0.659035 0.660481
0.693660 0.692242 0.701210
0.652988 0.649272 0.649803
0.779895 0.783620 0.784293
0.691956 0.690950 0.694494
0.767021 0.770241 0.767754
0.635017 0.649786 0.657546
0.689671 0.690412 0.687019
0.634639 0.630571 0.632555
0.603701 0.604334 0.613353
0.853628 0.858482 0.872320
0.615531 0.611296 0.611072
0.718097 0.706752 0.695382
0.667544 0.668001 0.659810
0.728479 0.729205 0.742157
0.684585 0.681812 0.685814
0.652690 0.656281 0.667698
0.763188 0.759716 0.750375
0.601832 0.602464 0.604230
0.626731 0.620912 0.619761
0.908931 0.916720 0.913313
0.599638 0.594554 0.588320
0.877622 0.873767 0.872580
0.842570 0.835766 0.835347
0.564531 0.561122 0.559790
0.765900 0.768398 0.768711
0.646427 0.640755 0.637652
0.592186 0.588339 0.586585
0.850181 0.847912 0.846499
0.608161 0.611390 0.611929
0.717120 0.727555 0.734243
0.805753 0.799317 0.801624
0.643964 0.644574 0.644298
0.750481 0.757623 0.759913
0.606500 0.603283 0.600048
0.808804 0.808889 0.799984
0.911198 0.904040 0.909093
0.800557 0.795518 0.796975
0.802487 0.804789 0.805587
0.832362 0.839459 0.836390
0.869075 0.866393 0.863916
0.721028 0.725899 0.726111
0.685568 0.684340 0.684894
0.750065 0.761192 0.766328
0.572799 0.571920 0.573506
0.636343 0.636300 0.639125
0.893773 0.889042 0.889946
0.741111 0.744828 0.744959
0.800146 0.807241 0.810532
0.776289 0.786064 0.790503
0.757915 0.763822 0.762501
0.650153 0.702664 0.699518
0.698179 0.698656 0.697456
0.781078 0.779179 0.780819
0.657192 0.655742 0.646800
0.848804 0.842939 0.843085
0.850185 0.844474 0.841437
0.658049 0.656857 0.658787
0.834505 0.825944 0.826249
0.735941 0.739073 0.739387
0.746241 0.736787 0.733971
0.612224 0.606541 0.613023
0.742465 0.742085 0.750723
0.642593 0.632069 0.633781
0.668298 0.667665 0.672563
0.864002 0.875907 0.876687
0.630094 0.645798 0.657481
0.718037 0.721323 0.723342
0.665893 0.661081 0.624683
0.733491 0.733327 0.732898
0.732149 0.729728 0.728987
0.726515 0.727497 0.749888
0.831184 0.822271 0.818751
0.910299 0.912609 0.905698
0.794880 0.795500 0.796008
0.749366 0.748442 0.748478
0.849022 0.832869 0.833035
0.839816 0.841933 0.842992
0.656640 0.655001 0.657477
0.722248 0.727476 0.724429
0.795971 0.795335 0.797271
0.562772 0.566767 0.565883
0.645516 0.639561 0.634784
0.744162 0.740367 0.743262
0.786050 0.785619 0.780417
0.799651 0.801453 0.800049
0.871761 0.876710 0.880881
0.632160 0.632971 0.633066
0.720557 0.724120 0.727138
0.824147 0.827028 0.820159
0.667649 0.671508 0.670054
0.600872 0.600952 0.599633
0.645981 0.646930 0.651942
0.709040 0.700838 0.702934
0.652042 0.650798 0.651818
0.861356 0.861928 0.860592
0.827389 0.833231 0.835517
0.660526 0.654931 0.645544
0.622387 0.624389 0.625890
0.905010 0.912884 0.911579
0.648082 0.639435 0.633087
0.693692 0.692811 0.704029
0.801732 0.801811 0.804653
0.549891 0.561864 0.569912
0.683404 0.691230 0.690107
0.799355 0.801021 0.811710
0.764365 0.765380 0.762630
0.813710 0.816262 0.816849
0.827897 0.830547 0.831610
0.729620 0.726711 0.726303
0.750447 0.757724 0.757634
0.696548 0.698347 0.698035
0.811859 0.813942 0.803746
0.588633 0.587164 0.577746
0.657295 0.657623 0.659701
0.714943 0.717572 0.713360
0.745104 0.741823 0.733296
0.708472 0.702740 0.701328
0.798038 0.796767 0.796825
0.802685 0.800632 0.803180
0.880091 0.869877 0.862896
0.866078 0.865791 0.864687
0.565982 0.535607 0.536715
0.806258 0.809319 0.801526
0.835657 0.833121 0.835239
0.690945 0.695400 0.685967
0.857507 0.858792 0.887319
0.681627 0.669000 0.670266
0.612626 0.606595 0.610602
0.753079 0.752453 0.751373
0.794125 0.794438 0.794729
0.793776 0.795520 0.792517
0.757134 0.757287 0.756359
0.694344 0.691550 0.692763
0.737603 0.740599 0.741469
0.710720 0.709568 0.711594
0.681435 0.682506 0.687278
0.633570 0.632217 0.625488
0.801123 0.804830 0.805255
0.667514 0.663626 0.655799
0.833583 0.835646 0.836191
0.783244 0.766873 0.750168
0.651650 0.648815 0.648785
0.634784 0.642593 0.632069
0.772762 0.774556 0.769576
0.463285 0.465171 0.458589
0.819841 0.817068 0.821280
0.909389 0.918446 0.926360
0.717243 0.714399 0.714049
0.726135 0.723546 0.718757
0.630472 0.630116 0.636081
0.832716 0.828930 0.825880
0.624062 0.622598 0.636364
0.699316 0.697846 0.699110
0.802862 0.802414 0.806121
0.852206 0.841122 0.841221
0.633511 0.636854 0.641685
0.806841 0.808156 0.820520
0.727738 0.730853 0.735175
0.879159 0.872267 0.871751
0.647332 0.653284 0.656892
0.817716 0.830992 0.849361
0.604069 0.602944 0.604403
0.825950 0.814125 0.803362
0.570758 0.568815 0.568552
0.841485 0.840547 0.842397
0.709808 0.708294 0.712995
0.645723 0.645769 0.647469
0.891374 0.892109 0.886705
0.904754 0.913851 0.920106
0.590978 0.591402 0.589312
0.737129 0.744974 0.750607
0.751233 0.754788 0.759512
0.690752 0.693541 0.695917
0.632715 0.670394 0.679820
0.933004 0.926581 0.922971
0.791778 0.815968 0.817388
0.701446 0.698854 0.697464
0.731026 0.732521 0.724249
0.850775 0.836480 0.830475
0.681024 0.685016 0.684312
0.757566 0.751481 0.755606
0.623379 0.623548 0.625190
0.610887 0.616219 0.618322
0.653355 0.653602 0.652489
0.804085 0.805786 0.803008
0.788145 0.787999 0.789880
0.818788 0.818115 0.801604
0.761161 0.765267 0.776352
0.786642 0.802189 0.802669
0.842671 0.844620 0.844188
0.799689 0.789723 0.791062
0.705897 0.705740 0.714145
0.760920 0.755187 0.755451
0.698347 0.697503 0.694013
0.710160 0.710010 0.708249
0.602093 0.601187 0.599093
0.629733 0.633499 0.632081
0.728256 0.728479 0.729205
0.755684 0.757056 0.759196
0.665982 0.666994 0.662692
0.622105 0.619848 0.615221
0.830377 0.818563 0.818209
0.659243 0.660070 0.659467
0.835574 0.834202 0.843571
0.726969 0.726382 0.725465
0.878133 0.884129 0.889288
0.717048 0.720378 0.726144
0.777562 0.790195 0.791388
0.634375 0.637331 0.614186
0.706421 0.706160 0.697649
0.768711 0.760536 0.759531
0.845790 0.843568 0.841596
0.635415 0.631993 0.637039
0.749744 0.746468 0.740040
0.752188 0.750412 0.751129
0.843912 0.848460 0.860801
0.658041 0.655862 0.661910
0.846810 0.845908 0.844592
0.627641 0.627207 0.625047
0.710953 0.698369 0.701737
0.780051 0.780279 0.776898
0.657246 0.661066 0.664997
0.719133 0.722615 0.725616
0.726260 0.728257 0.726703
0.737742 0.737812 0.736057
0.836678 0.835303 0.834568
0.685449 0.688385 0.691964
0.660982 0.660644 0.669723
0.581448 0.579712 0.577513
0.818475 0.805387 0.799099
0.642306 0.643559 0.641191
0.773320 0.783568 0.783475
0.728315 0.722389 0.730562
0.755023 0.763392 0.765058
0.748129 0.742635 0.737893
0.640964 0.645327 0.650417
0.635506 0.630332 0.630393
0.806699 0.802053 0.798765
0.684696 0.682141 0.674380
0.747444 0.746963 0.747162
0.663060 0.665902 0.667326
0.746618 0.743683 0.750951
0.656238 0.658210 0.656029
0.730936 0.730518 0.719913
0.812266 0.819406 0.813495
0.688005 0.685103 0.677429
0.745254 0.735732 0.708192
0.700562 0.687017 0.688309
0.829140 0.826573 0.818744
0.845667 0.843937 0.828145
0.715248 0.713464 0.718370
0.648541 0.657306 0.659072
0.633052 0.630309 0.635300
0.831624 0.833832 0.835525
0.787107 0.792042 0.792090
0.719523 0.719278 0.718704
0.636161 0.631784 0.620972
0.628579 0.628702 0.622231
0.708786 0.709662 0.716597
0.769725 0.770249 0.755970
0.827460 0.817077 0.826652
0.759215 0.758135 0.758580
0.673293 0.675946 0.672325
0.694492 0.709901 0.711356
0.580532 0.587036 0.588368
0.856361 0.848449 0.846553
0.655696 0.654735 0.655247
0.660355 0.653479 0.654210
0.699419 0.700276 0.708658
0.749363 0.741783 0.747043
0.610487 0.611814 0.619210
0.840432 0.838340 0.836895
0.741432 0.730582 0.726431
0.805831 0.816900 0.815762
0.599227 0.603943 0.603904
0.796765 0.797296 0.797230
0.683798 0.691261 0.690826
0.658284 0.656195 0.653313
0.694315 0.694009 0.705816
0.790008 0.792356 0.796196
0.823759 0.826316 0.818031
0.627527 0.627235 0.629582
0.802745 0.799917 0.795719
0.805340 0.805666 0.808420
0.646048 0.646958 0.645315
0.545552 0.536253 0.533321
0.762974 0.762182 0.765546
0.849511 0.857458 0.840530
0.868891 0.903593 0.908722
0.688767 0.690279 0.687047
0.754927 0.751234 0.754449
0.758199 0.757563 0.767037
0.873004 0.871911 0.877427
0.566941 0.567155 0.566276
0.727800 0.725739 0.726052
0.588968 0.586461 0.577174
0.779713 0.782812 0.776070
0.583817 0.581114 0.583477
0.867794 0.869986 0.869129
0.879647 0.873186 0.872279
0.826796 0.830009 0.826686
0.647781 0.648320 0.649529
0.793451 0.795680 0.795355
0.686160 0.680653 0.676245
0.739488 0.737971 0.742330
0.593641 0.591053 0.591821
0.778200 0.781951 0.782347
0.717253 0.724117 0.725995
0.606490 0.607691 0.599778
0.858902 0.854955 0.858549
0.842486 0.844952 0.845280
0.646838 0.646280 0.648261
0.888082 0.886686 0.875831
0.722247 0.717075 0.714070
0.706707 0.707681 0.706867
0.615688 0.608935 0.597402
0.683644 0.675475 0.675432
0.714899 0.715436 0.718496
0.749600 0.749238 0.752511
0.640562 0.646503 0.637775
0.774271 0.769137 0.766368
0.761274 0.763207 0.762508
0.609047 0.609766 0.610101
0.699268 0.708382 0.717281
0.651724 0.661307 0.663265
0.718757 0.719628 0.718170
0.648139 0.648333 0.645963
0.774934 0.774646 0.770564
0.714503 0.702272 0.701585
0.646862 0.647228 0.644821
0.458931 0.460273 0.460422
0.766497 0.761666 0.761041
0.901706 0.902275 0.904240
0.724469 0.712581 0.709444
0.581878 0.598294 0.600972
0.560565 0.556281 0.544407
0.823846 0.823559 0.823183
0.804679 0.805996 0.805707
0.675727 0.676475 0.680232
0.863219 0.861718 0.860009
0.763038 0.763911 0.762850
0.654406 0.672255 0.674957
0.802577 0.805326 0.805004
0.720587 0.720253 0.714160
0.810164 0.837285 0.842801
0.776551 0.783208 0.786219
0.720979 0.724353 0.726087
0.629410 0.630571 0.624774
0.646787 0.647175 0.645651
0.692732 0.694037 0.690168
0.731902 0.738042 0.736471
0.779054 0.778538 0.782721
0.837176 0.844327 0.842335
0.865356 0.847961 0.857416
0.683400 0.683886 0.681769
0.750588 0.746182 0.737325
0.657858 0.647664 0.639627
0.683768 0.688755 0.716233
0.787296 0.800271 0.803958
0.799843 0.803187 0.794658
0.874470 0.889616 0.899775
0.863825 0.862822 0.862522
0.617965 0.597235 0.593999
0.718626 0.716776 0.716599
0.702486 0.703578 0.707643
0.806716 0.800751 0.797703
0.692356 0.692437 0.698732
0.576241 0.582424 0.589290
0.644504 0.637515 0.636059
0.854292 0.859367 0.851752
0.645783 0.643850 0.632554
0.650766 0.645909 0.643676
0.805549 0.811857 0.809474
0.633534 0.633918 0.629714
0.708203 0.704648 0.709122
0.859180 0.866078 0.865791
0.827327 0.829013 0.828945
0.714956 0.715003 0.715597
0.756358 0.755745 0.755171
0.821543 0.822967 0.832887
0.795284 0.789156 0.791303
0.844483 0.845511 0.843753
0.852845 0.857809 0.862301
0.665069 0.664942 0.666644
0.851534 0.868497 0.870315
0.787891 0.781597 0.776959
0.650309 0.646624 0.644727
0.737258 0.737334 0.736289
0.872804 0.871924 0.874470
0.648170 0.647832 0.647467
0.664205 0.665862 0.682894
0.800679 0.798717 0.791203
0.572440 0.572683 0.573379
0.734848 0.735209 0.736489
0.692199 0.692739 0.698811
0.929150 0.920211 0.917386
0.783001 0.784082 0.784207
0.732577 0.730133 0.728669
0.838648 0.839694 0.841846
0.608705 0.614849 0.617701
0.816163 0.818585 0.820219
0.683435 0.678748 0.676859
0.603113 0.612336 0.612481
0.679382 0.687354 0.686310
0.849504 0.842790 0.839880
0.653394 0.653925 0.652945
0.755297 0.771458 0.773248
0.847149 0.849154 0.846633
0.623986 0.625781 0.625669
0.693330 0.692787 0.693136
0.690291 0.690958 0.690794
0.654500 0.654270 0.652042
0.621621 0.620987 0.618388
0.754811 0.756341 0.760894
0.733930 0.738151 0.732918
0.707438 0.723928 0.720744
0.741335 0.751644 0.749724
0.718572 0.716058 0.728256
0.549532 0.551260 0.547904
0.798518 0.793147 0.785493
0.562036 0.568805 0.576601
0.556363 0.561671 0.557173
0.587336 0.578105 0.579209
0.839078 0.838704 0.851781
0.577132 0.579770 0.583371
0.602481 0.602403 0.601753
0.566276 0.566948 0.565973
0.689167 0.682998 0.689672
0.749019 0.749387 0.750596
0.730133 0.728669 0.727731
0.768466 0.752684 0.750950
0.765248 0.773722 0.776642
0.796655 0.795904 0.824738
0.790572 0.792397 0.776722
0.647141 0.641786 0.633732
0.727137 0.726943 0.727171
0.656906 0.653489 0.652185
0.651030 0.645502 0.647824
0.843989 0.837736 0.834444
0.851475 0.848061 0.838958
0.898556 0.903885 0.899080
0.788630 0.777091 0.779499
0.842343 0.842741 0.840283
0.649023 0.647997 0.652380
0.743304 0.739614 0.740277
0.777170 0.785083 0.770936
0.604057 0.603797 0.608705
0.663657 0.666572 0.667091
0.573296 0.576860 0.578609
0.796162 0.799580 0.801336
0.663062 0.664693 0.665708
0.663893 0.664854 0.663578
0.659957 0.647602 0.644866
0.693170 0.694465 0.692369
0.779018 0.779124 0.778256
0.787280 0.788145 0.788523
0.626728 0.625768 0.626268
0.768419 0.765658 0.771671
0.671893 0.672400 0.674407
0.843673 0.853303 0.857462
0.784783 0.785336 0.802929
0.747122 0.752448 0.752326
0.662692 0.662273 0.662390
0.676689 0.666309 0.659637
0.619022 0.612754 0.615606
0.689827 0.687190 0.686896
0.799717 0.801885 0.806841
0.880714 0.871637 0.872707
0.811130 0.810240 0.809765
0.794676 0.794684 0.824417
0.622738 0.626245 0.625860
0.785320 0.786675 0.769487
0.696914 0.663016 0.657045
0.772195 0.774269 0.764318
0.745985 0.743304 0.739614
0.732255 0.733169 0.744788
0.612877 0.617093 0.639100
0.680504 0.683372 0.681570
0.728137 0.732517 0.733960
0.623068 0.624232 0.624884
0.827474 0.831740 0.829714
0.873951 0.876309 0.870616
0.653151 0.648894 0.650578
0.566374 0.566010 0.573833
0.689549 0.687464 0.689606
0.823520 0.823763 0.821203
0.636151 0.640296 0.637465
0.770759 0.770702 0.776094
0.798908 0.808175 0.810077
0.645479 0.640677 0.636564
0.700905 0.702796 0.702912
0.945583 0.947447 0.945802
0.635524 0.637284 0.633730
0.834234 0.835386 0.835916
0.710640 0.712239 0.713296
0.841729 0.833773 0.832745
0.640042 0.627814 0.628676
0.687829 0.688660 0.699662
0.674420 0.668228 0.667807
0.692047 0.681532 0.683440
0.662816 0.666449 0.668806
0.835787 0.834551 0.840975
0.777388 0.784141 0.808031
0.770379 0.771993 0.774734
0.803283 0.802827 0.795775
0.661316 0.660668 0.662042
0.698239 0.697961 0.694494
0.707552 0.710687 0.713333
0.800105 0.798147 0.799872
0.571847 0.572705 0.573268
0.634495 0.634244 0.641956
0.842279 0.859941 0.875820
0.793356 0.793928 0.824375
0.657471 0.660104 0.659751
0.828930 0.825880 0.827518
0.631339 0.629042 0.630036
0.639299 0.624533 0.621572
0.709586 0.711218 0.709139
0.623751 0.623474 0.622950
0.661262 0.662288 0.663915
0.740991 0.739603 0.738362
0.670288 0.667119 0.667753
0.660821 0.661289 0.665523
0.671625 0.669622 0.669911
0.631578 0.632470 0.631590
0.661928 0.663732 0.666034
0.651189 0.647846 0.645215
0.687970 0.688164 0.690375
0.768938 0.762476 0.756276
0.684035 0.685787 0.681992
0.650195 0.654371 0.665638
0.719047 0.713519 0.712669
0.788995 0.799557 0.802393
0.665780 0.662873 0.658026
0.782964 0.759836 0.760079
0.837964 0.845589 0.839625
0.621975 0.622770 0.625960
0.649803 0.655020 0.654114
0.681174 0.672320 0.671268
0.624477 0.623883 0.624140
0.883105 0.883762 0.884695
0.849623 0.853262 0.866007
0.703332 0.700908 0.696467
0.879762 0.889528 0.870432
0.850767 0.836652 0.839665
0.755468 0.759430 0.762009
0.594425 0.594855 0.596198
0.732289 0.744892 0.751527
0.713062 0.708689 0.711735
0.765546 0.778629 0.778317
0.792310 0.804004 0.817980
0.738176 0.735594 0.739189
0.667933 0.671673 0.671017
0.653394 0.649398 0.636025
0.648084 0.647786 0.638848
0.678604 0.672387 0.664943
0.788020 0.791622 0.790142
0.782702 0.772313 0.760153
0.862808 0.849825 0.849583
0.845663 0.852740 0.855297
0.611741 0.615615 0.614624
0.668832 0.649025 0.644209
0.921696 0.930639 0.937178
0.951112 0.952188 0.952348
0.849090 0.837880 0.840108
0.716045 0.715092 0.714256
0.683806 0.681412 0.679430
0.859288 0.860926 0.856658
0.779370 0.781671 0.777306
0.858787 0.840514 0.841131
0.654527 0.653775 0.653246
0.720168 0.720031 0.723319
0.782629 0.774393 0.774125
0.735958 0.733841 0.732782
0.664943 0.672233 0.675777
0.722147 0.726647 0.731798
0.773497 0.772837 0.772525
0.769653 0.767703 0.773080
0.692072 0.691528 0.688842
0.649327 0.651191 0.651606
0.744790 0.740866 0.741936
0.683886 0.681769 0.684377
0.747849 0.753905 0.756428
0.535955 0.538028 0.539248
0.649122 0.651157 0.651059
0.623445 0.626048 0.619782
0.625084 0.630231 0.636287
0.705802 0.704724 0.701639
0.625047 0.624305 0.627496
0.707242 0.707318 0.707450
0.773024 0.766068 0.775448
0.687064 0.680720 0.670488
0.851909 0.846259 0.842581
0.643346 0.673897 0.682699
0.788541 0.792267 0.791560
0.602287 0.605171 0.605624
0.870616 0.864627 0.864174
0.703982 0.713061 0.715104
0.789919 0.811533 0.815379
0.782009 0.778745 0.773669
0.821953 0.822991 0.836898
0.688164 0.690375 0.688352
0.737812 0.736057 0.717072
0.892197 0.888277 0.889939
0.943777 0.945583 0.947447
0.769350 0.772380 0.775701
0.683965 0.676171 0.686174
0.710028 0.730466 0.748035
0.798899 0.799511 0.800154
0.918586 0.902280 0.900100
0.709240 0.699480 0.709043
0.837615 0.840936 0.840736
0.801885 0.806841 0.808156
0.545408 0.549021 0.550952
0.802353 0.805172 0.799733
0.648457 0.648665 0.642486
0.852913 0.853955 0.860779
0.622311 0.629746 0.634194
0.662571 0.665116 0.667028
0.590757 0.589218 0.584973
0.731457 0.733268 0.742999
0.753212 0.752656 0.752461
0.727840 0.728048 0.730412
0.758616 0.762480 0.764430
0.727585 0.729404 0.730529
0.750058 0.753237 0.752995
0.728417 0.717614 0.708748
0.760418 0.736312 0.731781
0.749065 0.746817 0.751971
0.590458 0.590622 0.592957
0.698597 0.708444 0.705269
0.840615 0.841241 0.833197
0.857698 0.857859 0.858459
0.581639 0.589507 0.593541
0.605569 0.602987 0.603715
0.710063 0.718083 0.739566
0.845796 0.842853 0.841772
0.746247 0.785446 0.782438
0.693978 0.715397 0.732152
0.599146 0.597051 0.600081
0.618302 0.619588 0.620183
0.725696 0.726526 0.728127
0.723138 0.707180 0.704898
0.731909 0.730605 0.732030
0.603893 0.607560 0.624081
0.703660 0.707918 0.710537
0.719838 0.720527 0.721474
0.773834 0.772101 0.767921
0.527518 0.526812 0.529839
0.830091 0.823389 0.820462
0.692516 0.708424 0.704848
0.731292 0.729243 0.727574
0.699895 0.701587 0.705976
0.817632 0.819128 0.819666
0.725557 0.726634 0.725796
0.755978 0.755565 0.740570
0.587447 0.586124 0.585970
0.585834 0.602784 0.602234
0.714113 0.715278 0.712067
0.639791 0.637688 0.641228
0.651117 0.648262 0.651418
0.821072 0.823048 0.822771
0.838010 0.836392 0.836933
0.628460 0.623917 0.621595
0.740756 0.741029 0.734492
0.651144 0.654142 0.655371
0.900234 0.901827 0.905436
0.766459 0.767086 0.761135
0.804782 0.808597 0.809333
0.839979 0.818326 0.803097
0.601738 0.590757 0.589218
0.751932 0.753256 0.769350
0.642862 0.639710 0.636162
0.838872 0.829993 0.813744
0.764958 0.765584 0.761920
0.782331 0.782254 0.792399
0.700782 0.700905 0.702796
0.645279 0.643265 0.644995
0.839848 0.841779 0.836412
0.631385 0.635524 0.637284
0.689014 0.689180 0.694604
0.793233 0.789765 0.792430
0.658541 0.657981 0.658310
0.751548 0.752712 0.749971
0.780189 0.781710 0.782281
0.903825 0.905437 0.912296
0.833202 0.833375 0.835973
0.756506 0.752889 0.749423
0.852059 0.849927 0.850077
0.933705 0.927454 0.922263
0.653638 0.651314 0.650620
0.716223 0.712987 0.683951
0.728585 0.726470 0.730217
0.809376 0.817382 0.818915
0.921025 0.896233 0.893195
0.680096 0.683117 0.683302
0.797922 0.798766 0.799416
0.785272 0.784608 0.783643
0.816036 0.815774 0.818264
0.756343 0.717678 0.692741
0.912433 0.909373 0.905986
0.745198 0.747616 0.745202
0.853134 0.845824 0.833747
0.598186 0.600177 0.602213
0.684649 0.678753 0.677476
0.543993 0.546058 0.545351
0.744344 0.742354 0.743957
0.951473 0.949703 0.952715
0.572433 0.574553 0.568792
0.757994 0.758713 0.760529
0.727043 0.725913 0.712709
0.645629 0.647200 0.649533
0.737013 0.744954 0.749137
0.443120 0.442278 0.441033
0.777644 0.781402 0.784086
0.676186 0.670243 0.681630
0.704812 0.700326 0.694921
0.858792 0.887319 0.877479
0.600675 0.603939 0.604369
0.552302 0.551778 0.551334
0.716597 0.731144 0.733163
0.680018 0.663395 0.658049
0.716325 0.713885 0.730092
0.625053 0.619590 0.616262
0.906302 0.905039 0.906373
0.734532 0.735680 0.734528
0.653358 0.650260 0.650652
0.658165 0.659716 0.662847
0.576624 0.575954 0.584367
0.655157 0.653808 0.653348
0.654584 0.654612 0.661338
0.846990 0.862960 0.862340
0.857321 0.857137 0.855586
0.845064 0.838314 0.836021
0.772114 0.772058 0.750005
0.621541 0.619373 0.618480
0.847912 0.846499 0.844019
0.652486 0.656079 0.657309
0.710632 0.711397 0.691018
0.635927 0.623273 0.619447
0.666601 0.661014 0.654355
0.661149 0.659145 0.657693
0.651434 0.652026 0.650112
0.654691 0.656488 0.661313
0.717607 0.717292 0.716966
0.715222 0.718239 0.726532
0.905093 0.902403 0.911988
0.705976 0.705708 0.704668
0.795788 0.792529 0.793756
0.671855 0.670375 0.676737
0.723832 0.721661 0.730911
0.603441 0.604069 0.602944
0.709901 0.711356 0.713451
0.719073 0.720585 0.721260
0.655394 0.659118 0.659761
0.737247 0.734042 0.731292
0.724965 0.727171 0.734667
0.811086 0.802740 0.803205
0.759372 0.759009 0.756690
0.710805 0.716751 0.714512
0.775083 0.769827 0.769067
0.836898 0.839020 0.840040
0.813406 0.820994 0.819449
0.728384 0.729035 0.731762
0.877205 0.900876 0.901668
0.603340 0.620586 0.620285
0.789389 0.787386 0.789508
0.759324 0.761105 0.759295
0.738151 0.732918 0.731934
0.750271 0.754927 0.756954
0.647786 0.638848 0.643273
0.878896 0.878577 0.879296
0.680817 0.682741 0.686924
0.754239 0.771495 0.772897
0.880590 0.870532 0.871684
0.700864 0.705996 0.710927
0.629875 0.629878 0.627641
0.580303 0.581785 0.586332
0.645881 0.644210 0.633568
0.686245 0.678807 0.677291
0.802516 0.808851 0.810009
0.547307 0.548124 0.546626
0.621237 0.623283 0.622601
0.799652 0.791208 0.787041
0.554026 0.554809 0.551394
0.646795 0.646533 0.644338
0.640681 0.641015 0.644646
0.787699 0.785878 0.784894
0.652375 0.653007 0.653005
0.665756 0.665112 0.658891
0.654171 0.654300 0.653603
0.909830 0.906735 0.904998
0.825953 0.847337 0.892524
0.916361 0.908234 0.889223
0.672857 0.670015 0.663281
0.631285 0.633253 0.640665
0.786949 0.790426 0.801738
0.816340 0.817193 0.830605
0.648575 0.655493 0.654586
0.660701 0.660631 0.660571
0.780188 0.781665 0.781110
0.732866 0.734221 0.731206
0.752106 0.749443 0.746812
0.764414 0.765776 0.764964
0.709122 0.705392 0.696697
0.930058 0.948874 0.943109
0.834189 0.834228 0.837416
0.654140 0.654222 0.654758
0.595861 0.596409 0.584895
0.709615 0.708637 0.710116
0.783568 0.783475 0.782924
0.779491 0.777237 0.778091
0.748895 0.748284 0.744135
0.677269 0.674617 0.678890
0.693715 0.708589 0.713057
0.875416 0.874162 0.873294
0.680567 0.678278 0.682392
0.797268 0.790012 0.793243
0.703359 0.706069 0.705767
0.733682 0.732088 0.729794
0.853188 0.851480 0.840905
0.658558 0.660567 0.659190
0.933707 0.926871 0.922331
0.743553 0.760280 0.774205
0.628088 0.632844 0.635993
0.633691 0.631811 0.625883
0.716335 0.720596 0.718266
0.707852 0.716148 0.717794
0.923402 0.912505 0.900116
0.701021 0.703241 0.703090
0.599469 0.598902 0.600683
0.702437 0.697381 0.700704
0.760510 0.758447 0.761468
0.639170 0.645527 0.646932
0.668367 0.668927 0.672612
0.821119 0.820720 0.828531
0.692948 0.689964 0.675568
0.821373 0.820948 0.822800
0.905693 0.904678 0.905549
0.794795 0.797770 0.799251
0.565112 0.563794 0.564834
0.888531 0.893626 0.903250
0.813611 0.812900 0.813907
0.823089 0.823061 0.819326
