0.403217 0.402829 0.402299
0.393703 0.395454 0.394371
0.420534 0.423906 0.423608
0.362065 0.357165 0.358953
0.351491 0.351917 0.351309
0.338941 0.339543 0.336853
0.327752 0.328186 0.328248
0.372962 0.372757 0.374616
0.405655 0.406177 0.404966
0.344717 0.344348 0.346502
0.452339 0.451256 0.446695
0.341687 0.340223 0.339461
0.332571 0.332799 0.331473
0.333308 0.329393 0.330139
0.349838 0.350178 0.354196
0.362464 0.361744 0.361872
0.370939 0.375089 0.374604
0.321416 0.320549 0.321344
0.358215 0.365058 0.364769
0.308877 0.310205 0.310136
0.329923 0.328079 0.329282
0.322316 0.325508 0.325109
0.380051 0.381367 0.386522
0.370029 0.369564 0.372354
0.343334 0.344619 0.341520
0.339270 0.341128 0.340967
0.333595 0.334348 0.334028
0.406897 0.404866 0.400118
0.313568 0.313855 0.314168
0.412968 0.411333 0.408691
0.387795 0.391706 0.392134
0.400917 0.403014 0.408001
0.369694 0.372137 0.372031
0.350248 0.349700 0.347697
0.429650 0.428841 0.428339
0.307180 0.307173 0.307464
0.366779 0.367730 0.368141
0.396167 0.397416 0.398518
0.391954 0.391426 0.391037
0.345742 0.343769 0.342090
0.313781 0.314274 0.315062
0.446546 0.447114 0.444288
0.322381 0.322170 0.324380
0.351754 0.352836 0.352025
0.333648 0.333801 0.333071
0.322760 0.322851 0.321650
0.318531 0.318469 0.318611
0.359520 0.358926 0.363502
0.324431 0.324048 0.324152
0.390324 0.389058 0.386645
0.416704 0.416568 0.412275
0.365922 0.365837 0.368790
0.333692 0.331546 0.329043
0.466941 0.468873 0.464225
0.329004 0.328426 0.329620
0.327738 0.327319 0.327589
0.349470 0.351798 0.350401
0.406098 0.407377 0.408611
0.366382 0.366003 0.366030
0.343745 0.343788 0.348852
0.375053 0.374007 0.373042
0.389693 0.386288 0.386820
0.364079 0.363360 0.361234
0.307205 0.306126 0.306007
0.327638 0.327958 0.328581
0.322357 0.328607 0.328807
0.339737 0.338930 0.339343
0.325878 0.323706 0.326312
0.394237 0.393274 0.391234
0.340590 0.339718 0.338399
0.410203 0.409173 0.404489
0.338025 0.341572 0.338653
0.368100 0.371062 0.370368
0.373669 0.373053 0.370554
0.345971 0.344299 0.344224
0.360819 0.360094 0.360668
0.380512 0.382543 0.383830
0.341240 0.345206 0.344894
0.405973 0.408105 0.409950
0.360382 0.361187 0.363038
0.342422 0.342202 0.340127
0.313494 0.315125 0.316280
0.320985 0.319039 0.318274
0.343900 0.344610 0.342438
0.333545 0.332808 0.329103
0.389363 0.392756 0.392913
0.314144 0.313864 0.313507
0.344964 0.344843 0.344714
0.333125 0.332288 0.334378
0.346082 0.342130 0.349860
0.409782 0.407433 0.409787
0.447820 0.443894 0.443304
0.384120 0.380978 0.379597
0.316139 0.313980 0.311908
0.321579 0.323350 0.324249
0.353053 0.351433 0.352108
0.416700 0.415833 0.419544
0.371895 0.371204 0.374714
0.373887 0.375101 0.376688
0.385832 0.388838 0.387332
0.344419 0.340069 0.338479
0.346945 0.348253 0.346101
0.343881 0.342449 0.342085
0.363048 0.360986 0.361128
0.430353 0.433431 0.433047
0.385353 0.383677 0.382295
0.385765 0.385519 0.385532
0.390591 0.390194 0.389312
0.345677 0.343130 0.342042
0.350072 0.346694 0.347561
0.317531 0.317916 0.317295
0.359728 0.359508 0.360587
0.382010 0.381513 0.380585
0.418184 0.419786 0.420001
0.408540 0.411113 0.408774
0.358477 0.368898 0.368811
0.357747 0.358054 0.358210
0.316971 0.314556 0.314126
0.338490 0.338915 0.339485
0.412683 0.413431 0.413706
0.311568 0.311647 0.311190
0.320531 0.321335 0.321105
0.361131 0.361703 0.361016
0.342055 0.338954 0.341486
0.353611 0.354075 0.354189
0.355783 0.355258 0.356302
0.415499 0.415646 0.405912
0.332232 0.332168 0.331855
0.411538 0.413406 0.414382
0.384652 0.380100 0.377875
0.401188 0.402887 0.406644
0.415788 0.412517 0.411978
0.366547 0.366682 0.367856
0.386766 0.386760 0.387136
0.375081 0.376476 0.377847
0.315060 0.314547 0.317167
0.371058 0.370921 0.371588
0.347131 0.349195 0.353005
0.440384 0.440318 0.437451
0.350935 0.351345 0.351592
0.436820 0.439692 0.441190
0.339228 0.338740 0.339917
0.317622 0.317260 0.319682
0.314205 0.313299 0.314782
0.332182 0.334520 0.336568
0.354802 0.355355 0.357966
0.408574 0.409648 0.409671
0.358372 0.355750 0.356719
0.331901 0.331131 0.332049
0.370253 0.370853 0.372601
0.422891 0.426973 0.428094
0.380090 0.379779 0.378658
0.335861 0.339887 0.339502
0.360698 0.360177 0.365705
0.385367 0.384498 0.382635
0.431163 0.429855 0.429280
0.411371 0.411388 0.412959
0.370237 0.369768 0.368824
0.378379 0.377626 0.376914
0.375263 0.374887 0.374773
0.382306 0.377881 0.375565
0.410783 0.413435 0.414190
0.352206 0.350684 0.351120
0.333458 0.333397 0.334366
0.391037 0.392494 0.392409
0.308520 0.307030 0.307688
0.386854 0.401175 0.403496
0.369226 0.368762 0.364501
0.421270 0.422405 0.421873
0.428577 0.430382 0.429578
0.326109 0.326499 0.326092
0.340323 0.343211 0.347754
0.349650 0.353298 0.354287
0.373196 0.377249 0.377270
0.308496 0.309910 0.307032
0.311009 0.311212 0.311650
0.442737 0.438381 0.433738
0.317559 0.322785 0.321476
0.317995 0.317395 0.317692
0.368957 0.368200 0.370323
0.367854 0.368223 0.367307
0.364422 0.362494 0.363568
0.377460 0.379367 0.380965
0.315155 0.316701 0.316347
0.417415 0.415268 0.414104
0.407520 0.407605 0.410850
0.368775 0.369947 0.368738
0.388911 0.391655 0.395198
0.314628 0.313595 0.309562
0.346943 0.346765 0.346220
0.347370 0.348291 0.348926
0.312540 0.311252 0.314247
0.359439 0.362632 0.374405
0.397060 0.396227 0.397297
0.336322 0.328888 0.326624
0.360152 0.359209 0.358825
0.389437 0.389003 0.389488
0.324546 0.325867 0.327147
0.347433 0.349622 0.348953
0.329092 0.328860 0.326981
0.337186 0.330478 0.331900
0.326344 0.326235 0.327216
0.441256 0.440165 0.439589
0.352450 0.354309 0.355769
0.367842 0.369842 0.373077
0.387993 0.388166 0.388433
0.353805 0.354184 0.354024
0.383656 0.388434 0.385190
0.442900 0.430467 0.428512
0.359025 0.359610 0.358069
0.351891 0.352675 0.351132
0.327216 0.325793 0.325992
0.324847 0.326187 0.322583
0.352372 0.355542 0.359380
0.396538 0.402128 0.401802
0.348935 0.349563 0.349036
0.398531 0.398588 0.398281
0.376175 0.374647 0.372360
0.352146 0.353511 0.355041
0.359398 0.360819 0.360094
0.319695 0.319439 0.318441
0.310411 0.312213 0.311466
0.333841 0.334554 0.333211
0.340308 0.341194 0.339845
0.325494 0.322392 0.323457
0.375314 0.378297 0.379098
0.390503 0.392622 0.391185
0.358002 0.358545 0.360237
0.400822 0.397217 0.397792
0.343749 0.342896 0.343528
0.379746 0.381539 0.385432
0.323823 0.321824 0.319628
0.317140 0.315017 0.313528
0.428842 0.429590 0.430044
0.346029 0.347159 0.347554
0.353283 0.354042 0.353230
0.343479 0.338797 0.335279
0.330953 0.329229 0.328782
0.351671 0.348357 0.348657
0.371954 0.371836 0.374262
0.313824 0.313649 0.310786
0.329365 0.327550 0.325241
0.351727 0.354163 0.355954
0.350971 0.351640 0.353657
0.334938 0.336117 0.336326
0.375428 0.367963 0.368185
0.345205 0.343997 0.343880
0.316271 0.315906 0.317999
0.334659 0.332549 0.333755
0.323316 0.322912 0.321437
0.375235 0.375284 0.374549
0.367108 0.363454 0.363248
0.366396 0.365995 0.365349
0.343015 0.344319 0.346431
0.369564 0.372354 0.372342
0.352720 0.352266 0.350751
0.392518 0.391617 0.392502
0.311566 0.311275 0.311917
0.380091 0.390513 0.391863
0.372706 0.376016 0.376402
0.340985 0.340243 0.339999
0.353771 0.353880 0.358440
0.322166 0.323566 0.323051
0.406332 0.400677 0.400545
0.355524 0.355832 0.356149
0.340777 0.339563 0.338359
0.351034 0.351269 0.351428
0.344014 0.343005 0.344909
0.358930 0.358359 0.358260
0.310913 0.310696 0.308989
0.350885 0.349075 0.348612
0.326961 0.327585 0.328279
0.331618 0.330835 0.329546
0.381286 0.383420 0.384751
0.416977 0.419281 0.428272
0.339210 0.339476 0.338941
0.318166 0.316179 0.315343
0.317826 0.317804 0.318539
0.318551 0.319728 0.319036
0.425744 0.416788 0.415197
0.417507 0.419818 0.421047
0.369876 0.367907 0.366332
0.418996 0.417027 0.417612
0.331510 0.332844 0.339465
0.308766 0.309953 0.307876
0.316546 0.317658 0.317937
0.428601 0.427392 0.424918
0.314168 0.315633 0.315553
0.329771 0.330289 0.329586
0.323994 0.326932 0.327058
0.464611 0.463675 0.463120
0.338985 0.336348 0.336569
0.368923 0.368931 0.369594
0.309314 0.309811 0.311633
0.327709 0.326841 0.326989
0.311772 0.311898 0.312452
0.314885 0.321550 0.321750
0.309200 0.309524 0.308832
0.399552 0.399058 0.398295
0.337972 0.336274 0.336150
0.375803 0.375288 0.373683
0.339196 0.337546 0.338603
0.360415 0.360794 0.359414
0.368425 0.366936 0.371052
0.446220 0.444165 0.431316
0.351340 0.351338 0.350940
0.358395 0.358601 0.358349
0.359034 0.356776 0.355017
0.314105 0.314993 0.314025
0.417651 0.418872 0.416262
0.321631 0.320185 0.320145
0.320107 0.324974 0.327354
0.344840 0.344073 0.344684
0.316713 0.316481 0.315599
0.394327 0.396158 0.401639
0.397894 0.398188 0.397899
0.341553 0.341759 0.340531
0.351730 0.350444 0.350679
0.361573 0.355725 0.356190
0.383025 0.381658 0.384878
0.312475 0.311212 0.312077
0.325167 0.324156 0.325645
0.348751 0.349342 0.349893
0.372231 0.372974 0.375304
0.416268 0.414857 0.417202
0.367222 0.364645 0.365883
0.326163 0.326666 0.326497
0.404838 0.405894 0.402030
0.338778 0.337852 0.340388
0.343867 0.344573 0.344961
0.351043 0.351644 0.349551
0.321524 0.322218 0.326547
0.351249 0.348215 0.348806
0.323617 0.323909 0.322772
0.381375 0.380678 0.379798
0.412346 0.417040 0.417560
0.307904 0.307656 0.307394
0.322430 0.321984 0.320970
0.328182 0.330044 0.328373
0.334053 0.338316 0.338541
0.338003 0.339784 0.341295
0.415534 0.416446 0.413761
0.345516 0.345201 0.346062
0.357974 0.357748 0.358106
0.411013 0.411052 0.411045
0.381294 0.384293 0.387141
0.445105 0.442367 0.442724
0.338260 0.342531 0.342688
0.344110 0.342233 0.345130
0.361726 0.360932 0.362658
0.370937 0.371106 0.372948
0.323076 0.323355 0.322602
0.317113 0.318459 0.319860
0.334075 0.333933 0.333615
0.313612 0.311215 0.311544
0.318395 0.318477 0.318225
0.323062 0.321320 0.324095
0.319844 0.319518 0.317632
0.317096 0.319458 0.317652
0.336104 0.336909 0.337339
0.336971 0.336900 0.337125
0.333957 0.334417 0.334780
0.349723 0.351155 0.351193
0.307788 0.307950 0.311883
0.326001 0.325816 0.325978
0.406048 0.407863 0.412574
0.394841 0.396218 0.397471
0.320172 0.319738 0.319736
0.327256 0.333103 0.333579
0.353255 0.349703 0.348787
0.374741 0.374006 0.374246
0.363124 0.361515 0.360334
0.374982 0.373788 0.374504
0.358617 0.359362 0.359565
0.395827 0.396737 0.393563
0.400190 0.404977 0.405008
0.328182 0.328781 0.330611
0.388219 0.386974 0.382348
0.361232 0.361454 0.362686
0.364974 0.366341 0.369202
0.317454 0.315011 0.315979
0.395310 0.398365 0.397205
0.372767 0.373100 0.372209
0.410537 0.408051 0.409128
0.342229 0.342415 0.344229
0.327604 0.324873 0.328307
0.340130 0.341741 0.341793
0.325167 0.325758 0.328263
0.340718 0.341656 0.344296
0.396178 0.396868 0.394436
0.326779 0.324467 0.323168
0.372789 0.374457 0.377303
0.360123 0.359356 0.362769
0.321834 0.322507 0.324808
0.368569 0.368778 0.366113
0.366182 0.365815 0.364486
0.315633 0.316157 0.319130
0.322236 0.322467 0.324140
0.391817 0.392301 0.391749
0.345107 0.349516 0.348470
0.367849 0.370770 0.372651
0.344846 0.348536 0.349161
0.406515 0.406781 0.407132
0.376188 0.377048 0.380796
0.402605 0.397503 0.391778
0.352536 0.349689 0.348887
0.354910 0.357709 0.358921
0.388038 0.390271 0.391395
0.414569 0.413779 0.409303
0.379612 0.380047 0.380869
0.309713 0.310925 0.311009
0.343749 0.343730 0.347795
0.318716 0.318820 0.316915
0.318454 0.318897 0.318834
0.341572 0.338653 0.329000
0.347239 0.347317 0.346401
0.377237 0.377319 0.377329
0.385414 0.388239 0.386974
0.366166 0.366476 0.372074
0.396859 0.400445 0.400504
0.399828 0.396758 0.397958
0.348294 0.348001 0.348202
0.318973 0.318554 0.318921
0.340717 0.341648 0.340829
0.317009 0.318240 0.319429
0.328486 0.330207 0.330483
0.363191 0.363492 0.361810
0.412415 0.413114 0.407915
0.321002 0.318712 0.317321
0.372236 0.374251 0.372762
0.443374 0.447593 0.447032
0.346162 0.344161 0.343132
0.330250 0.329707 0.329744
0.329432 0.333536 0.336224
0.320845 0.321383 0.322536
0.423338 0.422991 0.423131
0.311168 0.312474 0.312359
0.358018 0.357917 0.358146
0.361562 0.365281 0.365396
0.453447 0.457153 0.454199
0.387689 0.387614 0.388976
0.354293 0.352249 0.350592
0.319895 0.320123 0.318743
0.347322 0.347043 0.347088
0.315002 0.312651 0.312217
0.354619 0.354228 0.356087
0.332158 0.333485 0.333788
0.363070 0.360636 0.353027
0.309706 0.309200 0.309524
0.333905 0.333585 0.334613
0.371774 0.370130 0.369766
0.346640 0.348791 0.348262
0.323612 0.323051 0.322372
0.318199 0.319208 0.320379
0.398237 0.399301 0.400065
0.308900 0.306827 0.311726
0.325505 0.323672 0.324351
0.366225 0.363284 0.362738
0.339718 0.335821 0.334708
0.363626 0.358182 0.360206
0.389797 0.390344 0.391653
0.342568 0.341776 0.340961
0.366923 0.366862 0.367722
0.323006 0.323776 0.322737
0.338424 0.339494 0.341257
0.382066 0.382085 0.381051
0.347080 0.347531 0.345089
0.349087 0.347772 0.349959
0.320055 0.321624 0.323578
0.334193 0.337707 0.338351
0.321673 0.321363 0.316147
0.371382 0.372242 0.371842
0.353297 0.352622 0.353098
0.348174 0.347045 0.348525
0.326555 0.326014 0.326113
0.446941 0.445167 0.446555
0.419043 0.414665 0.416268
0.386902 0.386924 0.383991
0.349851 0.350824 0.350092
0.326935 0.326206 0.326615
0.390976 0.392396 0.394338
0.447289 0.447549 0.446892
0.354962 0.353878 0.349858
0.328855 0.327541 0.327884
0.325517 0.325782 0.325015
0.419725 0.416805 0.417082
0.311021 0.311925 0.312737
0.328718 0.326670 0.326932
0.345968 0.345793 0.345381
0.359641 0.359724 0.358856
0.323791 0.327595 0.327635
0.321476 0.322283 0.323422
0.368834 0.369026 0.370051
0.352054 0.351351 0.352325
0.358700 0.360382 0.361187
0.399577 0.399408 0.391785
0.334266 0.332669 0.335815
0.400806 0.398390 0.395827
0.353286 0.351641 0.351004
0.393011 0.387296 0.386913
0.357196 0.357335 0.355185
0.331859 0.331984 0.333839
0.325095 0.324581 0.325822
0.374520 0.375504 0.376662
0.349918 0.353855 0.350256
0.316643 0.316047 0.308697
0.422946 0.424060 0.425068
0.391801 0.391117 0.394507
0.344573 0.344848 0.345426
0.324498 0.324068 0.325595
0.322423 0.322467 0.321474
0.420146 0.422424 0.422561
0.359855 0.359912 0.360158
0.308557 0.308519 0.308011
0.356860 0.355354 0.354316
0.318646 0.319024 0.319280
0.323421 0.326107 0.325396
0.330119 0.328754 0.329032
0.333536 0.336224 0.335114
0.399720 0.404970 0.403951
0.425332 0.427154 0.427219
0.411052 0.411045 0.414881
0.426777 0.426095 0.425413
0.418724 0.417512 0.418811
0.348974 0.348627 0.350544
0.359777 0.359365 0.358849
0.357857 0.357695 0.355654
0.354210 0.354109 0.354372
0.318575 0.319778 0.318172
0.336986 0.339722 0.340032
0.362513 0.363357 0.363427
0.321816 0.322306 0.322049
0.423636 0.427620 0.429283
0.355376 0.351642 0.348518
0.352843 0.352296 0.353519
0.372466 0.372338 0.371860
0.361021 0.359154 0.363083
0.358402 0.355356 0.356329
0.388631 0.388757 0.387728
0.406470 0.406195 0.406381
0.343859 0.343750 0.342601
0.376333 0.376968 0.377346
0.421846 0.421654 0.419008
0.318388 0.318903 0.319081
0.345717 0.342971 0.343139
0.327181 0.325454 0.325824
0.410995 0.408708 0.407736
0.362640 0.364486 0.365552
0.368983 0.370247 0.370237
0.389219 0.389167 0.389184
0.424990 0.428195 0.426915
0.404460 0.405826 0.408060
0.330961 0.326661 0.325940
0.352932 0.352227 0.352184
0.392624 0.389562 0.389048
0.414085 0.409353 0.410169
0.333093 0.331016 0.334611
0.343429 0.342201 0.344282
0.393296 0.393250 0.392858
0.324904 0.324535 0.323181
0.353099 0.353459 0.354399
0.339905 0.342012 0.339703
0.346387 0.346105 0.345660
0.318779 0.318664 0.319769
0.337386 0.334477 0.329000
0.352632 0.352790 0.353743
0.453670 0.457010 0.458723
0.392122 0.383916 0.390431
0.372102 0.372637 0.373729
0.374941 0.374111 0.373854
0.329142 0.331210 0.330503
0.350488 0.349300 0.346543
0.337932 0.338648 0.338975
0.358450 0.361401 0.361463
0.360274 0.357928 0.357624
0.423736 0.425346 0.427729
0.319691 0.317993 0.319405
0.327267 0.328986 0.328466
0.419969 0.424934 0.427161
0.344636 0.342171 0.341815
0.397740 0.398785 0.400763
0.326511 0.324997 0.325714
0.341697 0.339498 0.340934
0.388141 0.394366 0.394932
0.395348 0.397070 0.396569
0.372627 0.372889 0.371507
0.307477 0.307975 0.309580
0.339581 0.341039 0.347064
0.310336 0.309866 0.309352
0.337284 0.337998 0.339315
0.332835 0.334601 0.333036
0.374504 0.374192 0.373914
0.350951 0.353492 0.353073
0.357173 0.359000 0.359996
0.336673 0.335752 0.334603
0.303218 0.307920 0.308862
0.364911 0.365716 0.365534
0.334296 0.334021 0.334908
0.308387 0.308155 0.307845
0.378140 0.375682 0.376614
0.373417 0.375227 0.377400
0.320266 0.319380 0.321146
0.337757 0.337558 0.335915
0.397766 0.397016 0.404375
0.377455 0.376131 0.373125
0.339475 0.338974 0.333978
0.356765 0.357341 0.357245
0.392180 0.392474 0.392685
0.354366 0.354208 0.355061
0.355927 0.352077 0.352008
0.367974 0.367998 0.371141
0.363370 0.365663 0.369548
0.388931 0.384936 0.384070
0.338129 0.336936 0.334226
0.374887 0.374773 0.374188
0.352343 0.353347 0.353273
0.372449 0.372323 0.373948
0.372308 0.372629 0.373028
0.315282 0.314874 0.313316
0.359665 0.359509 0.363650
0.376718 0.377328 0.374886
0.409172 0.410872 0.413514
0.318202 0.319298 0.319892
0.386070 0.384970 0.385024
0.347574 0.348286 0.350749
0.402299 0.401461 0.397772
0.345330 0.344461 0.340105
0.354094 0.350258 0.354524
0.371421 0.372815 0.372007
0.302954 0.300603 0.300708
0.331370 0.330758 0.331162
0.328445 0.328645 0.331672
0.341466 0.341025 0.339844
0.398760 0.404070 0.410446
0.350397 0.349725 0.347430
0.361988 0.360347 0.359120
0.352632 0.346460 0.344995
0.314993 0.315979 0.316419
0.388671 0.387750 0.387045
0.368687 0.368695 0.370055
0.325488 0.325216 0.327077
0.326907 0.327595 0.329031
0.364594 0.365649 0.366280
0.370549 0.369926 0.363630
0.343526 0.346383 0.349346
0.316211 0.315984 0.315771
0.333518 0.334101 0.336060
0.322725 0.322997 0.323292
0.384311 0.385261 0.384599
0.404256 0.406274 0.405346
0.350097 0.352627 0.353457
0.342475 0.336082 0.336531
0.350430 0.355090 0.355411
0.323996 0.326026 0.326818
0.399048 0.396985 0.399540
0.343394 0.342657 0.344263
0.351517 0.352603 0.354468
0.347386 0.344296 0.345463
0.360997 0.359970 0.359866
0.337896 0.338958 0.340556
0.346780 0.348835 0.348913
0.344529 0.345409 0.345352
0.344177 0.337978 0.338932
0.317177 0.316910 0.318204
0.373704 0.374129 0.375181
0.413572 0.405880 0.406080
0.326545 0.325445 0.326038
0.341679 0.343053 0.340807
0.375257 0.376388 0.375984
0.314234 0.313356 0.314381
0.340631 0.342845 0.344291
0.360499 0.360204 0.360929
0.340493 0.341105 0.341345
0.379950 0.375762 0.375578
0.418414 0.417779 0.418699
0.385954 0.386381 0.384652
0.336306 0.336105 0.334485
0.358048 0.357384 0.357931
0.365534 0.366293 0.366179
0.342929 0.344622 0.346013
0.404157 0.403878 0.398570
0.393699 0.395654 0.394876
0.383567 0.385524 0.384913
0.372815 0.372007 0.373125
0.364473 0.366852 0.367772
0.370383 0.368138 0.368858
0.348800 0.349731 0.352283
0.466256 0.462359 0.462799
0.374329 0.374415 0.370761
0.329632 0.329041 0.328187
0.343990 0.341093 0.339387
0.395708 0.397225 0.396853
0.323502 0.322579 0.320833
0.345409 0.342691 0.340840
0.385949 0.364645 0.363314
0.344894 0.345001 0.342791
0.314581 0.316698 0.315115
0.333412 0.333144 0.333372
0.343446 0.344372 0.344121
0.374654 0.375179 0.377891
0.320845 0.322369 0.322946
0.372734 0.375919 0.376792
0.334665 0.335252 0.337675
0.325014 0.323098 0.323238
0.467036 0.466963 0.466489
0.432848 0.432583 0.432154
0.355065 0.353985 0.350621
0.436978 0.447125 0.446226
0.372650 0.375356 0.376281
0.324023 0.322634 0.321800
0.355968 0.358399 0.358591
0.347858 0.348076 0.347741
0.407729 0.408831 0.406131
0.329524 0.329596 0.331549
0.340291 0.340184 0.339827
0.401926 0.401818 0.403132
0.375426 0.374641 0.373461
0.392893 0.392687 0.377838
0.373596 0.374531 0.372524
0.352545 0.350743 0.349090
0.367055 0.365003 0.364269
0.341529 0.340546 0.340786
0.313855 0.314806 0.314816
0.318914 0.321397 0.321515
0.401054 0.401003 0.402302
0.329344 0.328639 0.329066
0.410981 0.402005 0.401157
0.337982 0.337542 0.335810
0.358104 0.359773 0.362155
0.333953 0.337206 0.336609
0.392662 0.396313 0.397375
0.348291 0.348926 0.351795
0.384770 0.383478 0.382503
0.339209 0.337356 0.339625
0.367773 0.367231 0.369295
0.406283 0.408329 0.412176
0.313927 0.313550 0.314364
0.355093 0.353025 0.348758
0.367505 0.367318 0.365405
0.331707 0.329385 0.330430
0.318490 0.317791 0.317852
0.376250 0.376084 0.376816
0.327556 0.328291 0.326306
0.348596 0.349039 0.349237
0.347594 0.346727 0.345812
0.316343 0.316867 0.316229
0.413603 0.413425 0.413084
0.344014 0.344859 0.346758
0.348554 0.347937 0.347103
0.319079 0.319699 0.320341
0.372636 0.365334 0.361752
0.346639 0.347967 0.347649
0.317578 0.317280 0.320454
0.428272 0.430352 0.434596
0.337078 0.336408 0.337250
0.342915 0.345688 0.345443
0.409468 0.411754 0.411901
0.384504 0.380829 0.383732
0.318797 0.318209 0.317225
0.333700 0.332502 0.332893
0.362691 0.362479 0.360970
0.311886 0.312653 0.318270
0.383540 0.384199 0.384451
0.332749 0.336051 0.334225
0.348142 0.349978 0.351648
0.347887 0.347975 0.348472
0.432877 0.433286 0.436115
0.372329 0.372975 0.372629
0.329650 0.321692 0.321249
0.375359 0.371824 0.371877
0.371211 0.359433 0.358708
0.345230 0.347338 0.347574
0.326802 0.326965 0.328021
0.356943 0.357797 0.357665
0.407597 0.408786 0.402421
0.345465 0.345285 0.347664
0.383935 0.382495 0.386274
0.314526 0.315002 0.312651
0.314014 0.315190 0.315134
0.334659 0.332541 0.334057
0.405405 0.405448 0.405576
0.370402 0.371801 0.372650
0.453367 0.453840 0.460053
0.314963 0.316594 0.316754
0.371495 0.370956 0.367189
0.378691 0.381631 0.380115
0.367234 0.368469 0.370633
0.373112 0.373240 0.373154
0.353421 0.354406 0.356477
0.333263 0.333915 0.334562
0.347675 0.347162 0.344052
0.327411 0.327505 0.327710
0.372709 0.374397 0.368937
0.335367 0.335047 0.334960
0.321309 0.321109 0.321004
0.328803 0.328665 0.329524
0.355622 0.356326 0.359093
0.372589 0.373654 0.372069
0.365117 0.372704 0.371485
0.414533 0.416616 0.415518
0.427884 0.427448 0.422485
0.348131 0.347520 0.345549
0.358597 0.358325 0.357448
0.389741 0.389114 0.386340
0.358490 0.358041 0.356216
0.412694 0.411955 0.411796
0.317908 0.318124 0.317727
0.379737 0.380307 0.380437
0.341774 0.341499 0.341443
0.374904 0.375811 0.375732
0.457379 0.456726 0.457931
0.349593 0.350241 0.353737
0.333246 0.333715 0.334934
0.422746 0.420722 0.416190
0.350133 0.345681 0.340268
0.332736 0.334460 0.335017
0.400517 0.401054 0.401003
0.374856 0.379847 0.380659
0.411378 0.412471 0.417393
0.348942 0.351403 0.352383
0.333386 0.333694 0.332811
0.363360 0.361234 0.362778
0.329616 0.330159 0.328910
0.328394 0.329217 0.327270
0.326097 0.323286 0.321123
0.317143 0.318573 0.318416
0.348306 0.347883 0.347422
0.317953 0.316202 0.319872
0.318380 0.318550 0.319741
0.326171 0.325191 0.325816
0.346390 0.344777 0.340534
0.372386 0.373753 0.372671
0.344269 0.344113 0.344384
0.343752 0.344029 0.343397
0.413972 0.414289 0.414849
0.318369 0.320144 0.318914
0.374796 0.374729 0.374353
0.336686 0.340223 0.338268
0.398292 0.397320 0.396455
0.372571 0.372573 0.376185
0.393066 0.390373 0.393451
0.357947 0.356540 0.354511
0.308684 0.307231 0.307590
0.388930 0.381769 0.380103
0.321983 0.326884 0.325706
0.340932 0.338884 0.336418
0.409547 0.408112 0.406283
0.324665 0.322293 0.319057
0.320049 0.322752 0.322440
0.323199 0.322563 0.322710
0.371751 0.373054 0.373314
0.325458 0.323686 0.321939
0.383055 0.381820 0.382588
0.359382 0.359514 0.359389
0.331071 0.328563 0.328941
0.357841 0.357427 0.356784
0.383308 0.382329 0.381734
0.325192 0.324292 0.324379
0.378941 0.378510 0.378054
0.435694 0.437034 0.439490
0.337947 0.343147 0.343493
0.317764 0.320366 0.319715
0.315589 0.314096 0.315644
0.339133 0.338556 0.338593
0.348080 0.347453 0.354345
0.337581 0.335825 0.337791
0.446019 0.445909 0.444533
0.436654 0.433019 0.431390
0.371675 0.374551 0.373853
0.312925 0.312797 0.313119
0.355605 0.360136 0.361306
0.328993 0.330042 0.330478
0.334955 0.335504 0.336659
0.314136 0.315623 0.317235
0.403733 0.403600 0.404460
0.372382 0.372642 0.369123
0.357314 0.358784 0.359903
0.401069 0.401014 0.401879
0.350745 0.352130 0.351666
0.385874 0.387536 0.384941
0.374577 0.374341 0.374630
0.411732 0.412256 0.411556
0.316131 0.313476 0.308041
0.349147 0.345727 0.348630
0.306070 0.307387 0.307462
0.412628 0.413348 0.417139
0.344674 0.349602 0.350752
0.336741 0.335989 0.334649
0.456074 0.452915 0.451476
0.315176 0.315799 0.317558
0.360860 0.360509 0.360696
0.393973 0.396271 0.396068
0.323604 0.324000 0.324395
0.401172 0.400971 0.401012
0.321867 0.321304 0.321137
0.417673 0.404256 0.406274
0.314993 0.314025 0.311997
0.340035 0.341094 0.336774
0.314103 0.313412 0.309244
0.350565 0.351075 0.353283
0.372743 0.372701 0.373194
0.339536 0.340360 0.339215
0.325275 0.327838 0.332106
0.348935 0.345103 0.342275
0.384938 0.385420 0.385935
0.452988 0.445166 0.446271
0.377059 0.374370 0.375013
0.323026 0.322920 0.321491
0.415747 0.414538 0.416621
0.411017 0.410628 0.411030
0.370846 0.371105 0.378107
0.413745 0.413374 0.416350
0.426876 0.427041 0.428647
0.334168 0.333904 0.332003
0.318963 0.318403 0.319279
0.341361 0.342416 0.337709
0.395136 0.393964 0.392561
0.395641 0.398294 0.398470
0.361312 0.361930 0.362304
0.356926 0.357294 0.357598
0.375943 0.374876 0.374208
0.317552 0.318125 0.316047
0.351365 0.356424 0.356093
0.385133 0.385630 0.384053
0.341021 0.340721 0.340571
0.345917 0.346600 0.347260
0.365352 0.363883 0.361454
0.356167 0.356755 0.356385
0.424408 0.425032 0.423801
0.359935 0.360707 0.361366
0.343915 0.346271 0.350522
0.323445 0.323017 0.321792
0.354479 0.355148 0.356139
0.336914 0.336579 0.335868
0.345077 0.343823 0.344622
0.367676 0.368105 0.368442
0.451204 0.447194 0.447853
0.328040 0.333170 0.333926
0.326444 0.321871 0.321879
0.351512 0.352967 0.351953
0.372091 0.378671 0.376811
0.356714 0.356649 0.360341
0.378112 0.378943 0.379848
0.344603 0.343877 0.340517
0.393107 0.395650 0.395519
0.370804 0.370402 0.371801
0.349683 0.349301 0.348441
0.396148 0.394496 0.398286
0.382072 0.379223 0.379567
0.360001 0.361989 0.361999
0.343055 0.343822 0.343274
0.337361 0.335845 0.335922
0.339664 0.337678 0.340037
0.319415 0.320802 0.319512
0.355139 0.355262 0.353339
0.402983 0.403826 0.405417
0.317720 0.318648 0.316087
0.325032 0.326451 0.327146
0.367498 0.364454 0.364245
0.340101 0.340139 0.337631
0.348476 0.348628 0.348602
0.368754 0.366775 0.368247
0.348771 0.351152 0.354563
0.336714 0.335220 0.334901
0.393297 0.395090 0.399072
0.371409 0.369604 0.373090
0.429741 0.429200 0.430641
0.346740 0.345315 0.340891
0.369591 0.368528 0.368400
0.323289 0.324482 0.326553
0.374168 0.373252 0.380343
0.323494 0.325781 0.327488
0.374919 0.378087 0.380245
0.347403 0.346786 0.347399
0.306283 0.307754 0.307766
0.343191 0.343510 0.346274
0.367855 0.371329 0.370751
0.368246 0.359269 0.358859
0.446695 0.447077 0.447291
0.351671 0.350483 0.350033
0.348137 0.343225 0.342721
0.378856 0.379281 0.377538
0.397388 0.397326 0.397575
0.329778 0.329188 0.329632
0.323974 0.320227 0.322543
0.358004 0.361187 0.361240
0.367661 0.368341 0.371236
0.343565 0.340893 0.340674
0.333935 0.333559 0.333148
0.350139 0.351366 0.359566
0.317867 0.317024 0.315884
0.339954 0.337992 0.336784
0.414335 0.415594 0.415376
0.366781 0.370223 0.372382
0.343041 0.344160 0.337590
0.355061 0.358501 0.356389
0.310615 0.309909 0.310405
0.338099 0.337718 0.338429
0.409159 0.398760 0.404070
0.341595 0.339118 0.340919
