0.510179 0.513214 0.508256
0.437285 0.440646 0.442531
0.430954 0.429989 0.429521
0.433319 0.432955 0.430971
0.419431 0.418010 0.408844
0.408560 0.408299 0.411509
0.448995 0.448558 0.447886
0.432218 0.434929 0.433734
0.459890 0.458261 0.458449
0.447958 0.446882 0.439151
0.389085 0.388769 0.389398
0.464158 0.465979 0.465649
0.472202 0.471019 0.469274
0.420004 0.420213 0.422068
0.569097 0.569471 0.568602
0.415749 0.417486 0.418897
0.459892 0.461680 0.461709
0.515856 0.516592 0.515411
0.436872 0.437190 0.434361
0.460416 0.462704 0.462894
0.445939 0.446137 0.447027
0.491798 0.492842 0.497414
0.506349 0.511897 0.516007
0.422916 0.424180 0.435345
0.459708 0.460686 0.457026
0.508465 0.511766 0.511714
0.489275 0.490763 0.498083
0.414988 0.413952 0.405425
0.451304 0.455920 0.455944
0.494349 0.486217 0.486221
0.541997 0.543561 0.543201
0.502692 0.501480 0.503676
0.452641 0.450111 0.451928
0.515476 0.511851 0.509750
0.444056 0.445251 0.444534
0.609004 0.609489 0.610085
0.480393 0.479867 0.477764
0.432551 0.430666 0.431269
0.497025 0.500652 0.502835
0.432894 0.433941 0.438697
0.576968 0.573804 0.574437
0.485990 0.489025 0.486245
0.519339 0.520796 0.520587
0.530846 0.530816 0.534090
0.443097 0.442574 0.447013
0.579709 0.578561 0.580670
0.498738 0.500004 0.500565
0.485770 0.480929 0.481231
0.463198 0.465391 0.463039
0.671402 0.668716 0.657834
0.460824 0.461832 0.463033
0.536464 0.536439 0.536876
0.498713 0.498601 0.496919
0.587012 0.579844 0.580153
0.614464 0.615618 0.615193
0.422917 0.422188 0.422948
0.474590 0.476762 0.473536
0.397864 0.400702 0.400804
0.490697 0.491435 0.492088
0.469551 0.468902 0.465781
0.519384 0.522845 0.524348
0.532221 0.533666 0.533490
0.476038 0.473893 0.474157
0.467038 0.467220 0.465604
0.382714 0.383374 0.382664
0.435676 0.434482 0.435085
0.442609 0.442335 0.441872
0.366214 0.366981 0.365497
0.627869 0.648110 0.649589
0.630114 0.626461 0.617152
0.475899 0.475725 0.478971
0.537942 0.537058 0.536736
0.651238 0.652535 0.646013
0.476587 0.472686 0.468266
0.412780 0.407333 0.408424
0.525101 0.530414 0.529211
0.447243 0.449204 0.449622
0.398425 0.399417 0.400709
0.482190 0.482475 0.482405
0.465199 0.464594 0.464033
0.659357 0.664892 0.672116
0.472366 0.472220 0.473253
0.513033 0.511966 0.511873
0.404025 0.404662 0.404073
0.424180 0.435345 0.433456
0.542828 0.541917 0.539343
0.470870 0.468943 0.472802
0.478697 0.488061 0.487335
0.549748 0.548972 0.553850
0.502994 0.496749 0.495267
0.619426 0.616441 0.616352
0.390878 0.388101 0.388690
0.484299 0.486234 0.499494
0.416302 0.414789 0.414380
0.387105 0.386180 0.385816
0.454538 0.456941 0.455648
0.459695 0.454187 0.453014
0.525647 0.525979 0.531561
0.662893 0.666379 0.666049
0.451458 0.455146 0.457951
0.486055 0.486280 0.484263
0.411271 0.411235 0.409517
0.498268 0.497679 0.499776
0.700093 0.696266 0.676318
0.451373 0.451865 0.453253
0.398959 0.405509 0.402861
0.636404 0.631487 0.632238
0.440187 0.440645 0.439425
0.438347 0.437035 0.434645
0.544821 0.542881 0.542501
0.439826 0.440358 0.439746
0.478289 0.476294 0.475435
0.444795 0.442553 0.441448
0.537838 0.536383 0.540307
0.553232 0.554165 0.555389
0.491597 0.493828 0.493398
0.437197 0.435688 0.427086
0.426658 0.419569 0.416326
0.476662 0.479791 0.477416
0.489043 0.492838 0.495969
0.580006 0.576563 0.575568
0.464006 0.463692 0.474970
0.531438 0.533425 0.534715
0.418703 0.421262 0.424744
0.523048 0.521696 0.518624
0.512934 0.506005 0.504880
0.485560 0.491095 0.492778
0.535139 0.534245 0.531755
0.408940 0.405162 0.407154
0.651517 0.647502 0.647871
0.542748 0.542178 0.540942
0.492981 0.498223 0.496597
0.470054 0.471077 0.472127
0.613934 0.611614 0.612149
0.607719 0.666904 0.669834
0.463975 0.479292 0.480189
0.490854 0.496905 0.496165
0.422948 0.424510 0.423824
0.416429 0.416386 0.415163
0.488205 0.487034 0.492883
0.525756 0.525938 0.525460
0.440859 0.441886 0.441735
0.414096 0.412714 0.411755
0.406010 0.397322 0.396402
0.667496 0.667794 0.670833
0.569246 0.570170 0.571716
0.484838 0.482053 0.482824
0.482747 0.482669 0.483439
0.473007 0.471482 0.468686
0.391665 0.389675 0.389312
0.454696 0.454660 0.458580
0.461703 0.465094 0.463393
0.644106 0.644074 0.642703
0.475559 0.468169 0.466562
0.465921 0.466880 0.464688
0.585802 0.584930 0.582477
0.523850 0.529671 0.528292
0.449709 0.454014 0.452735
0.416771 0.419991 0.424176
0.465830 0.459444 0.456835
0.409635 0.408832 0.408806
0.478737 0.482425 0.488284
0.600971 0.599853 0.601117
0.447466 0.454095 0.454382
0.324781 0.323581 0.325307
0.571544 0.569990 0.567592
0.482246 0.483894 0.484994
0.490707 0.491615 0.492276
0.456181 0.455575 0.459859
0.454741 0.455557 0.458270
0.476592 0.473481 0.470445
0.400277 0.405966 0.405741
0.503321 0.499626 0.491967
0.460556 0.464888 0.464340
0.575079 0.574200 0.571179
0.478888 0.473736 0.470774
0.536036 0.540479 0.542002
0.484539 0.482676 0.484242
0.588618 0.588739 0.583128
0.525913 0.524702 0.526096
0.481115 0.479135 0.472981
0.419547 0.419924 0.420125
0.678141 0.676781 0.670070
0.424513 0.427870 0.435522
0.423319 0.421585 0.422307
0.433220 0.440644 0.440391
0.662949 0.666587 0.666365
0.598544 0.598106 0.596196
0.508590 0.496044 0.492127
0.462157 0.457592 0.453587
0.472955 0.475721 0.477428
0.385080 0.397899 0.401498
0.557300 0.554341 0.554443
0.385422 0.385062 0.383913
0.450830 0.450917 0.452301
0.423167 0.426121 0.427377
0.416632 0.416483 0.422305
0.689556 0.695848 0.696295
0.553949 0.551522 0.547033
0.588567 0.588651 0.582468
0.487374 0.486076 0.487079
0.518634 0.520908 0.516565
0.421959 0.423135 0.423104
0.471495 0.474555 0.476788
0.460036 0.458307 0.459196
0.644086 0.643843 0.640741
0.535876 0.536798 0.537140
0.513403 0.511038 0.509323
0.402861 0.402708 0.406345
0.441839 0.442760 0.443309
0.573085 0.571690 0.574527
0.404805 0.415459 0.419479
0.434192 0.431859 0.431628
0.540107 0.546083 0.545108
0.475202 0.473288 0.473093
0.419158 0.417932 0.414277
0.410204 0.409950 0.411172
0.466512 0.467327 0.472444
0.501069 0.500923 0.500345
0.425513 0.425902 0.426516
0.550512 0.550783 0.545719
0.499758 0.494292 0.494125
0.399483 0.400446 0.410110
0.462537 0.472836 0.474171
0.578491 0.579986 0.579863
0.418336 0.419802 0.413066
0.433246 0.431118 0.429415
0.465471 0.464108 0.457565
0.594881 0.593351 0.590613
0.484162 0.485155 0.486454
0.451759 0.453425 0.449315
0.533581 0.534998 0.532596
0.604338 0.591933 0.590940
0.423911 0.423357 0.423338
0.568912 0.570611 0.566933
0.546571 0.548024 0.545883
0.494356 0.493287 0.492277
0.601466 0.597812 0.590148
0.497028 0.498459 0.489207
0.481104 0.483397 0.484725
0.460326 0.459763 0.464902
0.438444 0.438034 0.426108
0.559058 0.560939 0.561669
0.671976 0.670906 0.671529
0.428500 0.442506 0.442300
0.471842 0.471291 0.469076
0.464608 0.462275 0.462682
0.479152 0.481877 0.484434
0.666239 0.660859 0.658453
0.491908 0.490485 0.491846
0.469490 0.472122 0.473234
0.471029 0.471583 0.471517
0.604660 0.619426 0.616441
0.522598 0.520191 0.519302
0.399925 0.399856 0.398754
0.411311 0.411972 0.417039
0.452347 0.451134 0.451292
0.452074 0.452974 0.453363
0.650712 0.640045 0.633425
0.448345 0.446886 0.447312
0.401582 0.401247 0.399734
0.594823 0.596444 0.596506
0.457471 0.449709 0.447764
0.484815 0.484638 0.463696
0.468723 0.471028 0.472704
0.428295 0.430190 0.432309
0.432073 0.431442 0.428236
0.540328 0.540322 0.531058
0.440746 0.444083 0.445459
0.503580 0.504704 0.503091
0.409405 0.408654 0.406683
0.407246 0.407883 0.405428
0.430385 0.435797 0.438285
0.412864 0.410659 0.411087
0.458216 0.457315 0.456291
0.575397 0.577309 0.572573
0.464194 0.462186 0.464984
0.484798 0.487352 0.488596
0.491843 0.490643 0.488033
0.446685 0.448255 0.449161
0.411047 0.410449 0.412044
0.457218 0.457647 0.456749
0.514858 0.515073 0.517135
0.580028 0.586258 0.588001
0.591467 0.592530 0.570456
0.373287 0.375127 0.377102
0.497941 0.500905 0.502397
0.515408 0.515463 0.518516
0.412154 0.412461 0.412057
0.409773 0.410062 0.410414
0.416696 0.415386 0.414555
0.468470 0.461435 0.459866
0.478512 0.479959 0.482246
0.413066 0.412626 0.413350
0.441556 0.451080 0.449510
0.449044 0.447069 0.446907
0.539691 0.540368 0.540282
0.486325 0.492149 0.492726
0.411525 0.409241 0.408344
0.518659 0.519385 0.519386
0.653270 0.646037 0.646524
0.412837 0.412933 0.417730
0.477611 0.472563 0.473428
0.522960 0.528285 0.526169
0.580117 0.579926 0.579312
0.485875 0.487679 0.510966
0.616160 0.610910 0.608335
0.543651 0.544932 0.552053
0.421538 0.420224 0.420811
0.449415 0.448606 0.440247
0.464014 0.462412 0.460313
0.522678 0.519960 0.516422
0.495580 0.494215 0.494498
0.554849 0.553528 0.554136
0.536885 0.537932 0.535814
0.429051 0.425849 0.424972
0.431203 0.429680 0.429347
0.455532 0.453578 0.452607
0.536789 0.536320 0.536330
0.385474 0.386925 0.383078
0.479684 0.483018 0.484628
0.570575 0.570787 0.570923
0.435613 0.434217 0.440902
0.448406 0.440779 0.442810
0.511331 0.513138 0.509561
0.529857 0.538112 0.537805
0.426077 0.424281 0.422140
0.662882 0.662438 0.664518
0.604547 0.605481 0.603463
0.459465 0.460293 0.457085
0.480384 0.478833 0.480144
0.551995 0.550660 0.551041
0.385615 0.386338 0.385670
0.640244 0.638227 0.637932
0.409393 0.409128 0.408054
0.506203 0.503780 0.503219
0.464344 0.464234 0.463219
0.509072 0.511151 0.511152
0.503001 0.503205 0.509461
0.519238 0.518771 0.518978
0.616435 0.615231 0.616498
0.482922 0.497880 0.503515
0.550905 0.551628 0.545477
0.476426 0.476796 0.474777
0.535431 0.536488 0.531741
0.552568 0.550975 0.544032
0.505280 0.505831 0.507202
0.467552 0.465667 0.463239
0.453176 0.452848 0.450494
0.449454 0.451067 0.453302
0.576915 0.575637 0.581919
0.464956 0.463566 0.462351
0.493080 0.492586 0.489493
0.406453 0.405509 0.399183
0.528095 0.528250 0.531339
0.423339 0.420959 0.419738
0.545779 0.547759 0.548520
0.413973 0.410981 0.411866
0.496156 0.493847 0.492146
0.474757 0.475111 0.477983
0.492743 0.493893 0.495143
0.580038 0.580557 0.586738
0.472752 0.473085 0.478992
0.571419 0.573424 0.574600
0.568399 0.570932 0.563306
0.592892 0.604566 0.608171
0.460434 0.462196 0.462539
0.415694 0.415775 0.415656
0.437225 0.438087 0.437966
0.478692 0.482084 0.476172
0.514052 0.515612 0.525190
0.383955 0.386356 0.387755
0.442638 0.442772 0.444051
0.428638 0.425918 0.425072
0.419144 0.417898 0.422440
0.565479 0.561176 0.562386
0.387841 0.393250 0.394116
0.432817 0.434645 0.434450
0.535548 0.520067 0.519943
0.405319 0.405377 0.399990
0.422460 0.420011 0.422079
0.463467 0.464106 0.461670
0.642703 0.640849 0.639139
0.420798 0.419976 0.420828
0.449990 0.447099 0.446593
0.542152 0.532146 0.532944
0.438514 0.439621 0.439807
0.600545 0.601317 0.600421
0.420344 0.420938 0.422948
0.533460 0.514574 0.515186
0.475303 0.472813 0.469034
0.482768 0.474559 0.476781
0.579472 0.581032 0.578304
0.384457 0.384594 0.383526
0.468387 0.465477 0.466502
0.601524 0.601820 0.600454
0.476506 0.477712 0.484203
0.544019 0.545779 0.547759
0.561499 0.587453 0.584820
0.477085 0.482627 0.486834
0.474856 0.474057 0.473031
0.457795 0.458195 0.462391
0.413407 0.411762 0.412227
0.509716 0.512717 0.523706
0.493444 0.494364 0.491693
0.474238 0.470576 0.472214
0.431939 0.431888 0.432886
0.465576 0.466349 0.464868
0.470993 0.472322 0.471419
0.584273 0.586046 0.584893
0.457279 0.459760 0.461785
0.530355 0.530872 0.530063
0.522444 0.522943 0.523351
0.437814 0.438496 0.435604
0.572632 0.575127 0.577648
0.549455 0.547293 0.546692
0.490789 0.502038 0.502880
0.561567 0.561501 0.559549
0.570912 0.564823 0.562408
0.413050 0.409359 0.408088
0.536268 0.532720 0.530491
0.675025 0.675621 0.676096
0.461376 0.462553 0.461928
0.567735 0.561204 0.561650
0.477054 0.477670 0.476872
0.413350 0.413317 0.413736
0.445456 0.445113 0.446164
0.569053 0.567596 0.570091
0.473877 0.474542 0.471884
0.476846 0.475132 0.474195
0.543829 0.543520 0.544839
0.482157 0.483745 0.483029
0.490546 0.491150 0.491597
0.479787 0.480383 0.485750
0.425584 0.427826 0.429253
0.445883 0.439750 0.437624
0.688995 0.688485 0.686860
0.407670 0.406958 0.406940
0.473375 0.473602 0.470602
0.520805 0.519314 0.514800
0.492326 0.492370 0.491938
0.662794 0.665265 0.671162
0.483372 0.481667 0.483845
0.491410 0.489363 0.489328
0.620323 0.622733 0.624253
0.478534 0.488642 0.488720
0.528100 0.529114 0.526564
0.471265 0.468457 0.465884
0.506559 0.512309 0.526011
0.582255 0.582187 0.586625
0.589033 0.589237 0.589524
0.632272 0.633900 0.630794
0.471423 0.472574 0.475405
0.557320 0.576094 0.577294
0.425084 0.430671 0.431031
0.387522 0.389982 0.389677
0.545299 0.572977 0.582525
0.440258 0.442233 0.442372
0.409548 0.411518 0.412474
0.547853 0.543618 0.539469
0.413134 0.412059 0.409146
0.589818 0.591290 0.593969
0.417221 0.416797 0.414982
0.532320 0.534012 0.537134
0.531443 0.532554 0.530794
0.487553 0.484713 0.484955
0.557392 0.564085 0.566436
0.533957 0.531298 0.531496
0.472143 0.472644 0.471808
0.496452 0.491774 0.490800
0.444837 0.445651 0.445598
0.386725 0.389849 0.390634
0.488763 0.488535 0.488667
0.645249 0.640992 0.640362
0.552774 0.573016 0.580922
0.606323 0.608375 0.609370
0.444742 0.445389 0.440349
0.406346 0.408688 0.411025
0.669484 0.667386 0.664120
0.383904 0.386177 0.389987
0.419985 0.419502 0.417420
0.463351 0.459906 0.455771
0.453694 0.453082 0.448764
0.396017 0.388157 0.383929
0.643302 0.643226 0.639834
0.592668 0.591840 0.569847
0.420731 0.420528 0.421645
0.489116 0.483830 0.484076
0.673494 0.678033 0.678914
0.589103 0.587248 0.583571
0.596741 0.596716 0.599225
0.410400 0.412064 0.413177
0.415275 0.415302 0.412455
0.534267 0.534978 0.537197
0.453054 0.452842 0.454712
0.489983 0.490304 0.492244
0.497193 0.504235 0.504904
0.418153 0.419990 0.434541
0.461150 0.460464 0.462178
0.618794 0.616045 0.612202
0.451831 0.452338 0.451645
0.421707 0.419474 0.417813
0.325407 0.325593 0.324134
0.598229 0.598517 0.597540
0.474485 0.484603 0.490391
0.474158 0.476343 0.477896
0.491009 0.494362 0.495371
0.665723 0.668541 0.667626
0.553840 0.553692 0.553210
0.396504 0.400550 0.400634
0.518971 0.519763 0.521227
0.508459 0.508949 0.509078
0.670833 0.665572 0.664382
0.474777 0.473883 0.473618
0.525291 0.525822 0.528334
0.399021 0.399359 0.399489
0.353312 0.352853 0.356250
0.492174 0.493265 0.496286
0.408851 0.407245 0.409213
0.541923 0.544696 0.542882
0.445689 0.442401 0.443569
0.639037 0.635611 0.634982
0.418067 0.420267 0.420289
0.479886 0.475941 0.474801
0.405968 0.405626 0.405344
0.535291 0.534470 0.532941
0.577216 0.575326 0.573638
0.639024 0.645958 0.647933
0.522318 0.522062 0.521677
0.457602 0.459894 0.459234
0.503089 0.502956 0.503820
0.476211 0.477493 0.479414
0.456022 0.453139 0.454037
0.658453 0.657947 0.655688
0.495548 0.494059 0.496431
0.437783 0.439765 0.440272
0.447646 0.453145 0.452879
0.601820 0.600454 0.601497
0.416381 0.414760 0.415409
0.502613 0.505705 0.505634
0.673103 0.670934 0.649331
0.450026 0.448505 0.446538
0.492121 0.493181 0.491101
0.405429 0.405669 0.406355
0.549685 0.547160 0.547450
0.484083 0.475697 0.475365
0.536006 0.538776 0.537231
0.412669 0.409288 0.407720
0.491920 0.492517 0.492745
0.551590 0.550699 0.549485
0.433633 0.435584 0.444848
0.512282 0.501833 0.501006
0.484828 0.492886 0.492944
0.460155 0.461163 0.461462
0.508029 0.509454 0.513534
0.381974 0.383628 0.384402
0.512680 0.511905 0.510837
0.461592 0.462092 0.461033
0.418098 0.417892 0.418351
0.580310 0.578265 0.579309
0.490176 0.491459 0.489342
0.612612 0.611017 0.608842
0.392694 0.396393 0.407436
0.420575 0.416618 0.423328
0.669116 0.679734 0.680678
0.637912 0.639282 0.638129
0.474112 0.479360 0.476539
0.408741 0.407713 0.408705
0.491316 0.491296 0.492535
0.649217 0.646984 0.646104
0.395571 0.394990 0.392244
0.391839 0.391909 0.393240
0.479934 0.481881 0.483374
0.407337 0.406603 0.406086
0.474973 0.472327 0.467764
0.470561 0.471379 0.475162
0.477378 0.479729 0.481602
0.446872 0.446604 0.442808
0.531918 0.531948 0.530965
0.609561 0.625603 0.620903
0.414810 0.415287 0.417410
0.614932 0.634142 0.632902
0.451936 0.450145 0.452615
0.493285 0.491398 0.489236
0.441390 0.428456 0.433596
0.608475 0.608898 0.626279
0.424942 0.423407 0.424868
0.487487 0.484452 0.484632
0.481150 0.482869 0.487125
0.469824 0.469860 0.471081
0.694712 0.692424 0.695437
0.600724 0.601817 0.595373
0.448812 0.447877 0.443033
0.489919 0.488051 0.489466
0.650849 0.644737 0.646845
0.598902 0.598071 0.593997
0.499896 0.519753 0.515999
0.478916 0.480895 0.480823
0.508840 0.511907 0.510826
0.400794 0.398606 0.393019
0.481156 0.484077 0.483678
0.567753 0.566916 0.570036
0.444887 0.447466 0.454095
0.462268 0.460103 0.460644
0.573206 0.573274 0.572394
0.465555 0.464396 0.463768
0.552686 0.552191 0.548617
0.465052 0.467699 0.475675
0.478146 0.476432 0.472192
0.639009 0.638647 0.639070
0.509150 0.514307 0.515491
0.608311 0.609805 0.607065
0.451814 0.450982 0.446301
0.525290 0.528487 0.528270
0.483869 0.482333 0.489496
0.465869 0.466921 0.473587
0.421723 0.419428 0.420908
0.513620 0.507540 0.507597
0.442351 0.440687 0.437792
0.489845 0.488527 0.480358
0.495445 0.493397 0.496927
0.471908 0.472991 0.473949
0.417121 0.415739 0.413909
0.515688 0.514858 0.515073
0.460817 0.459343 0.460190
0.489832 0.486512 0.482006
0.367211 0.366208 0.366398
0.480517 0.481104 0.483397
0.528677 0.529618 0.538966
0.495206 0.489544 0.489203
0.459423 0.458746 0.458799
0.477641 0.478887 0.480592
0.568158 0.567826 0.565186
0.445732 0.438310 0.436036
0.438114 0.437945 0.439356
0.553986 0.552846 0.548463
0.436632 0.433437 0.433820
0.442521 0.443157 0.444641
0.488944 0.512673 0.515133
0.459098 0.460887 0.463738
0.425577 0.426044 0.425849
0.451328 0.451120 0.443872
0.581141 0.576499 0.574365
0.381484 0.381713 0.384618
0.524843 0.530945 0.532260
0.422280 0.422379 0.422441
0.586652 0.586233 0.585360
0.677269 0.676890 0.673112
0.436931 0.437261 0.434666
0.489563 0.484380 0.484713
0.463259 0.460593 0.445352
0.464903 0.464272 0.467771
0.478882 0.477839 0.475090
0.414422 0.413191 0.413556
0.534732 0.534732 0.535127
0.495950 0.493599 0.491664
0.441872 0.444703 0.444837
0.547126 0.548067 0.548660
0.420133 0.418534 0.418831
0.433423 0.435692 0.437745
0.553509 0.557585 0.559683
0.573407 0.574505 0.576204
0.578805 0.577908 0.576178
0.467359 0.466028 0.466146
0.611024 0.613943 0.619687
0.534768 0.529821 0.528407
0.656384 0.655104 0.655079
0.524995 0.526398 0.527667
0.451548 0.450342 0.453564
0.550765 0.553796 0.554579
0.423318 0.421538 0.420224
0.464389 0.468002 0.467957
0.481044 0.481111 0.481999
0.487110 0.486496 0.493108
0.449439 0.448318 0.452140
0.408061 0.408655 0.408005
0.386679 0.389977 0.390323
0.427604 0.425049 0.424303
0.446119 0.442616 0.442618
0.415459 0.419479 0.418545
0.489736 0.486409 0.485792
0.493797 0.487796 0.489352
0.487972 0.487189 0.484547
0.481300 0.480731 0.481447
0.700586 0.700530 0.704513
0.440037 0.437213 0.435123
0.522059 0.521186 0.525315
0.490940 0.490936 0.491471
0.494266 0.493354 0.505982
0.504791 0.505343 0.508570
0.455229 0.455345 0.451215
0.523824 0.523617 0.524580
0.393920 0.391487 0.389420
0.510852 0.513112 0.514685
0.518551 0.519651 0.519567
0.523198 0.521142 0.527838
0.437371 0.441906 0.440824
0.453706 0.456520 0.457770
0.518008 0.516706 0.512155
0.548047 0.549090 0.551164
0.446808 0.451233 0.440861
0.484251 0.489474 0.489702
0.492938 0.488567 0.489316
0.421174 0.422051 0.422633
0.404097 0.404511 0.406010
0.480212 0.455028 0.452409
0.486244 0.488815 0.480503
0.523638 0.524083 0.523431
0.489507 0.489416 0.489412
0.455182 0.454465 0.458551
0.424250 0.426558 0.428071
0.425072 0.422011 0.417301
0.415976 0.418521 0.422461
0.503158 0.503787 0.504442
0.490752 0.491414 0.491306
0.547341 0.545601 0.551775
0.441732 0.443126 0.443718
0.642507 0.642130 0.636211
0.554185 0.553111 0.553127
0.463676 0.463932 0.467472
0.488072 0.493616 0.503650
0.474885 0.476673 0.479012
0.484603 0.490391 0.489736
0.455785 0.461691 0.463968
0.662810 0.662951 0.662260
0.481117 0.477846 0.472912
0.523408 0.523680 0.526692
0.474674 0.479234 0.481950
0.410422 0.413860 0.414663
0.552198 0.555432 0.557601
0.404150 0.404577 0.403297
0.494480 0.495445 0.493397
0.494435 0.493080 0.492586
0.462166 0.464698 0.474507
0.489163 0.488376 0.487560
0.493117 0.493397 0.493070
0.516476 0.516237 0.514572
0.452181 0.456817 0.454417
0.529678 0.532400 0.532806
0.568760 0.584761 0.587016
0.509546 0.501998 0.501265
0.397350 0.396399 0.392523
0.616647 0.615625 0.614932
0.404670 0.404150 0.404577
0.475289 0.474605 0.476948
0.419976 0.420828 0.419059
0.567750 0.566171 0.566643
0.417851 0.419478 0.414485
0.480994 0.479593 0.483287
0.550039 0.551553 0.553707
0.430247 0.433056 0.432552
0.402886 0.412228 0.411813
0.488572 0.488674 0.483763
0.397067 0.395484 0.392326
0.523775 0.524308 0.524792
0.485994 0.486205 0.487167
0.425153 0.433792 0.435574
0.464089 0.464796 0.464517
0.437820 0.440313 0.442094
0.481877 0.484434 0.486090
0.466755 0.466088 0.462741
0.352874 0.358427 0.365966
0.477252 0.475514 0.466788
0.457644 0.459646 0.460341
0.438671 0.436474 0.434157
0.488965 0.488639 0.487277
0.402781 0.401694 0.401382
0.573451 0.574826 0.570879
0.375349 0.377354 0.379458
0.502168 0.499270 0.502907
0.500607 0.501520 0.500505
0.584677 0.576729 0.576334
0.504163 0.503407 0.502776
0.516428 0.517619 0.517104
0.554568 0.555046 0.558255
0.519090 0.518383 0.516480
0.440290 0.441532 0.443390
0.559340 0.561631 0.563132
0.420679 0.418397 0.418604
0.411049 0.411489 0.415539
0.444920 0.454838 0.465559
0.470837 0.471882 0.472662
0.481090 0.481101 0.480071
0.404387 0.405272 0.400033
0.520760 0.519995 0.522467
0.417569 0.415632 0.415821
0.634537 0.633624 0.636357
0.579764 0.580535 0.579305
0.401567 0.401666 0.401418
0.486904 0.486502 0.488703
0.387681 0.389474 0.391660
0.575082 0.574080 0.577230
0.425989 0.420668 0.420277
0.428087 0.419727 0.417022
0.502627 0.509253 0.509935
0.509810 0.504731 0.505123
0.550913 0.546745 0.555306
0.516484 0.521902 0.532838
0.475374 0.478102 0.479369
0.479215 0.478448 0.477261
0.468033 0.468475 0.466360
0.485792 0.500211 0.502382
0.457655 0.454962 0.453726
0.543743 0.549841 0.553390
0.392779 0.402465 0.408580
0.438373 0.433821 0.432531
0.473627 0.472279 0.475478
0.449690 0.446867 0.447386
0.447107 0.454685 0.458660
0.626944 0.627547 0.626445
0.453971 0.454522 0.457989
0.512331 0.513092 0.507381
0.407762 0.407871 0.409699
0.503513 0.498793 0.497541
0.377102 0.379462 0.378306
0.409359 0.408088 0.408402
0.458826 0.453802 0.447064
0.514828 0.513864 0.499685
0.450145 0.452615 0.454294
0.438299 0.438470 0.437633
0.401418 0.404974 0.408639
0.465775 0.459815 0.457719
0.535285 0.531488 0.543209
0.478178 0.478105 0.478781
0.501998 0.501265 0.502843
0.472894 0.475740 0.476869
0.459412 0.461723 0.463662
0.428687 0.430998 0.430826
0.533224 0.532388 0.531438
0.487405 0.487160 0.486082
0.415272 0.417980 0.415884
0.556855 0.553060 0.551907
0.470404 0.464779 0.466702
0.407255 0.406054 0.404781
0.408088 0.408402 0.408538
0.449418 0.450841 0.450831
0.572119 0.573255 0.568847
0.455498 0.457700 0.455121
0.613653 0.612412 0.611754
0.449363 0.449811 0.447783
0.509510 0.510953 0.513559
0.529114 0.530731 0.529697
0.485429 0.484173 0.490568
0.463219 0.462321 0.455295
0.672165 0.671286 0.671410
0.462236 0.465117 0.466985
0.432334 0.435574 0.436247
0.521231 0.521798 0.524171
0.396715 0.394126 0.394213
0.434802 0.434661 0.434144
0.476570 0.478731 0.476548
0.457950 0.457257 0.457727
0.418933 0.419571 0.420227
0.446181 0.445777 0.447288
0.490920 0.493096 0.495031
0.499859 0.500261 0.502393
0.619791 0.619930 0.623794
0.650365 0.648381 0.642677
0.420325 0.419640 0.415527
0.552861 0.553384 0.555364
0.424367 0.427844 0.429701
0.443150 0.437010 0.435683
0.458021 0.470879 0.471964
0.419962 0.419231 0.419796
0.535895 0.535751 0.536480
0.564960 0.560982 0.545510
0.490210 0.489816 0.489418
0.428001 0.427604 0.425049
0.667127 0.665920 0.667095
0.515736 0.511506 0.511154
0.544770 0.542221 0.542125
0.471681 0.472881 0.473688
0.619879 0.617942 0.618215
0.418458 0.418114 0.414175
0.534347 0.537963 0.535985
0.464374 0.464048 0.457646
0.568574 0.585962 0.590038
0.522364 0.524310 0.522923
0.428068 0.428428 0.422874
0.605916 0.604876 0.602616
0.491286 0.491267 0.490639
0.478115 0.477140 0.477143
0.476526 0.481238 0.482754
0.436985 0.436524 0.436632
0.412981 0.407957 0.407348
0.387754 0.388662 0.391236
0.418446 0.417818 0.425606
0.418530 0.423285 0.425042
0.544414 0.543375 0.541997
0.441562 0.443139 0.437504
0.568168 0.570056 0.571924
0.443544 0.446391 0.445363
0.395352 0.392375 0.394218
0.521488 0.515792 0.515382
0.430590 0.431759 0.429234
0.457085 0.459549 0.457884
0.373273 0.372961 0.373302
0.519507 0.518059 0.519035
0.665039 0.664943 0.665304
0.466757 0.457489 0.455092
0.424834 0.421622 0.413656
0.414155 0.412561 0.413987
0.411456 0.408355 0.410640
0.552276 0.551701 0.552759
0.423887 0.421871 0.417195
0.420246 0.420181 0.421533
0.478958 0.472797 0.470993
0.485163 0.486235 0.488897
0.471590 0.475703 0.479008
0.596846 0.595448 0.594652
0.642429 0.641030 0.639893
0.556305 0.551585 0.553632
0.671301 0.670182 0.666678
0.522118 0.527044 0.527582
0.539074 0.536916 0.532567
0.520762 0.522109 0.525042
0.384516 0.387491 0.389939
0.474509 0.472951 0.471420
0.512993 0.514620 0.515937
0.492459 0.490155 0.483091
0.456143 0.454033 0.461747
0.538004 0.538040 0.537919
0.405111 0.403945 0.404506
0.493616 0.503650 0.510073
0.438209 0.446003 0.442042
0.536912 0.539059 0.539089
0.470897 0.470586 0.470339
0.445590 0.443745 0.442232
0.480781 0.488425 0.490862
0.455534 0.454517 0.451880
0.445555 0.444544 0.444316
0.428309 0.428412 0.429189
0.472007 0.481980 0.482958
0.571437 0.567647 0.559369
0.559536 0.553847 0.553084
0.457363 0.459743 0.460874
0.548834 0.541764 0.541594
0.462713 0.456027 0.452990
0.503313 0.504583 0.503404
0.401909 0.401622 0.401661
0.421347 0.422649 0.425514
0.613569 0.611698 0.612456
0.456466 0.460006 0.460523
0.400522 0.402082 0.398959
0.492268 0.491595 0.490707
0.461698 0.460014 0.459589
0.501734 0.504897 0.511487
0.431252 0.429478 0.421253
0.544055 0.545003 0.547225
0.386211 0.384490 0.389841
0.514391 0.514947 0.518199
0.428959 0.430298 0.430333
0.475578 0.472779 0.473577
0.390841 0.395603 0.397553
0.416134 0.414810 0.415287
0.484833 0.481444 0.477848
0.515566 0.514631 0.522515
0.511038 0.503754 0.503124
0.448793 0.446705 0.443856
0.432949 0.435900 0.436647
0.530408 0.529496 0.534758
0.404847 0.404962 0.398006
0.400990 0.401320 0.400675
0.463313 0.463201 0.461901
0.517931 0.519225 0.518747
0.527229 0.527707 0.529995
0.467629 0.464825 0.461211
0.413384 0.413794 0.413856
0.438606 0.437549 0.437089
0.475221 0.474059 0.462703
0.608233 0.609031 0.602538
0.463496 0.463014 0.462478
0.466620 0.462746 0.464057
0.504748 0.504736 0.504176
0.482727 0.482136 0.480153
0.478805 0.474504 0.472879
0.476078 0.477535 0.477617
0.463140 0.463356 0.458039
0.411879 0.409254 0.409365
0.402124 0.399727 0.404634
0.437839 0.439083 0.436725
0.438841 0.438305 0.438605
0.440072 0.437557 0.434309
0.497417 0.496840 0.495916
0.419176 0.419158 0.417932
0.458765 0.457257 0.457246
0.405732 0.405429 0.405669
0.471649 0.473225 0.474681
0.615384 0.616801 0.614922
0.458012 0.452806 0.452734
0.473573 0.470665 0.472767
0.429612 0.429709 0.429783
0.451248 0.451330 0.453436
0.444804 0.448964 0.449990
0.605110 0.604814 0.604236
0.481134 0.483136 0.481232
0.415017 0.417028 0.416240
0.423046 0.430098 0.433236
0.401150 0.403827 0.408831
0.456727 0.457926 0.460549
