0.114283 0.114400 0.116026
0.118720 0.118386 0.118776
0.122086 0.124053 0.124129
0.140376 0.140186 0.140365
0.126653 0.127615 0.128076
0.116304 0.116752 0.116874
0.126789 0.128225 0.127805
0.106737 0.107370 0.106241
0.114075 0.114194 0.113953
0.126244 0.126076 0.122251
0.126158 0.122958 0.123513
0.120169 0.118804 0.118207
0.129569 0.130603 0.130704
0.117485 0.117953 0.117587
0.114028 0.113043 0.113708
0.111209 0.112832 0.114431
0.128023 0.128533 0.128750
0.106885 0.105914 0.107129
0.124822 0.124621 0.124809
0.116655 0.116511 0.115473
0.119009 0.118704 0.118223
0.107016 0.106573 0.107378
0.117872 0.116088 0.116681
0.129268 0.129004 0.130460
0.117862 0.118305 0.117720
0.122179 0.122075 0.122668
0.124298 0.125577 0.123634
0.115446 0.115729 0.115926
0.114433 0.114233 0.113401
0.112320 0.113174 0.112175
0.125668 0.125366 0.125228
0.123488 0.122859 0.121585
0.115621 0.115928 0.115224
0.116337 0.115952 0.115824
0.113102 0.112641 0.112620
0.138210 0.137999 0.137925
0.121407 0.122698 0.121677
0.134260 0.130810 0.129639
0.110701 0.110846 0.111054
0.117156 0.117611 0.118371
0.114859 0.114115 0.114412
0.113896 0.116100 0.115590
0.131755 0.130995 0.130857
0.126086 0.125298 0.125260
0.124048 0.123649 0.123670
0.124261 0.124672 0.124568
0.131361 0.130760 0.128688
0.118286 0.117882 0.119112
0.119290 0.119247 0.118157
0.121026 0.120932 0.120516
0.127128 0.128036 0.127633
0.112113 0.113053 0.114216
0.112838 0.113840 0.114837
0.129517 0.129432 0.129628
0.128707 0.129676 0.129507
0.110642 0.110579 0.109792
0.132346 0.132771 0.132597
0.119590 0.118204 0.117977
0.124933 0.124682 0.124090
0.120428 0.120425 0.120618
0.120353 0.120490 0.119175
0.121573 0.120750 0.120854
0.127377 0.126691 0.126770
0.115888 0.116042 0.116021
0.121857 0.122091 0.122630
0.105158 0.104470 0.104277
0.117558 0.117431 0.117556
0.117664 0.117302 0.117689
0.119501 0.120264 0.120449
0.111504 0.111179 0.109064
0.112757 0.112897 0.112511
0.114138 0.114822 0.114371
0.122084 0.121600 0.120687
0.122290 0.123358 0.123884
0.116689 0.116146 0.114781
0.114859 0.114400 0.113111
0.127127 0.127528 0.126983
0.118757 0.119857 0.121288
0.129366 0.129261 0.129234
0.119686 0.120435 0.120312
0.119707 0.119698 0.118851
0.112723 0.112357 0.112588
0.122875 0.122169 0.121497
0.117114 0.117339 0.116727
0.125974 0.125431 0.125415
0.124397 0.125421 0.126438
0.130497 0.129194 0.128184
0.108124 0.108715 0.108920
0.104634 0.103264 0.104361
0.112725 0.112434 0.112002
0.108191 0.108048 0.108543
0.118356 0.119044 0.119112
0.114729 0.114724 0.114775
0.121693 0.122742 0.123037
0.119470 0.119200 0.119265
0.130348 0.130996 0.131853
0.121594 0.122148 0.123935
0.139345 0.138472 0.136160
0.123571 0.124172 0.124252
0.141484 0.142751 0.143287
0.148468 0.148855 0.148492
0.126088 0.126186 0.125621
0.123729 0.124993 0.125702
0.120083 0.119734 0.119331
0.119970 0.118912 0.117517
0.133399 0.133154 0.132435
0.139450 0.136666 0.135810
0.126345 0.126564 0.128093
0.128555 0.127631 0.128903
0.119243 0.118914 0.117965
0.129291 0.129919 0.130548
0.131026 0.131119 0.131609
0.117445 0.117450 0.116648
0.139499 0.138795 0.137969
0.131495 0.130195 0.129314
0.137366 0.140058 0.139713
0.119626 0.120458 0.119108
0.160340 0.156933 0.157082
0.125920 0.125994 0.126221
0.122217 0.122039 0.121860
0.111154 0.111793 0.111113
0.115244 0.115481 0.115787
0.122007 0.122746 0.122705
0.113969 0.113998 0.113380
0.124697 0.124770 0.123973
0.123526 0.123594 0.122995
0.115439 0.114848 0.115353
0.124052 0.123433 0.123257
0.128747 0.129454 0.129120
0.125148 0.125412 0.126268
0.121240 0.119846 0.120136
0.160462 0.159488 0.158225
0.116743 0.116501 0.117253
0.119044 0.119508 0.119538
0.120163 0.119790 0.119776
0.112510 0.112579 0.111758
0.128056 0.128608 0.129229
0.134826 0.134073 0.134922
0.109665 0.110427 0.111996
0.134673 0.133705 0.135401
0.116736 0.117036 0.116445
0.120470 0.121483 0.121439
0.122702 0.122609 0.122915
0.126217 0.125382 0.124701
0.125002 0.125105 0.125738
0.117201 0.117269 0.116580
0.145336 0.145085 0.142794
0.121588 0.121107 0.121292
0.125654 0.125704 0.126841
0.115525 0.115230 0.115047
0.132131 0.133827 0.131926
0.127785 0.127695 0.128668
0.108505 0.108340 0.109564
0.112139 0.112759 0.112757
0.119452 0.119434 0.118918
0.119547 0.119501 0.120264
0.134078 0.134293 0.134892
0.124370 0.124298 0.124838
0.138431 0.138968 0.139993
0.119674 0.118957 0.120101
0.129147 0.131745 0.130208
0.137000 0.136448 0.136363
0.137308 0.136217 0.135727
0.117807 0.117660 0.116543
0.115509 0.115929 0.115470
0.138628 0.137154 0.137293
0.118281 0.118327 0.118819
0.117875 0.117993 0.119008
0.126435 0.127358 0.128306
0.110445 0.109940 0.110968
0.143662 0.141864 0.142470
0.117773 0.116883 0.117048
0.116546 0.116928 0.116964
0.130449 0.130398 0.130790
0.127210 0.128235 0.128846
0.126013 0.126487 0.126888
0.112912 0.112465 0.112330
0.121959 0.121947 0.122448
0.120131 0.119537 0.118586
0.129764 0.128067 0.128714
0.119169 0.119042 0.118123
0.115802 0.114911 0.113332
0.156161 0.155941 0.155614
0.144026 0.145039 0.147036
0.118107 0.118361 0.117337
0.116823 0.116879 0.118148
0.129294 0.130320 0.130979
0.106080 0.106620 0.107933
0.116264 0.116679 0.117319
0.127279 0.127174 0.127307
0.127823 0.127501 0.127599
0.133956 0.133246 0.131854
0.114289 0.113087 0.113276
0.128718 0.127427 0.127034
0.127519 0.126969 0.127956
0.117830 0.116900 0.116033
0.121971 0.122294 0.122874
0.112431 0.113613 0.113415
0.119615 0.118211 0.118359
0.107500 0.107926 0.107156
0.116063 0.115418 0.114575
0.117737 0.117367 0.117464
0.128088 0.128208 0.126667
0.113064 0.112545 0.112168
0.125531 0.125072 0.125244
0.140108 0.140233 0.140205
0.121019 0.121472 0.121451
0.123360 0.123449 0.124257
0.124180 0.123636 0.123836
0.127727 0.129126 0.129026
0.123822 0.124013 0.125255
0.134654 0.133953 0.132768
0.125958 0.126261 0.126585
0.116697 0.116281 0.116214
0.128489 0.126051 0.124330
0.116930 0.117922 0.119138
0.109400 0.108862 0.108652
0.111181 0.111560 0.111303
0.115594 0.116043 0.116063
0.109108 0.108264 0.108221
0.139985 0.139132 0.138647
0.127436 0.127333 0.127166
0.110081 0.109633 0.109088
0.139754 0.139253 0.138958
0.112651 0.112119 0.111479
0.120654 0.121190 0.122950
0.130721 0.131100 0.131706
0.130753 0.127895 0.123056
0.158365 0.158299 0.158190
0.129458 0.130725 0.130688
0.130185 0.130316 0.129678
0.129719 0.129815 0.127745
0.125008 0.124680 0.123984
0.129925 0.129404 0.127046
0.121215 0.120891 0.120393
0.117187 0.118140 0.118173
0.124553 0.123819 0.124009
0.127031 0.127153 0.127774
0.118839 0.119498 0.119342
0.114964 0.115017 0.114683
0.124850 0.124515 0.124303
0.114777 0.114036 0.114834
0.119713 0.119439 0.119368
0.123971 0.126074 0.126513
0.112100 0.113046 0.113324
0.156998 0.155462 0.153991
0.123822 0.123882 0.123818
0.151836 0.151073 0.149659
0.134190 0.132671 0.131230
0.110524 0.109383 0.109500
0.119094 0.118652 0.119572
0.120066 0.119756 0.118781
0.121624 0.120814 0.121414
0.122868 0.123563 0.123642
0.127043 0.127120 0.128265
0.153967 0.153822 0.153954
0.116700 0.118348 0.117925
0.111674 0.112375 0.112413
0.113380 0.113217 0.113919
0.120058 0.119835 0.119169
0.120302 0.121133 0.122734
0.122201 0.122331 0.121926
0.130556 0.129802 0.129559
0.120599 0.121468 0.121888
0.120602 0.121279 0.121317
0.119168 0.119877 0.119512
0.140226 0.140371 0.138459
0.122881 0.122681 0.122264
0.124894 0.126228 0.126314
0.128118 0.128038 0.128644
0.118922 0.119404 0.118227
0.117861 0.117692 0.117566
0.123347 0.123658 0.123531
0.124159 0.124660 0.124208
0.121377 0.122146 0.121896
0.125109 0.123918 0.123478
0.122376 0.120317 0.119160
0.139356 0.139767 0.140246
0.115077 0.115368 0.115580
0.130960 0.129367 0.128244
0.123934 0.125182 0.125073
0.130367 0.130440 0.131296
0.134143 0.134607 0.134919
0.124684 0.124640 0.124100
0.125504 0.125225 0.123909
0.119821 0.119389 0.118814
0.139916 0.139799 0.139875
0.118665 0.118820 0.119114
0.113984 0.114750 0.114178
0.105752 0.105643 0.106652
0.147253 0.148905 0.149762
0.115922 0.115509 0.115048
0.123936 0.123364 0.122433
0.123033 0.123208 0.122551
0.110429 0.110656 0.111113
0.125093 0.124862 0.125062
0.124677 0.124152 0.123407
0.112484 0.112960 0.113062
0.123399 0.123638 0.123129
0.133033 0.133133 0.133031
0.122195 0.121251 0.121508
0.124697 0.124415 0.124291
0.132889 0.133469 0.133299
0.135896 0.135723 0.135290
0.114578 0.114256 0.114113
0.129621 0.129010 0.130105
0.131464 0.131291 0.130251
0.118395 0.117114 0.116894
0.125047 0.125452 0.125120
0.120242 0.120738 0.119968
0.117431 0.118457 0.118808
0.116262 0.117285 0.117737
0.116199 0.116199 0.118648
0.112649 0.112321 0.110782
0.132430 0.132535 0.133653
0.124898 0.125263 0.125318
0.117175 0.116478 0.116532
0.122874 0.121681 0.122034
0.113486 0.112108 0.112116
0.120635 0.119938 0.118588
0.116513 0.117352 0.118368
0.127109 0.127884 0.128484
0.123464 0.123453 0.124290
0.132536 0.132315 0.131691
0.134201 0.134138 0.134143
0.118860 0.118471 0.119514
0.123208 0.122551 0.121964
0.130575 0.131119 0.131672
0.125644 0.126248 0.126081
0.115103 0.114545 0.113697
0.120314 0.119517 0.119055
0.118677 0.119491 0.119372
0.131983 0.130738 0.130776
0.120356 0.121708 0.121613
0.115943 0.116355 0.117408
0.125256 0.126003 0.125725
0.118729 0.119825 0.120064
0.149772 0.150399 0.150969
0.125727 0.126286 0.126418
0.131363 0.131232 0.132868
0.129910 0.129664 0.129476
0.105843 0.105336 0.104853
0.113005 0.112939 0.112680
0.117846 0.116458 0.116820
0.119451 0.119524 0.119851
0.110897 0.111863 0.112316
0.123780 0.124838 0.125882
0.125814 0.126888 0.126847
0.115374 0.114600 0.114920
0.133664 0.133694 0.134554
0.126507 0.127325 0.127177
0.118725 0.118279 0.118453
0.115478 0.114597 0.113936
0.153232 0.150244 0.150301
0.113953 0.112898 0.113499
0.106276 0.105750 0.106250
0.132234 0.132376 0.131471
0.123020 0.123199 0.123611
0.117529 0.118505 0.118171
0.127526 0.128636 0.128847
0.131031 0.130006 0.129954
0.112173 0.111952 0.112141
0.115195 0.116243 0.116379
0.115983 0.115326 0.113847
0.131544 0.132191 0.132471
0.129232 0.128237 0.130797
0.125702 0.125791 0.126683
0.122783 0.122544 0.123103
0.118112 0.118794 0.119003
0.105610 0.105604 0.106158
0.119328 0.118646 0.118516
0.110563 0.110494 0.111653
0.121910 0.121475 0.121612
0.127407 0.127912 0.128670
0.122131 0.121803 0.121994
0.122486 0.122787 0.123062
0.126609 0.125525 0.123667
0.117150 0.117359 0.117224
0.109437 0.109246 0.109122
0.129285 0.129515 0.130042
0.121661 0.121845 0.121811
0.114378 0.114891 0.115187
0.137514 0.137415 0.136387
0.139841 0.139339 0.139306
0.137094 0.137446 0.135685
0.120439 0.119877 0.119956
0.118316 0.118548 0.117908
0.122608 0.121729 0.121962
0.126463 0.127091 0.127357
0.121655 0.121771 0.122370
0.121704 0.120607 0.120263
0.109251 0.109436 0.109333
0.115689 0.116459 0.116837
0.104373 0.105174 0.106273
0.105597 0.106524 0.106539
0.128713 0.128654 0.125865
0.127116 0.127677 0.127758
0.122301 0.122769 0.122834
0.130741 0.130828 0.130856
0.128548 0.128918 0.129436
0.115313 0.115612 0.115152
0.112966 0.112262 0.111624
0.122086 0.121722 0.121742
0.121015 0.120739 0.122339
0.126415 0.126688 0.126656
0.121373 0.121471 0.121020
0.123782 0.124422 0.124210
0.118035 0.119369 0.119222
0.136746 0.136824 0.135954
0.114663 0.114459 0.115009
0.117101 0.116193 0.114074
0.127155 0.125957 0.125622
0.121733 0.122465 0.123496
0.128938 0.128550 0.128561
0.117770 0.118428 0.117987
0.118302 0.117391 0.116436
0.118350 0.119681 0.119282
0.124882 0.124853 0.124690
0.140046 0.139538 0.139741
0.124600 0.123589 0.123374
0.114196 0.113659 0.113725
0.124490 0.124704 0.124685
0.112371 0.112674 0.112583
0.129044 0.129177 0.129317
0.129246 0.129943 0.130080
0.117869 0.116767 0.117032
0.123398 0.123634 0.124119
0.127332 0.127704 0.127696
0.123827 0.123985 0.123475
0.134507 0.134784 0.134149
0.140290 0.139954 0.139081
0.158980 0.160169 0.160316
0.121350 0.121971 0.124106
0.117802 0.116934 0.116695
0.127473 0.127397 0.127794
0.120822 0.121807 0.122246
0.114333 0.114208 0.115779
0.115741 0.116242 0.116240
0.116548 0.117418 0.116724
0.128887 0.129086 0.127914
0.114672 0.114964 0.115086
0.124921 0.127449 0.127137
0.130033 0.131700 0.132267
0.138079 0.137211 0.136852
0.121894 0.121188 0.121479
0.130683 0.130429 0.131329
0.117191 0.118076 0.118558
0.117830 0.116756 0.117095
0.129695 0.128962 0.126917
0.116487 0.116441 0.116968
0.137064 0.136986 0.138040
0.119194 0.118919 0.119133
0.120326 0.120825 0.120145
0.117363 0.117193 0.117312
0.117688 0.117619 0.116891
0.140572 0.141220 0.140947
0.120378 0.120575 0.120650
0.116640 0.116961 0.117887
0.146595 0.145401 0.146414
0.107670 0.107131 0.106690
0.127781 0.128445 0.129213
0.109986 0.110407 0.113376
0.122304 0.121709 0.120075
0.121610 0.121825 0.122762
0.131492 0.131528 0.132111
0.124390 0.125105 0.124794
0.122085 0.121885 0.121352
0.129392 0.128025 0.127967
0.132887 0.131706 0.130551
0.114764 0.116392 0.116613
0.113617 0.113663 0.113489
0.121195 0.120044 0.119735
0.118918 0.119628 0.119710
0.152073 0.151918 0.151570
0.114035 0.113671 0.113442
0.124809 0.126355 0.126100
0.121220 0.120143 0.121007
0.120250 0.120980 0.121007
0.126043 0.127449 0.128877
0.110504 0.109328 0.109969
0.121198 0.121414 0.121469
0.122791 0.123659 0.123874
0.148758 0.148598 0.148593
0.120824 0.120845 0.119569
0.119822 0.120155 0.120753
0.129035 0.128361 0.126577
0.131745 0.130208 0.129564
0.117579 0.116586 0.116396
0.123955 0.123211 0.122422
0.132411 0.131482 0.131069
0.124057 0.123547 0.122632
0.123981 0.124081 0.124277
0.126681 0.126830 0.125967
0.139818 0.139870 0.141443
0.130819 0.130377 0.128422
0.120557 0.121322 0.121431
0.120255 0.120484 0.119603
0.122169 0.123849 0.124252
0.125895 0.126096 0.126644
0.139758 0.138646 0.137179
0.126135 0.125973 0.122962
0.122896 0.123405 0.124913
0.110632 0.110537 0.110521
0.121774 0.121816 0.122055
0.120972 0.120486 0.122969
0.131120 0.130800 0.131545
0.124505 0.123504 0.123769
0.131719 0.131029 0.130756
0.135311 0.135723 0.135975
0.127483 0.126745 0.127083
0.117123 0.116814 0.116618
0.108700 0.107177 0.105641
0.127019 0.126577 0.128010
0.124518 0.124438 0.124700
0.124106 0.123854 0.123321
0.120734 0.120096 0.122450
0.129254 0.129325 0.128872
0.130243 0.130794 0.129897
0.118822 0.118906 0.117723
0.119928 0.118926 0.116585
0.124705 0.125572 0.125321
0.130709 0.131103 0.130980
0.113822 0.113412 0.113229
0.127478 0.127662 0.127656
0.113396 0.113991 0.114223
0.123179 0.122721 0.122743
0.111811 0.112749 0.112705
0.128376 0.127184 0.127906
0.111390 0.111481 0.111595
0.140245 0.141251 0.140951
0.126969 0.127956 0.128228
0.133586 0.132939 0.133327
0.110752 0.111216 0.110583
0.124902 0.126717 0.126177
0.134904 0.135038 0.134909
0.129679 0.129204 0.129536
0.126555 0.126742 0.126089
0.123908 0.123002 0.122416
0.118240 0.118095 0.118488
0.126559 0.127557 0.127766
0.115129 0.114836 0.115344
0.120349 0.120465 0.120232
0.109820 0.109810 0.110070
0.116241 0.114641 0.113803
0.110544 0.110722 0.111317
0.129862 0.129914 0.130647
0.125020 0.125137 0.124857
0.117204 0.117587 0.118766
0.118206 0.117333 0.118022
0.111270 0.111247 0.109382
0.146790 0.146595 0.145401
0.128659 0.128453 0.129619
0.121607 0.120462 0.121376
0.131623 0.131663 0.131280
0.115760 0.115738 0.115605
0.126813 0.125788 0.125055
0.117195 0.118248 0.118181
0.122097 0.122887 0.124902
0.126013 0.124689 0.127673
0.119412 0.119288 0.119730
0.114440 0.115958 0.115754
0.133547 0.134050 0.133579
0.131514 0.132064 0.128239
0.127846 0.128358 0.128980
0.109764 0.109971 0.109250
0.121615 0.121430 0.121377
0.116154 0.116377 0.116243
0.120096 0.119765 0.118930
0.113996 0.113276 0.113280
0.129661 0.129140 0.129000
0.150956 0.150453 0.149797
0.130234 0.129443 0.129543
0.117051 0.116896 0.117225
0.130773 0.128302 0.127659
0.129513 0.128096 0.127826
0.123961 0.122830 0.122427
0.128469 0.128858 0.130808
0.130292 0.130780 0.130576
0.115639 0.117369 0.116971
0.125572 0.125109 0.124489
0.122118 0.121054 0.120796
0.119739 0.119988 0.119481
0.115092 0.115336 0.116909
0.114898 0.115092 0.114231
0.117391 0.118324 0.118115
0.116953 0.116458 0.115543
0.131250 0.132228 0.131988
0.116213 0.115923 0.115667
0.122403 0.123813 0.124654
0.134328 0.133677 0.131241
0.129018 0.128540 0.127681
0.127931 0.126675 0.127086
0.128935 0.128435 0.125872
0.115715 0.116132 0.117155
0.105890 0.106099 0.105683
0.134763 0.134508 0.133842
0.117491 0.118019 0.119090
0.107843 0.108514 0.108057
0.117881 0.118987 0.118214
0.119004 0.118748 0.118893
0.126844 0.126698 0.127141
0.123827 0.122162 0.122125
0.119228 0.119509 0.120646
0.123630 0.124281 0.124336
0.136116 0.136000 0.136041
0.121693 0.121867 0.121527
0.127232 0.127660 0.127621
0.128990 0.128334 0.127748
0.130851 0.129533 0.126337
0.128903 0.129183 0.129749
0.118643 0.119290 0.119247
0.128240 0.127367 0.130151
0.120395 0.119233 0.119466
0.126116 0.126031 0.125812
0.118646 0.117620 0.118388
0.119151 0.117795 0.118061
0.116302 0.116461 0.115821
0.112200 0.113044 0.113764
0.122688 0.122407 0.121243
0.123817 0.123897 0.123467
0.111392 0.111806 0.111554
0.111682 0.111268 0.111458
0.120193 0.120354 0.118970
0.121227 0.120503 0.118979
0.114399 0.115619 0.115473
0.128593 0.128691 0.128865
0.127393 0.127249 0.127043
0.132038 0.132123 0.134336
0.118192 0.118321 0.118199
0.118233 0.118471 0.121553
0.116211 0.117679 0.116696
0.121135 0.122129 0.122887
0.112893 0.114100 0.114450
0.122645 0.121658 0.123232
0.109619 0.108912 0.110458
0.129312 0.129547 0.127303
0.120379 0.120084 0.119445
0.140219 0.140303 0.138844
0.131875 0.131645 0.131496
0.128197 0.128313 0.128706
0.129654 0.129499 0.129282
0.130534 0.131116 0.131714
0.116163 0.116516 0.118076
0.123436 0.123375 0.124887
0.121054 0.121662 0.121688
0.125812 0.125956 0.126176
0.133119 0.130703 0.129472
0.122710 0.122991 0.123437
0.114471 0.116372 0.116413
0.126556 0.126037 0.125314
0.119676 0.118721 0.119009
0.129117 0.129572 0.130156
0.123998 0.124655 0.125091
0.122024 0.121974 0.122245
0.131744 0.131614 0.132608
0.120910 0.121189 0.121509
0.119712 0.120558 0.121684
0.145265 0.144441 0.145611
0.114330 0.114580 0.114087
0.124529 0.124149 0.124145
0.112304 0.111790 0.112037
0.126740 0.125676 0.125987
0.124548 0.124445 0.123746
0.113953 0.114488 0.114386
0.126131 0.126224 0.126502
0.116554 0.115687 0.114870
0.129623 0.129374 0.128775
0.118262 0.119328 0.119472
0.117297 0.117203 0.117300
0.116604 0.116671 0.117022
0.127505 0.126961 0.126176
0.126789 0.126049 0.126224
0.125990 0.126591 0.127089
0.149416 0.149720 0.149724
0.110675 0.111191 0.110332
0.128557 0.127665 0.127943
0.122050 0.122456 0.123021
0.111489 0.110996 0.111242
0.118031 0.118628 0.119192
0.114880 0.114840 0.114920
0.155721 0.156052 0.154111
0.121661 0.122303 0.122454
0.127677 0.127424 0.127874
0.114515 0.114485 0.114636
0.129502 0.129945 0.130124
0.125243 0.124795 0.125616
0.119930 0.120094 0.120121
0.132308 0.128382 0.127984
0.129261 0.129234 0.129758
0.130942 0.131712 0.132549
0.126257 0.126301 0.126164
0.113819 0.114528 0.115510
0.113021 0.113339 0.113099
0.128030 0.127258 0.127483
0.112574 0.111398 0.111618
0.117225 0.117505 0.118554
0.124575 0.124309 0.124026
0.127185 0.127133 0.128146
0.142110 0.142455 0.142844
0.122394 0.121731 0.121867
0.131531 0.131638 0.130982
0.125472 0.126479 0.126295
0.105286 0.105306 0.105571
0.121092 0.122655 0.121841
0.142990 0.142033 0.142415
0.133184 0.132222 0.130980
0.120557 0.120556 0.120463
0.135524 0.134029 0.132226
0.153405 0.158709 0.158184
0.128369 0.128477 0.129307
0.121162 0.120742 0.119737
0.126315 0.126503 0.126152
0.132363 0.132973 0.131758
0.108103 0.107492 0.106865
0.110156 0.110905 0.112158
0.111974 0.111909 0.111901
0.111667 0.111453 0.111591
0.116521 0.115670 0.115667
0.119447 0.119122 0.119997
0.118148 0.118332 0.119163
0.110413 0.111105 0.111954
0.119906 0.119722 0.119676
0.127821 0.127854 0.128262
0.124218 0.124479 0.126065
0.113685 0.114819 0.115508
0.114619 0.115500 0.117457
0.119108 0.118664 0.118366
0.119288 0.118347 0.117451
0.124200 0.122081 0.121744
0.116826 0.117289 0.117646
0.121387 0.121689 0.121392
0.119937 0.120032 0.119777
0.120129 0.119537 0.119102
0.111242 0.110843 0.110081
0.128095 0.129729 0.130363
0.124830 0.125381 0.126096
0.134265 0.133838 0.133635
0.121356 0.120898 0.117459
0.117499 0.118831 0.117981
0.110143 0.109793 0.109146
0.124042 0.124061 0.124057
0.118154 0.119249 0.119993
0.121444 0.121266 0.126112
0.118115 0.117434 0.117602
0.134813 0.135393 0.136071
0.117887 0.117752 0.117363
0.124579 0.125258 0.126449
0.126478 0.125812 0.124720
0.126330 0.126158 0.127515
0.123764 0.123693 0.124183
0.112161 0.112489 0.112422
0.119681 0.120275 0.120322
0.132786 0.132945 0.132839
0.113288 0.113317 0.112760
0.135657 0.135928 0.136218
0.131563 0.129692 0.129669
0.126149 0.127276 0.128743
0.114589 0.114333 0.115651
0.124683 0.125462 0.125020
0.130714 0.131820 0.132236
0.118840 0.118851 0.118775
0.122919 0.123359 0.122743
0.128017 0.126730 0.127735
0.119518 0.119049 0.119170
0.119286 0.119736 0.120542
0.135861 0.135726 0.135642
0.125365 0.125040 0.124927
0.132366 0.132753 0.133078
0.104241 0.103804 0.105086
0.133364 0.133603 0.134038
0.119196 0.121283 0.121115
0.120465 0.120108 0.120211
0.125663 0.125283 0.125322
0.122778 0.122140 0.122185
0.122646 0.124486 0.124395
0.124194 0.124208 0.123729
0.140198 0.138496 0.138728
0.115793 0.116135 0.116049
0.131940 0.129175 0.127914
0.108385 0.107914 0.108323
0.122160 0.122103 0.120681
0.115941 0.115856 0.113844
0.116914 0.116071 0.115744
0.109514 0.109542 0.110004
0.123066 0.123611 0.124677
0.119258 0.119301 0.120075
0.121291 0.121924 0.122092
0.128442 0.126547 0.126687
0.128550 0.129089 0.129009
0.132856 0.133165 0.133115
0.121891 0.122248 0.121742
0.116851 0.117133 0.117012
0.134088 0.134218 0.134075
0.122046 0.122268 0.121576
0.129507 0.129663 0.128629
0.135422 0.134431 0.135127
0.121735 0.122662 0.122685
0.130763 0.131550 0.132129
0.128228 0.128634 0.128623
0.120678 0.120557 0.120411
0.128304 0.128093 0.128639
0.123628 0.122997 0.122612
0.129905 0.130271 0.129145
0.125181 0.124282 0.124825
0.123684 0.123849 0.124375
0.123897 0.123176 0.123338
0.128830 0.129172 0.129654
0.131400 0.131960 0.134377
0.107432 0.109317 0.110281
0.128164 0.127667 0.128106
0.136887 0.136286 0.136096
0.118051 0.117653 0.116348
0.128588 0.128220 0.128154
0.115674 0.116270 0.116360
0.121262 0.121165 0.121300
0.119977 0.120143 0.120099
0.134814 0.134649 0.136371
0.137479 0.137015 0.136437
0.125729 0.127020 0.127029
0.122907 0.123022 0.124106
0.139635 0.138838 0.138692
0.117427 0.116513 0.116648
0.125834 0.126101 0.125790
0.123281 0.122995 0.123572
0.128995 0.129028 0.129085
0.121857 0.121894 0.120627
0.133998 0.132423 0.132832
0.127546 0.127984 0.127939
0.111563 0.111300 0.110091
0.118233 0.118971 0.120976
0.126878 0.127361 0.126063
0.117656 0.117346 0.117117
0.112160 0.113321 0.113563
0.124382 0.124889 0.124784
0.137345 0.138718 0.138079
0.129065 0.128177 0.127825
0.108908 0.105487 0.104263
0.117130 0.117760 0.117867
0.129829 0.130790 0.130583
0.132574 0.135179 0.135204
0.126588 0.125962 0.126007
0.126186 0.123811 0.122165
0.111950 0.111863 0.112433
0.121456 0.122282 0.121829
0.121468 0.121688 0.121813
0.133255 0.133632 0.133819
0.123715 0.122163 0.120782
0.115304 0.116797 0.117044
0.117654 0.118421 0.118315
0.123581 0.123562 0.123739
0.120853 0.121996 0.122544
0.120234 0.121736 0.122237
0.127555 0.127896 0.128244
0.115249 0.115013 0.116859
0.115719 0.114646 0.114483
0.124138 0.126391 0.125315
0.120153 0.120991 0.120194
0.116991 0.115491 0.115786
0.121734 0.119251 0.118581
0.115656 0.116700 0.117037
0.105743 0.105926 0.105533
0.125335 0.125249 0.124472
0.123954 0.124035 0.125001
0.110117 0.110044 0.111089
0.127092 0.129194 0.130240
0.131410 0.132087 0.131795
0.124888 0.125269 0.125066
0.123939 0.123317 0.124042
0.125986 0.125471 0.125171
0.111011 0.109816 0.110001
0.113727 0.113062 0.113022
0.119867 0.119356 0.119396
0.117324 0.117685 0.118155
0.115061 0.115291 0.115510
0.125721 0.125911 0.125075
0.124981 0.124536 0.124453
0.109019 0.110473 0.110822
0.122748 0.121740 0.121959
0.140408 0.141383 0.140708
0.109669 0.109805 0.109835
0.106406 0.106194 0.107284
0.113255 0.113222 0.111104
0.120722 0.119349 0.118985
0.117503 0.117605 0.117608
0.124735 0.123267 0.122423
0.121670 0.121348 0.120275
0.135016 0.136420 0.137240
0.121663 0.121048 0.121313
0.140702 0.140712 0.140386
0.118501 0.118647 0.119415
0.132135 0.131902 0.132379
0.111051 0.111436 0.111279
0.130640 0.129358 0.128959
0.124770 0.123973 0.126594
0.132759 0.132614 0.131051
0.130756 0.131401 0.132233
0.120090 0.119813 0.118824
0.119528 0.118735 0.118523
0.129573 0.127999 0.128151
0.126172 0.126251 0.127735
0.126834 0.126036 0.125606
0.125154 0.125979 0.125235
0.126956 0.127835 0.127870
0.125483 0.124966 0.124209
0.113595 0.114025 0.114656
0.121628 0.121503 0.121614
0.123786 0.124178 0.124020
0.123266 0.123630 0.123427
0.133814 0.134334 0.134132
0.121739 0.121598 0.120909
0.131296 0.131363 0.131232
0.126647 0.126725 0.126520
0.118523 0.118036 0.117995
0.117292 0.118349 0.119281
0.124255 0.122553 0.122429
0.132213 0.132439 0.133332
0.120194 0.120079 0.120465
0.116186 0.115672 0.115704
0.114133 0.113602 0.112165
0.106088 0.105677 0.105739
0.121848 0.121732 0.121606
0.122220 0.122824 0.123010
0.131573 0.129879 0.129963
0.120567 0.121457 0.121827
0.105895 0.106464 0.106239
0.121117 0.121275 0.121939
0.139988 0.138679 0.139110
0.120151 0.120486 0.119542
0.122764 0.122930 0.123273
0.135727 0.135693 0.134533
0.125248 0.123246 0.120241
0.128110 0.128382 0.128204
0.120467 0.121712 0.121449
0.115849 0.116637 0.116396
0.123551 0.123615 0.123208
0.115161 0.115089 0.114332
0.120075 0.120330 0.118991
0.127078 0.127429 0.127808
0.129388 0.128706 0.128131
0.143139 0.142035 0.144047
0.120660 0.119769 0.119867
0.116859 0.117552 0.118915
0.128471 0.128768 0.128213
0.125492 0.124834 0.125182
0.124876 0.125259 0.126220
0.126936 0.128272 0.128238
0.151594 0.150303 0.150373
0.129761 0.126213 0.127041
0.123339 0.123724 0.122805
0.109207 0.109363 0.110106
0.127647 0.127176 0.127004
0.122748 0.121923 0.121443
0.117152 0.117490 0.117674
0.110499 0.110787 0.110886
0.119303 0.119063 0.117892
0.117914 0.117502 0.116097
0.124430 0.124817 0.124316
0.126723 0.126420 0.125353
0.119595 0.119881 0.118383
0.126348 0.125843 0.125679
0.138360 0.138783 0.138910
0.130397 0.131113 0.131492
0.127100 0.127346 0.126806
0.124343 0.124908 0.124057
0.128239 0.129242 0.129620
0.139858 0.139670 0.139339
0.128144 0.128588 0.128220
0.113743 0.113870 0.114097
0.128458 0.127234 0.126644
0.139614 0.139446 0.139941
0.131205 0.132429 0.132987
0.127454 0.126085 0.125029
0.117865 0.117188 0.116458
0.123870 0.124159 0.125092
0.111785 0.111232 0.110667
0.119872 0.120341 0.120649
0.112889 0.111081 0.111390
0.134627 0.134774 0.134752
0.114962 0.114744 0.114502
0.130192 0.130767 0.129352
0.112542 0.113167 0.113058
0.116447 0.115977 0.116308
0.109470 0.109357 0.108953
0.129507 0.129433 0.129804
0.123121 0.124071 0.125136
0.126256 0.125975 0.125893
0.144275 0.144256 0.144260
0.127590 0.129623 0.130323
0.124570 0.124382 0.123601
0.135179 0.135204 0.136222
0.128488 0.128241 0.128095
0.133912 0.134145 0.135477
0.115081 0.114695 0.115735
0.111422 0.110851 0.111208
0.134246 0.134121 0.135590
0.112010 0.111856 0.110708
0.128396 0.128414 0.128061
0.111630 0.112333 0.111917
0.155768 0.156338 0.155699
0.132612 0.132774 0.132597
