0.370748 0.375865 0.377589
0.610874 0.607561 0.605412
0.564778 0.559119 0.545110
0.520996 0.523106 0.526111
0.174352 0.174192 0.173956
0.203605 0.204169 0.206632
0.573517 0.574370 0.574614
0.597597 0.596977 0.598450
0.198906 0.198536 0.196373
0.576567 0.577336 0.581233
0.186362 0.186482 0.186668
0.217904 0.217661 0.217271
0.557243 0.555021 0.554399
0.487340 0.492460 0.493629
0.275978 0.277133 0.277743
0.489178 0.490897 0.502531
0.466051 0.466451 0.467382
0.285887 0.286538 0.287724
0.415936 0.427650 0.429371
0.294069 0.293501 0.293592
0.364769 0.374305 0.386196
0.317936 0.314593 0.312338
0.422694 0.423608 0.425972
0.477939 0.462490 0.462539
0.478890 0.479519 0.479879
0.542005 0.542388 0.542812
0.428870 0.427865 0.427604
0.321542 0.322221 0.322431
0.530476 0.524165 0.522285
0.477688 0.474734 0.467817
0.606188 0.563299 0.544440
0.096312 0.096139 0.096229
0.449874 0.456697 0.452939
0.417886 0.415341 0.414748
0.266907 0.265820 0.262401
0.497030 0.499668 0.499956
0.317284 0.306208 0.302815
0.452180 0.449228 0.458484
0.408765 0.409088 0.409159
0.456409 0.452266 0.450541
0.161231 0.161224 0.161014
0.466183 0.465746 0.466017
0.344307 0.351127 0.354703
0.520632 0.522137 0.527550
0.350662 0.350986 0.351657
0.264127 0.264596 0.265154
0.467865 0.470054 0.470510
0.207109 0.205706 0.204855
0.682819 0.669472 0.656069
0.521240 0.524304 0.531558
0.427739 0.429276 0.431262
0.621228 0.621621 0.625527
0.342353 0.343781 0.341829
0.122457 0.120996 0.120028
0.378229 0.378513 0.378447
0.173571 0.173939 0.174179
0.138719 0.138481 0.138734
0.226104 0.225808 0.225808
0.608468 0.561896 0.545950
0.572428 0.572824 0.572369
0.193015 0.193024 0.192831
0.615076 0.614726 0.616995
0.603552 0.608047 0.617494
0.453495 0.454875 0.454814
0.144588 0.141105 0.139372
0.657940 0.654786 0.648587
0.553468 0.546543 0.543704
0.189494 0.189526 0.189541
0.564443 0.566605 0.568336
0.172880 0.172979 0.173159
0.506671 0.506881 0.504147
0.130227 0.130503 0.131501
0.455630 0.454510 0.455199
0.400730 0.397896 0.406255
0.344940 0.344798 0.344815
0.555759 0.549932 0.548561
0.186571 0.187189 0.187470
0.328654 0.291776 0.277564
0.505315 0.510561 0.514230
0.183589 0.183591 0.183683
0.170493 0.170108 0.170806
0.630651 0.626551 0.621885
0.463287 0.464585 0.461931
0.500278 0.506049 0.497487
0.506634 0.530484 0.528385
0.172378 0.172142 0.172075
0.474474 0.473676 0.473841
0.689438 0.689613 0.690133
0.487737 0.492052 0.488536
0.422265 0.422929 0.423604
0.391454 0.391006 0.392381
0.527776 0.531463 0.547148
0.458275 0.456846 0.453732
0.608713 0.610243 0.609462
0.345374 0.345658 0.343018
0.147895 0.147182 0.146903
0.515511 0.514780 0.512542
0.188730 0.185407 0.174726
0.193542 0.192876 0.192321
0.266108 0.264863 0.266385
0.542370 0.545665 0.558227
0.503605 0.506051 0.503212
0.099081 0.099722 0.100964
0.364490 0.361001 0.358361
0.530506 0.533257 0.493139
0.193289 0.198435 0.205520
0.454265 0.458456 0.467030
0.531268 0.531878 0.531803
0.528179 0.522316 0.519121
0.126851 0.126253 0.125649
0.409187 0.407469 0.407382
0.359247 0.359391 0.359681
0.353456 0.352996 0.349405
0.537990 0.535595 0.532917
0.176110 0.176502 0.177517
0.335255 0.335169 0.335330
0.517547 0.518027 0.518052
0.454021 0.456584 0.459257
0.121858 0.121633 0.121361
0.576763 0.575378 0.572487
0.535372 0.539399 0.541959
0.495380 0.497665 0.499472
0.454278 0.453478 0.452572
0.300364 0.297137 0.306083
0.101034 0.102211 0.102231
0.428000 0.429153 0.458400
0.151349 0.149050 0.147122
0.554701 0.554061 0.552814
0.421984 0.422365 0.423021
0.270385 0.270865 0.271148
0.380383 0.375572 0.368370
0.625476 0.630768 0.635936
0.572661 0.569221 0.582966
0.487703 0.480468 0.478242
0.186867 0.186753 0.186996
0.254052 0.254118 0.254457
0.492305 0.491723 0.488604
0.499969 0.504759 0.506668
0.310895 0.312284 0.315332
0.541527 0.541089 0.540703
0.563452 0.566736 0.562742
0.507217 0.506890 0.503178
0.194904 0.194440 0.190726
0.495336 0.489048 0.492305
0.479124 0.484699 0.487954
0.207124 0.206884 0.204996
0.523763 0.530425 0.567308
0.451198 0.451335 0.452203
0.515482 0.516385 0.517914
0.127893 0.127976 0.127892
0.572358 0.563727 0.557735
0.138558 0.138691 0.138571
0.164038 0.163925 0.163539
0.516768 0.520925 0.522482
0.339473 0.338449 0.341397
0.477512 0.477471 0.471096
0.508847 0.513164 0.520439
0.509586 0.509259 0.507429
0.125894 0.126825 0.128258
0.239909 0.229088 0.227991
0.180919 0.180771 0.180714
0.339139 0.338460 0.337868
0.544409 0.544008 0.536252
0.193738 0.188335 0.186655
0.421889 0.420800 0.418933
0.526952 0.527279 0.527112
0.487187 0.484618 0.486556
0.183922 0.185268 0.186139
0.384335 0.384658 0.387392
0.541526 0.539099 0.537346
0.131121 0.137353 0.146695
0.532250 0.547727 0.550694
0.319561 0.319648 0.320026
0.607618 0.604852 0.599926
0.648418 0.650719 0.643395
0.179556 0.181701 0.180369
0.428526 0.427398 0.419674
0.400986 0.396667 0.390895
0.139372 0.136801 0.134809
0.115752 0.115226 0.114926
0.277528 0.277878 0.277914
0.325081 0.322517 0.318348
0.541542 0.540818 0.540338
0.205181 0.207778 0.212471
0.483664 0.485353 0.486798
0.090765 0.093539 0.092964
0.473905 0.473631 0.473758
0.338714 0.338147 0.338083
0.487342 0.493729 0.493413
0.187467 0.185617 0.184875
0.109331 0.109397 0.109446
0.450607 0.449604 0.444566
0.161399 0.162120 0.161613
0.545768 0.553002 0.559558
0.524527 0.521668 0.498745
0.210421 0.210425 0.210492
0.401412 0.406096 0.407045
0.348087 0.347480 0.344900
0.136929 0.136814 0.136715
0.580082 0.575135 0.576399
0.287724 0.287964 0.288462
0.153762 0.153747 0.153890
0.155796 0.156231 0.156513
0.389991 0.386835 0.375175
0.125586 0.125224 0.124952
0.297285 0.297255 0.297223
0.389253 0.391034 0.392063
0.537580 0.543763 0.543409
0.233350 0.233359 0.232354
0.323550 0.322890 0.321208
0.117632 0.117599 0.117780
0.568706 0.569220 0.570629
0.161775 0.161185 0.160769
0.160729 0.160763 0.160821
0.294144 0.288642 0.268196
0.122947 0.126778 0.130868
0.227054 0.224818 0.214621
0.192997 0.192949 0.192994
0.656117 0.655650 0.656561
0.288619 0.309809 0.310617
0.458060 0.456704 0.456012
0.107737 0.109971 0.110017
0.676980 0.681320 0.685227
0.115259 0.115766 0.117259
0.554927 0.556177 0.554930
0.637413 0.633825 0.633622
0.190018 0.187542 0.180874
0.564994 0.565776 0.565487
0.483924 0.484177 0.487345
0.398749 0.391754 0.384551
0.370351 0.361071 0.344137
0.351543 0.351935 0.350864
0.680002 0.685129 0.685262
0.499571 0.501713 0.502625
0.127000 0.126225 0.124107
0.182994 0.182223 0.181686
0.218006 0.197201 0.190308
0.445412 0.450036 0.453553
0.103882 0.103849 0.104278
0.600632 0.601725 0.599154
0.177186 0.177812 0.178447
0.176882 0.171497 0.170512
0.520792 0.532911 0.531534
0.606794 0.607263 0.607781
0.466545 0.466060 0.459626
0.646283 0.648542 0.648749
0.109403 0.109412 0.107487
0.458209 0.461103 0.457550
0.635988 0.619538 0.622828
0.497077 0.495740 0.495605
0.380235 0.379800 0.379016
0.132208 0.132177 0.131852
0.544335 0.551082 0.548235
0.186088 0.186320 0.186306
0.153576 0.152164 0.150801
0.140609 0.139149 0.139047
0.449171 0.447741 0.449000
0.399648 0.399152 0.396514
0.517396 0.517829 0.519461
0.526064 0.533704 0.542875
0.342441 0.349467 0.360428
0.188827 0.188545 0.186013
0.181436 0.180955 0.180945
0.229565 0.230137 0.229191
0.206317 0.205629 0.204999
0.275330 0.271715 0.269852
0.494752 0.494460 0.494379
0.365930 0.369956 0.373557
0.095947 0.095970 0.095883
0.534074 0.532020 0.530526
0.490885 0.485348 0.484425
0.371131 0.367402 0.381998
0.204071 0.203648 0.198607
0.192404 0.192395 0.192395
0.652393 0.653048 0.653624
0.494159 0.494653 0.497803
0.597070 0.596520 0.597234
0.463539 0.468266 0.470295
0.280772 0.280768 0.280735
0.558106 0.567711 0.568388
0.179271 0.179347 0.177092
0.132230 0.132271 0.132229
0.482438 0.478269 0.472187
0.329792 0.332414 0.343161
0.543388 0.541804 0.544805
0.317628 0.319543 0.320946
0.269982 0.270572 0.271126
0.161185 0.160769 0.160792
0.275536 0.276328 0.276066
0.369821 0.369344 0.369340
0.194165 0.193626 0.193327
0.413262 0.412598 0.412516
0.431884 0.431382 0.420401
0.129917 0.131545 0.147040
0.575312 0.564136 0.557942
0.260766 0.262813 0.266848
0.462811 0.462521 0.464961
0.323540 0.325568 0.383915
0.176566 0.177076 0.177995
0.359260 0.360011 0.362385
0.392288 0.388986 0.386746
0.596251 0.612135 0.621257
0.539968 0.538164 0.538393
0.544313 0.544707 0.544538
0.252831 0.253591 0.253694
0.517193 0.518230 0.519299
0.359665 0.361087 0.361823
0.095582 0.095680 0.095585
0.143497 0.143750 0.143806
0.325482 0.325425 0.324756
0.277066 0.276673 0.276821
0.417218 0.420614 0.428707
0.146297 0.146138 0.146432
0.232026 0.230855 0.230736
0.104696 0.104453 0.104201
0.504402 0.500472 0.495809
0.652681 0.653046 0.653520
0.280749 0.280708 0.280781
0.378347 0.378624 0.378116
0.350394 0.350299 0.354252
0.470066 0.470586 0.499626
0.572543 0.573074 0.570676
0.515515 0.517923 0.515607
0.192967 0.196598 0.201071
0.386621 0.386947 0.386195
0.184942 0.184767 0.185152
0.311749 0.308876 0.294726
0.658745 0.654297 0.647029
0.392068 0.390893 0.389750
0.201335 0.193079 0.191777
0.575989 0.572901 0.570038
0.391549 0.377733 0.363544
0.361746 0.361966 0.362882
0.500418 0.499539 0.500004
0.532534 0.532218 0.529743
0.233904 0.234114 0.234034
0.154195 0.154242 0.154598
0.383246 0.372099 0.351533
0.432411 0.431574 0.429455
0.291607 0.283642 0.263375
0.540084 0.538338 0.537566
0.577932 0.607226 0.607286
0.556910 0.559149 0.566425
0.134912 0.134961 0.134977
0.606010 0.605701 0.601986
0.473880 0.475705 0.470920
0.601329 0.593445 0.590310
0.534360 0.533362 0.529643
0.175602 0.175707 0.175792
0.104960 0.107559 0.109417
0.188449 0.189461 0.190422
0.178099 0.177800 0.177281
0.454568 0.452715 0.449677
0.525137 0.517919 0.519328
0.555887 0.562239 0.572331
0.361086 0.361746 0.361966
0.546898 0.570835 0.585613
0.318153 0.318335 0.320083
0.538144 0.536523 0.529055
0.381923 0.383255 0.384737
0.362254 0.362298 0.358738
0.104394 0.104456 0.105436
0.464344 0.462664 0.464535
0.295092 0.294825 0.295703
0.343027 0.354740 0.360853
0.412598 0.412516 0.410755
0.168732 0.168995 0.169166
0.141051 0.141301 0.144316
0.320225 0.320695 0.318730
0.605315 0.604863 0.604604
0.313752 0.313674 0.314011
0.590782 0.583448 0.579149
0.597339 0.592711 0.588164
0.483952 0.483481 0.482774
0.398367 0.399390 0.404066
0.526471 0.526757 0.530951
0.140382 0.140133 0.140378
0.176310 0.175524 0.176419
0.121593 0.121404 0.123502
0.531562 0.538635 0.572518
0.549814 0.548114 0.546586
0.616532 0.612321 0.610639
0.129754 0.139556 0.147483
0.500921 0.496170 0.495758
0.216689 0.217515 0.220116
0.539763 0.535167 0.536149
0.343449 0.329842 0.326980
0.352299 0.349390 0.353691
0.116734 0.115752 0.115226
0.533410 0.530935 0.529788
0.313146 0.313623 0.314716
0.493959 0.481766 0.479408
0.530182 0.532082 0.538682
0.581496 0.568110 0.565202
0.360212 0.369322 0.372337
0.504037 0.509205 0.509608
0.594022 0.593866 0.593131
0.337380 0.338285 0.336798
0.655074 0.663806 0.676386
0.436324 0.433901 0.433835
0.349021 0.342706 0.343867
0.409156 0.409494 0.406028
0.371552 0.370066 0.369155
0.467698 0.466643 0.466011
0.605548 0.604434 0.604592
0.145570 0.145683 0.144934
0.239209 0.218613 0.200150
0.341831 0.341880 0.341243
0.327859 0.330303 0.332494
0.603032 0.603768 0.602115
0.689198 0.689363 0.690082
0.173545 0.171225 0.167299
0.205046 0.204782 0.204827
0.503578 0.507081 0.503032
0.336162 0.335969 0.334601
0.543965 0.544167 0.544405
0.656631 0.657737 0.655308
0.449055 0.441658 0.439166
0.321710 0.345472 0.351480
0.522968 0.523418 0.523499
0.412986 0.413356 0.415761
0.390600 0.389180 0.385534
0.509625 0.511680 0.514630
0.445512 0.444249 0.435169
0.548724 0.555610 0.624716
0.406923 0.397910 0.397889
0.577293 0.578908 0.581480
0.689915 0.691852 0.692524
0.382106 0.386902 0.388797
0.486762 0.486449 0.488828
0.170488 0.165874 0.150004
0.497655 0.503459 0.505315
0.461073 0.456949 0.456578
0.328791 0.323690 0.323463
0.495961 0.496155 0.499653
0.478609 0.479036 0.484835
0.504598 0.509832 0.509595
0.591777 0.592140 0.595152
0.131976 0.132263 0.132328
0.374949 0.374248 0.372168
0.538950 0.540975 0.545259
0.526733 0.502515 0.496845
0.428647 0.426525 0.419260
0.125239 0.126091 0.132772
0.137818 0.138638 0.138665
0.102757 0.102696 0.102685
0.456150 0.456435 0.455810
0.404499 0.407196 0.409797
0.338559 0.300655 0.278383
0.397539 0.392828 0.391361
0.448167 0.445455 0.448501
0.507043 0.505650 0.503028
0.523418 0.523499 0.523648
0.587143 0.585407 0.574709
0.567168 0.568032 0.565863
0.616001 0.609057 0.585888
0.446788 0.438627 0.437497
0.443791 0.443577 0.444051
0.493398 0.491832 0.493966
0.546042 0.543913 0.543996
0.204117 0.202932 0.173541
0.404040 0.447280 0.447071
0.570211 0.571141 0.575811
0.092601 0.090295 0.088035
0.374253 0.379959 0.387344
0.095325 0.095406 0.096520
0.497102 0.499483 0.504932
0.473205 0.464417 0.461043
0.448029 0.446907 0.444340
0.192532 0.186239 0.154834
0.379775 0.379006 0.378641
0.548110 0.547520 0.546848
0.441330 0.456159 0.455504
0.532503 0.530506 0.533257
0.243125 0.243666 0.245662
0.129652 0.128655 0.125011
0.582673 0.595163 0.596020
0.126500 0.126432 0.125770
0.140224 0.140026 0.138927
0.130486 0.127876 0.124237
0.581399 0.581623 0.582469
0.134048 0.133997 0.133205
0.440123 0.454875 0.463413
0.354421 0.343909 0.337222
0.095498 0.095515 0.095779
0.318773 0.318676 0.321342
0.127901 0.128024 0.128626
0.521998 0.517548 0.484472
0.165884 0.165127 0.164301
0.325191 0.325145 0.325602
0.536677 0.535319 0.537278
0.265137 0.265168 0.265135
0.315142 0.319801 0.325839
0.431738 0.435811 0.428946
0.128770 0.127699 0.126888
0.495109 0.497862 0.500864
0.565863 0.564971 0.564912
0.387214 0.387362 0.388744
0.248766 0.251797 0.257964
0.340137 0.348687 0.348983
0.137043 0.136913 0.136727
0.337919 0.339009 0.339437
0.589110 0.599677 0.598363
0.385380 0.395461 0.401477
0.410044 0.409187 0.407469
0.385291 0.378839 0.379244
0.137795 0.138381 0.139907
0.520175 0.520541 0.523220
0.136771 0.134374 0.132948
0.441213 0.438800 0.432905
0.367012 0.381151 0.383213
0.097292 0.097196 0.096207
0.637442 0.642642 0.644082
0.515510 0.513343 0.513275
0.399819 0.400908 0.401223
0.649903 0.647710 0.639827
0.238195 0.240935 0.247337
0.498011 0.494601 0.492765
0.612803 0.611359 0.612553
0.173956 0.173838 0.173746
0.553874 0.540667 0.497023
0.205227 0.196062 0.194134
0.488069 0.488424 0.488979
0.608325 0.607156 0.604555
0.110152 0.110393 0.110582
0.443266 0.459801 0.528282
0.648466 0.648943 0.647813
0.687389 0.687887 0.688663
0.430210 0.431287 0.433529
0.362257 0.386399 0.391217
0.347005 0.347535 0.345374
0.144736 0.143936 0.142001
0.396856 0.391376 0.383246
0.149769 0.150535 0.156030
0.386954 0.388097 0.390431
0.642419 0.643738 0.642915
0.634097 0.633287 0.635082
0.177352 0.173447 0.168390
0.208560 0.204402 0.203525
0.253783 0.254061 0.254030
0.315977 0.312769 0.311796
0.464970 0.464852 0.464964
0.554864 0.556251 0.556542
0.529534 0.530642 0.532078
0.203633 0.209668 0.222689
0.529480 0.524848 0.518719
0.608444 0.610225 0.610045
0.370570 0.368657 0.364774
0.450066 0.447219 0.429405
0.180763 0.180714 0.180758
0.468658 0.468675 0.468810
0.318152 0.317415 0.314303
0.688076 0.688746 0.689437
0.292867 0.287575 0.283372
0.614004 0.615045 0.615032
0.445071 0.491704 0.496819
0.612808 0.601754 0.571302
0.135503 0.139311 0.142898
0.186571 0.187088 0.187473
0.575362 0.575613 0.572297
0.306042 0.310247 0.310831
0.161445 0.161558 0.139867
0.338700 0.338063 0.338050
0.456005 0.457252 0.459229
0.348586 0.351458 0.364264
0.135509 0.133646 0.133515
0.522702 0.525839 0.535604
0.259482 0.257990 0.258101
0.175496 0.174940 0.173052
0.344965 0.345083 0.345096
0.104791 0.106411 0.106341
0.124846 0.125251 0.125425
0.465344 0.468316 0.469820
0.221783 0.213462 0.211121
0.441174 0.436783 0.436171
0.150512 0.150382 0.150305
0.488980 0.489147 0.503998
0.228879 0.227265 0.227244
0.386386 0.386863 0.386868
0.572434 0.576431 0.577450
0.464010 0.461565 0.458667
0.312517 0.312712 0.313115
0.596130 0.593030 0.587335
0.491444 0.491814 0.492866
0.574944 0.574274 0.571782
0.157360 0.151428 0.144903
0.511289 0.516330 0.519751
0.507791 0.512859 0.513795
0.510868 0.511722 0.516201
0.194066 0.194030 0.192532
0.298692 0.298859 0.298298
0.167761 0.168577 0.168601
0.574559 0.575493 0.576020
0.603861 0.603498 0.601978
0.481453 0.480569 0.480586
0.310745 0.309174 0.300115
0.128315 0.128110 0.127976
0.361388 0.361411 0.361356
0.153067 0.152955 0.152348
0.204652 0.204605 0.205960
0.559837 0.556211 0.553874
0.359540 0.358092 0.353343
0.428896 0.428479 0.429236
0.186105 0.189851 0.191999
0.495726 0.496683 0.497012
0.607554 0.611812 0.613884
0.314512 0.298998 0.286921
0.341670 0.341132 0.340816
0.458788 0.457421 0.456833
0.262555 0.259520 0.258451
0.518500 0.518123 0.518996
0.123727 0.128294 0.130547
0.444097 0.444157 0.443179
0.549361 0.546305 0.540753
0.145977 0.145358 0.145283
0.197689 0.197669 0.198480
0.141483 0.141554 0.141512
0.350969 0.361442 0.374079
0.575862 0.577452 0.572358
0.236112 0.235899 0.235477
0.270251 0.274850 0.278249
0.232545 0.233313 0.233265
0.335313 0.335212 0.335168
0.599433 0.593863 0.596572
0.129368 0.140833 0.173729
0.160565 0.162198 0.165290
0.414748 0.412182 0.410023
0.460491 0.453255 0.432377
0.344967 0.344930 0.344096
0.504813 0.506671 0.506881
0.186587 0.187124 0.187538
0.608153 0.611662 0.614096
0.359544 0.362371 0.362077
0.505475 0.506788 0.507658
0.361056 0.367433 0.381564
0.547360 0.551467 0.554578
0.453411 0.454606 0.458753
0.110799 0.110809 0.110458
0.475988 0.479772 0.480244
0.645563 0.641611 0.640447
0.485142 0.487039 0.485122
0.548801 0.547235 0.545370
0.145886 0.145387 0.145389
0.336217 0.335911 0.333303
0.110027 0.108205 0.105466
0.618835 0.609402 0.604777
0.146283 0.143090 0.137220
0.314046 0.314067 0.314620
0.117365 0.118276 0.118618
0.322306 0.318008 0.315856
0.540774 0.541538 0.542979
0.374447 0.372137 0.372546
0.413048 0.423370 0.425567
0.655308 0.648466 0.648943
0.386845 0.386873 0.386867
0.191005 0.188137 0.186682
0.121555 0.121439 0.124369
0.120089 0.120801 0.120975
0.514795 0.515007 0.515021
0.462160 0.460087 0.459428
0.127852 0.126983 0.126797
0.479756 0.483237 0.489488
0.114437 0.114581 0.114823
0.399742 0.398535 0.396683
0.500372 0.503531 0.514658
0.370925 0.370748 0.375865
0.608660 0.617400 0.618774
0.232354 0.231850 0.230627
0.516082 0.518090 0.498944
0.388794 0.391264 0.397610
0.110067 0.110046 0.110138
0.103551 0.102539 0.100660
0.362272 0.361608 0.359500
0.487167 0.488773 0.493113
0.128393 0.131121 0.137353
0.173746 0.173928 0.173920
0.145389 0.145185 0.145991
0.539023 0.567905 0.595713
0.548404 0.547244 0.538052
0.143299 0.143533 0.143497
0.611198 0.603128 0.595437
0.378451 0.377811 0.375215
0.323400 0.323537 0.322972
0.159535 0.159582 0.160097
0.300903 0.298453 0.300061
0.649125 0.654121 0.654151
0.163704 0.182242 0.196745
0.216876 0.216904 0.218897
0.317604 0.316430 0.314073
0.264716 0.268065 0.275730
0.396866 0.397451 0.401579
0.341397 0.342627 0.344236
0.126450 0.126077 0.123195
0.259862 0.202637 0.190221
0.416889 0.412069 0.407466
0.171030 0.170508 0.170395
0.146722 0.145502 0.144463
0.358967 0.374458 0.377918
0.389266 0.391891 0.397225
0.573856 0.571910 0.572015
0.438453 0.435848 0.438534
0.450527 0.450506 0.452956
0.614305 0.615073 0.614986
0.354408 0.354317 0.354427
0.110046 0.110312 0.110502
0.263646 0.230654 0.190679
0.193440 0.193542 0.192876
0.396946 0.402033 0.402752
0.325987 0.324916 0.325537
0.259125 0.259073 0.259237
0.518036 0.515823 0.513605
0.386779 0.385195 0.383969
0.160357 0.159918 0.159289
0.401947 0.403584 0.405404
0.474867 0.476684 0.478623
0.537194 0.535630 0.534887
0.374254 0.374982 0.381447
0.646854 0.645917 0.648421
0.288456 0.288471 0.288544
0.440009 0.433744 0.432234
0.230073 0.229691 0.229774
0.312174 0.311720 0.310745
0.331538 0.314512 0.314054
0.482338 0.473979 0.473905
0.499127 0.497070 0.496946
0.601093 0.600490 0.600367
0.625666 0.630609 0.635180
0.586395 0.588899 0.602637
0.227114 0.228718 0.229928
0.346861 0.362189 0.363019
0.180302 0.180195 0.181975
0.318552 0.325393 0.325756
0.359631 0.358915 0.359492
0.270529 0.269008 0.269247
0.495172 0.493150 0.493351
0.516157 0.507330 0.509362
0.601161 0.601338 0.602461
0.526614 0.526898 0.527108
0.526126 0.524643 0.510491
0.591768 0.590348 0.595138
0.498709 0.499233 0.500372
0.452376 0.452653 0.455539
0.346225 0.346354 0.342866
0.147536 0.147678 0.147856
0.578724 0.587251 0.590266
0.529847 0.529855 0.536913
0.315718 0.316383 0.317291
0.503131 0.420693 0.381199
0.368875 0.368791 0.368775
0.628237 0.628325 0.627700
0.273818 0.301079 0.305131
0.469623 0.471953 0.471815
0.283908 0.285534 0.292707
0.121053 0.122206 0.125336
0.131047 0.130805 0.131736
0.156572 0.160183 0.161065
0.530546 0.533284 0.536803
0.479546 0.486997 0.484401
0.605316 0.605709 0.611072
0.361918 0.364752 0.370582
0.388213 0.388238 0.385380
0.502348 0.500305 0.500096
0.144595 0.145053 0.144896
0.240994 0.247335 0.253489
0.300008 0.299685 0.300513
0.406527 0.414475 0.418508
0.312904 0.312300 0.312094
0.372032 0.372149 0.372403
0.254052 0.254033 0.253972
0.514833 0.513409 0.512626
0.354733 0.354569 0.353079
0.172098 0.172016 0.171813
0.384182 0.382726 0.385701
0.208472 0.209682 0.223660
0.253161 0.253220 0.252781
0.532961 0.531970 0.523585
0.601082 0.601692 0.607176
0.348983 0.348067 0.351769
0.473590 0.477497 0.477209
0.150106 0.148592 0.145607
0.556211 0.553874 0.540667
0.474748 0.475751 0.475064
0.337295 0.340331 0.336386
0.127608 0.132280 0.133975
0.291204 0.282019 0.275938
0.134731 0.135834 0.121451
0.501092 0.501326 0.505734
0.314664 0.314319 0.314259
0.180961 0.180919 0.180771
0.344627 0.369947 0.477469
0.573285 0.575328 0.575362
0.452635 0.453620 0.454592
0.568788 0.571826 0.584831
0.196783 0.197733 0.200118
0.532521 0.532736 0.533943
0.372561 0.372660 0.372994
0.187064 0.186459 0.182856
0.274716 0.277665 0.278689
0.397920 0.398313 0.399606
0.493482 0.493220 0.481129
0.530866 0.532277 0.531496
0.612806 0.612950 0.551791
0.548158 0.546148 0.541601
0.191702 0.190936 0.191140
0.311450 0.318878 0.322264
0.541528 0.541951 0.546314
0.318335 0.320083 0.325018
0.450488 0.446822 0.448296
0.329767 0.331024 0.334172
0.205034 0.202851 0.221720
0.516900 0.520710 0.523807
0.209828 0.208005 0.205737
0.528145 0.522483 0.519090
0.495165 0.493542 0.487833
0.489139 0.490314 0.504497
0.479540 0.479585 0.487012
0.372616 0.372021 0.372865
0.592803 0.589387 0.587305
0.544008 0.536252 0.532161
0.492201 0.499624 0.514700
0.130215 0.130398 0.130753
0.110784 0.110797 0.110458
0.500952 0.500832 0.497075
0.547689 0.547754 0.547791
0.104188 0.103879 0.103958
0.448982 0.447937 0.449016
0.515711 0.520440 0.528158
0.204555 0.204591 0.204652
0.128468 0.129027 0.128796
0.503936 0.503120 0.501277
0.129612 0.129512 0.129595
0.570676 0.570899 0.573200
0.317486 0.317053 0.317936
0.408934 0.407957 0.407446
0.494319 0.503605 0.506051
0.102833 0.102918 0.102892
0.367429 0.367898 0.369347
0.129798 0.129836 0.133431
0.451391 0.452698 0.453871
0.434752 0.434170 0.433911
0.298917 0.300322 0.302754
0.339693 0.347345 0.348316
0.136791 0.134387 0.132262
0.449579 0.451552 0.450555
0.179696 0.178094 0.177806
0.160697 0.160747 0.160736
0.518979 0.518649 0.521101
0.495707 0.491576 0.493473
0.613529 0.614472 0.615068
0.144366 0.144542 0.144338
0.325591 0.325491 0.326477
0.198714 0.197731 0.197560
0.117313 0.117084 0.117115
0.499503 0.502421 0.502303
0.140033 0.140119 0.140255
0.121046 0.120766 0.120741
0.457860 0.457950 0.457950
0.449791 0.450205 0.453495
0.265121 0.265127 0.265115
0.498531 0.498585 0.496083
0.583310 0.545825 0.543838
0.401138 0.403117 0.404818
0.457206 0.459505 0.465290
0.552230 0.551571 0.549718
0.538348 0.538392 0.540228
0.169903 0.170336 0.170329
0.337342 0.317284 0.306208
0.246608 0.247450 0.245931
0.448906 0.451640 0.453717
0.088727 0.089496 0.093278
0.204664 0.204774 0.205336
0.316383 0.317291 0.318432
0.232793 0.232794 0.232712
0.522869 0.529982 0.565595
0.495797 0.481276 0.480401
0.614487 0.612714 0.613745
0.610497 0.610264 0.597465
0.135268 0.132340 0.131055
0.164059 0.179362 0.183044
0.456442 0.455789 0.451439
0.598729 0.598874 0.597921
0.179467 0.178011 0.177693
0.544897 0.546683 0.546569
0.374107 0.373462 0.372059
0.445849 0.447812 0.447720
0.365464 0.365966 0.365858
0.369578 0.369726 0.370220
0.631051 0.630302 0.628949
0.300997 0.304399 0.308345
0.532293 0.531304 0.533943
0.320317 0.321836 0.322346
0.131852 0.131740 0.131775
0.173342 0.173331 0.172816
0.590824 0.590069 0.597912
0.530755 0.516712 0.505927
0.519627 0.520551 0.525116
0.199804 0.199548 0.199524
0.567349 0.570540 0.542192
0.270531 0.270244 0.271106
0.542832 0.543654 0.543900
0.103802 0.104101 0.106510
0.617340 0.616957 0.618909
0.497808 0.498537 0.499068
0.149233 0.149193 0.149241
0.098482 0.096244 0.095314
0.255567 0.259131 0.271121
0.640621 0.642549 0.636142
0.509239 0.512462 0.516551
0.391227 0.398468 0.399467
0.471319 0.462728 0.460486
0.493588 0.478503 0.466600
0.146376 0.146283 0.143090
0.191999 0.193678 0.196384
0.516568 0.517324 0.516614
0.431755 0.429164 0.428357
0.645634 0.646484 0.650496
0.686607 0.688106 0.689194
0.234963 0.236927 0.235939
0.638882 0.639673 0.640122
0.341169 0.340975 0.342320
0.591609 0.593525 0.595801
0.404674 0.397127 0.388607
0.352024 0.352250 0.352296
0.308109 0.307689 0.314183
0.367424 0.368796 0.368901
0.567482 0.566144 0.555103
0.182605 0.181054 0.180955
0.350718 0.351120 0.351879
0.154229 0.154204 0.154246
0.345065 0.344095 0.337198
0.598689 0.595868 0.594016
0.654582 0.655178 0.656227
0.445735 0.439223 0.439382
0.351079 0.351373 0.351873
0.483512 0.483881 0.484042
0.150956 0.152863 0.153121
0.257725 0.257326 0.256992
0.144463 0.144222 0.142194
0.337548 0.338216 0.337221
0.581177 0.578318 0.576643
0.512483 0.512368 0.504770
0.175707 0.175570 0.175602
0.599457 0.605533 0.611080
0.541221 0.539959 0.550876
0.600021 0.600132 0.600048
0.366744 0.365865 0.369342
0.172219 0.172371 0.172048
0.455810 0.455128 0.453879
0.507473 0.503424 0.492129
0.229691 0.229774 0.229339
0.209091 0.207801 0.202629
0.542202 0.551550 0.549072
0.569457 0.569720 0.571888
0.504683 0.499687 0.499722
0.302334 0.301435 0.300537
0.555415 0.555688 0.556741
0.411510 0.414497 0.418956
0.486821 0.487591 0.486797
0.127948 0.128027 0.127087
0.363315 0.355353 0.355891
0.483115 0.480980 0.475925
0.187825 0.185963 0.185405
0.595926 0.596287 0.599111
0.460186 0.461860 0.460177
0.254011 0.263357 0.266016
0.211593 0.211612 0.211289
0.149137 0.149151 0.148608
0.346738 0.351079 0.351373
0.506919 0.506440 0.506344
0.388033 0.388439 0.385621
0.137291 0.135217 0.132637
0.372031 0.379888 0.382872
0.528198 0.526023 0.524735
0.339923 0.338522 0.338063
0.599881 0.597538 0.598631
0.586369 0.589415 0.591714
0.399083 0.399263 0.399481
0.172443 0.172034 0.171718
0.152113 0.153067 0.152955
0.377358 0.378221 0.378538
0.314620 0.322923 0.348265
0.130762 0.130756 0.130644
0.297223 0.296855 0.296052
0.311062 0.304764 0.293788
0.319054 0.320317 0.321836
0.331614 0.329019 0.329127
0.102911 0.099957 0.099847
0.123093 0.123002 0.123727
0.480760 0.490680 0.498310
0.234335 0.234658 0.235271
0.185639 0.184488 0.184414
0.204667 0.204680 0.205954
0.327042 0.327383 0.327352
0.182383 0.182423 0.182859
0.537044 0.538743 0.540997
0.450729 0.448463 0.449329
0.530631 0.529435 0.526479
0.135137 0.136099 0.135830
0.186708 0.186927 0.186827
0.198603 0.193564 0.185778
