0.101137 0.102416 0.102931
0.090689 0.091277 0.090920
0.109991 0.112197 0.112299
0.122282 0.122425 0.120012
0.108527 0.108883 0.108558
0.102605 0.102908 0.102774
0.139692 0.139910 0.139407
0.111814 0.112099 0.111219
0.098355 0.097875 0.098141
0.129982 0.130894 0.130930
0.108907 0.108160 0.108944
0.097890 0.098613 0.099198
0.114878 0.116104 0.116153
0.118238 0.118665 0.118924
0.089157 0.089494 0.089269
0.098499 0.098385 0.098528
0.101841 0.101874 0.101318
0.111003 0.110584 0.110155
0.142286 0.141461 0.141510
0.105667 0.105118 0.105483
0.101037 0.101425 0.101466
0.111468 0.110517 0.111436
0.097038 0.096530 0.096967
0.105559 0.105396 0.105219
0.113790 0.113946 0.113746
0.126012 0.125779 0.126461
0.115467 0.115414 0.114923
0.095994 0.095680 0.094497
0.098985 0.097978 0.097450
0.094562 0.095685 0.096090
0.101620 0.102864 0.102915
0.111469 0.111035 0.110799
0.108941 0.108536 0.108265
0.107298 0.107984 0.108378
0.114122 0.113831 0.114732
0.100540 0.100931 0.100672
0.090662 0.091611 0.091419
0.088980 0.088507 0.087286
0.102070 0.102554 0.102996
0.128322 0.129673 0.128070
0.097019 0.097606 0.095282
0.092147 0.092359 0.091639
0.106970 0.106833 0.107032
0.112581 0.113150 0.112612
0.097065 0.097185 0.096885
0.094823 0.093503 0.094442
0.124867 0.125218 0.124951
0.086334 0.086014 0.084948
0.106972 0.107164 0.107650
0.094035 0.093869 0.093310
0.108490 0.108174 0.107498
0.114306 0.115988 0.116498
0.096423 0.096452 0.095511
0.112872 0.112519 0.112351
0.108438 0.107172 0.108253
0.112443 0.112746 0.113478
0.102023 0.102481 0.101683
0.135385 0.135174 0.134975
0.121878 0.119946 0.118499
0.135094 0.136057 0.137689
0.107151 0.107174 0.107651
0.094602 0.094724 0.094082
0.109261 0.109811 0.109722
0.104377 0.105592 0.105469
0.111321 0.111885 0.111841
0.093040 0.093423 0.093696
0.093030 0.092991 0.092177
0.146819 0.146670 0.146403
0.097589 0.097434 0.099882
0.104431 0.105871 0.110553
0.108817 0.109638 0.110468
0.104806 0.106333 0.107583
0.115359 0.116713 0.117648
0.111031 0.110190 0.109730
0.121794 0.121751 0.122258
0.139235 0.139165 0.139186
0.090791 0.090781 0.091744
0.117644 0.118603 0.119171
0.109116 0.108984 0.108343
0.100680 0.100260 0.100165
0.131652 0.131284 0.130428
0.097247 0.098020 0.097951
0.112831 0.110827 0.110589
0.114199 0.114902 0.115055
0.110860 0.110471 0.110137
0.091230 0.091397 0.091598
0.128646 0.128184 0.128499
0.114887 0.113048 0.111582
0.112800 0.113117 0.113098
0.103612 0.105105 0.106007
0.105790 0.106306 0.105514
0.097421 0.096423 0.096875
0.093963 0.094631 0.095049
0.107411 0.107507 0.109141
0.088453 0.089050 0.088760
0.095771 0.095116 0.095175
0.094965 0.095298 0.095303
0.109200 0.108957 0.108667
0.098878 0.099383 0.099359
0.132848 0.132786 0.132541
0.101277 0.101652 0.102325
0.092554 0.093043 0.092676
0.091379 0.090992 0.090614
0.103356 0.103920 0.103266
0.117988 0.117706 0.117505
0.117789 0.118325 0.118929
0.142333 0.142592 0.142845
0.088173 0.088453 0.090481
0.112290 0.112227 0.112404
0.109225 0.109410 0.109066
0.101322 0.103347 0.103075
0.111885 0.111841 0.111777
0.109555 0.109230 0.109050
0.094655 0.095128 0.095699
0.113767 0.113561 0.113666
0.136898 0.136423 0.136483
0.132342 0.131982 0.132268
0.108071 0.107411 0.107196
0.099096 0.099147 0.099337
0.101292 0.101304 0.100620
0.097758 0.096952 0.097255
0.106250 0.105783 0.105444
0.097613 0.097216 0.097626
0.096854 0.095713 0.095197
0.105084 0.105172 0.105435
0.107108 0.106698 0.106327
0.103383 0.103266 0.101564
0.103692 0.102560 0.102700
0.117117 0.116543 0.116509
0.097987 0.097702 0.098892
0.108308 0.107946 0.108360
0.115173 0.115042 0.114353
0.093150 0.093292 0.093390
0.111833 0.110805 0.109693
0.103223 0.103622 0.104082
0.098380 0.098751 0.098410
0.105835 0.105658 0.104378
0.105552 0.105415 0.105661
0.098767 0.098664 0.099004
0.112237 0.112066 0.112586
0.089529 0.089263 0.087978
0.096962 0.096458 0.096404
0.092051 0.091010 0.090821
0.132675 0.132265 0.131393
0.103196 0.101814 0.101702
0.112552 0.112783 0.112095
0.117904 0.116927 0.116128
0.101395 0.100783 0.101535
0.097047 0.097076 0.095795
0.114477 0.114561 0.114573
0.103106 0.103620 0.103049
0.089004 0.088932 0.087507
0.089087 0.088663 0.088239
0.094813 0.094621 0.094487
0.107223 0.106539 0.106229
0.102905 0.103329 0.102710
0.094904 0.095545 0.096418
0.102890 0.103055 0.104266
0.113578 0.114136 0.114313
0.091241 0.092082 0.092375
0.112103 0.112113 0.111402
0.091027 0.091061 0.091982
0.112178 0.111176 0.112059
0.084427 0.084596 0.084628
0.096428 0.096480 0.095872
0.120489 0.120255 0.120931
0.102876 0.103209 0.103729
0.091197 0.091600 0.091241
0.113332 0.113336 0.113596
0.111930 0.111837 0.112168
0.116477 0.116490 0.115384
0.091930 0.091986 0.091583
0.101967 0.101373 0.101655
0.097461 0.097848 0.098115
0.106960 0.105406 0.104218
0.100721 0.100428 0.100375
0.092485 0.092244 0.092571
0.129362 0.128593 0.127429
0.127268 0.127340 0.129091
0.097260 0.096257 0.096957
0.115015 0.114929 0.114214
0.099822 0.099862 0.099497
0.096469 0.097340 0.098319
0.111555 0.113026 0.110412
0.095183 0.095567 0.096688
0.093147 0.093091 0.093497
0.111608 0.112056 0.111936
0.112381 0.112692 0.113142
0.114435 0.114360 0.114057
0.128779 0.127934 0.130032
0.112157 0.112799 0.113237
0.108329 0.107856 0.108571
0.108479 0.108408 0.107696
0.108770 0.108299 0.107751
0.116195 0.115449 0.114924
0.096971 0.096733 0.097498
0.102828 0.102343 0.102773
0.097884 0.097011 0.097620
0.109285 0.109135 0.108552
0.128998 0.127875 0.125290
0.098300 0.098375 0.097928
0.101550 0.101291 0.102071
0.093127 0.094655 0.094207
0.102788 0.102813 0.102407
0.110876 0.112973 0.113369
0.112143 0.111925 0.111832
0.099984 0.100570 0.101594
0.097802 0.096564 0.094816
0.095684 0.095876 0.094499
0.114591 0.112224 0.110296
0.097937 0.097734 0.097947
0.099160 0.099232 0.098385
0.091307 0.091395 0.092314
0.107079 0.107474 0.107495
0.099300 0.099640 0.100474
0.106514 0.107083 0.111283
0.102924 0.102833 0.102951
0.094596 0.094603 0.094400
0.101198 0.101626 0.101271
0.118155 0.118895 0.119202
0.090011 0.090538 0.091556
0.100318 0.100100 0.099861
0.092897 0.092662 0.092704
0.093216 0.092254 0.091941
0.107662 0.106225 0.103934
0.108302 0.108327 0.109547
0.103349 0.103291 0.103244
0.099284 0.099191 0.097301
0.102948 0.102425 0.103991
0.113482 0.114009 0.113629
0.106269 0.106825 0.107025
0.127199 0.126010 0.125830
0.106934 0.107409 0.107592
0.124734 0.124469 0.123075
0.099774 0.099441 0.097382
0.096067 0.096351 0.096831
0.097385 0.097656 0.098555
0.119026 0.118515 0.117403
0.110994 0.110867 0.110990
0.114724 0.112936 0.112605
0.099119 0.099161 0.099451
0.102964 0.102612 0.101356
0.102032 0.102957 0.102949
0.115728 0.115435 0.115150
0.101253 0.101138 0.101016
0.106264 0.105657 0.105418
0.105750 0.105553 0.105794
0.112859 0.113557 0.114142
0.113439 0.113602 0.114068
0.125772 0.124755 0.124838
0.095042 0.095541 0.095256
0.109798 0.109737 0.109966
0.113562 0.112649 0.113569
0.096842 0.096251 0.096510
0.106544 0.106466 0.106172
0.106093 0.107424 0.107663
0.126846 0.127585 0.126615
0.090998 0.092182 0.092319
0.113151 0.113576 0.111590
0.112465 0.112996 0.113536
0.095081 0.095789 0.097358
0.116641 0.116627 0.116579
0.092520 0.093010 0.093587
0.095567 0.095569 0.095231
0.116833 0.116016 0.114797
0.100398 0.100000 0.100330
0.103111 0.102779 0.100968
0.121764 0.121249 0.120507
0.097945 0.098568 0.099103
0.107720 0.108352 0.108661
0.095656 0.095853 0.096440
0.095190 0.095139 0.095043
0.112404 0.112422 0.111833
0.098514 0.098544 0.098625
0.095569 0.095231 0.096636
0.122211 0.121555 0.121446
0.100442 0.100587 0.100446
0.112862 0.113004 0.111853
0.104977 0.104214 0.104244
0.113043 0.112896 0.112670
0.112542 0.113092 0.112773
0.100015 0.100145 0.100352
0.095088 0.094874 0.094886
0.092559 0.093510 0.093453
0.093472 0.093399 0.093369
0.095106 0.095757 0.095703
0.106339 0.106731 0.106969
0.095286 0.095506 0.095319
0.104146 0.104474 0.103516
0.118856 0.118670 0.117817
0.110528 0.110551 0.110655
0.112276 0.112734 0.111756
0.110375 0.110473 0.110503
0.102396 0.102675 0.102605
0.128102 0.128967 0.127993
0.102406 0.102021 0.101741
0.102405 0.103240 0.103109
0.100739 0.100795 0.100755
0.112676 0.113422 0.113323
0.108733 0.108867 0.108562
0.101128 0.101086 0.100013
0.115420 0.116664 0.116473
0.108499 0.109085 0.108873
0.095229 0.095119 0.094697
0.113557 0.114063 0.114686
0.097111 0.097304 0.096395
0.096218 0.097235 0.097380
0.113875 0.113728 0.113654
0.100870 0.100408 0.101014
0.088779 0.088935 0.088915
0.111581 0.111266 0.111316
0.104240 0.104218 0.104123
0.110338 0.110048 0.109663
0.107196 0.107323 0.107350
0.115686 0.115571 0.114438
0.093746 0.093620 0.093610
0.111966 0.112807 0.112282
0.101030 0.100688 0.100777
0.110688 0.110163 0.111724
0.113173 0.113440 0.112832
0.114512 0.113997 0.113075
0.103435 0.103022 0.104897
0.107676 0.108359 0.107279
0.107876 0.107905 0.108052
0.111732 0.110984 0.111674
0.107961 0.107890 0.106533
0.108887 0.109130 0.109076
0.110496 0.109406 0.109291
0.101411 0.101465 0.101901
0.107846 0.107094 0.106841
0.130206 0.130285 0.130533
0.088544 0.089232 0.089649
0.095221 0.095093 0.095436
0.098888 0.099468 0.099001
0.136492 0.135828 0.136984
0.107170 0.107025 0.107689
0.110993 0.110860 0.111270
0.108869 0.109179 0.109595
0.115332 0.114626 0.115267
0.104377 0.104082 0.104641
0.103244 0.102963 0.103533
0.100594 0.100722 0.100785
0.110172 0.110618 0.110810
0.108358 0.107531 0.106819
0.102739 0.103347 0.103000
0.097795 0.099398 0.100624
0.097692 0.097526 0.098026
0.102665 0.102214 0.101518
0.108986 0.109108 0.109160
0.113324 0.113485 0.113507
0.115974 0.116681 0.116788
0.109920 0.108875 0.108988
0.109811 0.109771 0.110214
0.096030 0.095819 0.096559
0.093851 0.092934 0.092549
0.115149 0.111562 0.112008
0.107487 0.107058 0.106990
0.098947 0.099039 0.099844
0.092789 0.093104 0.092887
0.112663 0.113052 0.113936
0.111962 0.111791 0.111573
0.116281 0.116615 0.116583
0.106885 0.106450 0.105975
0.104238 0.104906 0.104975
0.095081 0.097009 0.097069
0.094825 0.096206 0.095143
0.107276 0.106933 0.106862
0.107221 0.107177 0.106754
0.100610 0.100321 0.100456
0.113996 0.114316 0.114438
0.109050 0.109262 0.110005
0.103836 0.104733 0.103865
0.096003 0.096498 0.098280
0.096647 0.095641 0.095927
0.086138 0.086799 0.086939
0.092396 0.092408 0.092322
0.101115 0.100901 0.101022
0.103844 0.103347 0.102922
0.112229 0.112415 0.112383
0.097350 0.097378 0.097119
0.111713 0.111686 0.111532
0.109828 0.110504 0.112252
0.095877 0.095760 0.094992
0.117488 0.117879 0.118174
0.104121 0.105069 0.104989
0.106781 0.107369 0.108441
0.103490 0.102892 0.102597
0.093289 0.094810 0.095431
0.098109 0.099512 0.099438
0.106241 0.106176 0.106802
0.118798 0.118706 0.118587
0.098547 0.097742 0.097508
0.100618 0.100900 0.100990
0.105950 0.105615 0.105069
0.105776 0.105752 0.105597
0.113110 0.113468 0.113087
0.096148 0.095911 0.095823
0.105262 0.105333 0.105242
0.108031 0.106023 0.106067
0.091760 0.091872 0.091953
0.116888 0.116951 0.116420
0.097940 0.097324 0.097376
0.100629 0.100561 0.099676
0.122944 0.122135 0.123211
0.107729 0.107284 0.106260
0.097367 0.097293 0.096755
0.112498 0.111894 0.110728
0.096393 0.096375 0.097225
0.116314 0.115424 0.114902
0.101901 0.101333 0.101438
0.100418 0.100500 0.101627
0.102310 0.103229 0.102507
0.097160 0.096806 0.096743
0.111731 0.110374 0.109782
0.102738 0.102860 0.102323
0.113261 0.113018 0.113006
0.101957 0.101849 0.101981
0.108706 0.108343 0.107798
0.102098 0.102366 0.101990
0.111785 0.111345 0.109445
0.101178 0.101090 0.101146
0.093823 0.092971 0.092119
0.093811 0.093622 0.093627
0.111149 0.110804 0.109625
0.102403 0.102541 0.103337
0.103409 0.103322 0.103156
0.111841 0.112346 0.112283
0.113117 0.113098 0.113384
0.102227 0.101700 0.101703
0.090314 0.090481 0.088925
0.113146 0.112624 0.112855
0.113113 0.112967 0.111625
0.108622 0.108040 0.108383
0.106210 0.105893 0.104974
0.115485 0.115926 0.115164
0.108232 0.108676 0.108270
0.096738 0.096650 0.096727
0.100662 0.100245 0.099510
0.099131 0.099522 0.099614
0.107912 0.108232 0.108347
0.103726 0.102333 0.101742
0.093436 0.093482 0.095041
0.117451 0.118653 0.120462
0.112631 0.112308 0.112942
0.103678 0.104314 0.105965
0.113277 0.113114 0.112436
0.110637 0.109355 0.109024
0.114275 0.113382 0.112483
0.113008 0.112651 0.113362
0.096053 0.094979 0.096789
0.113289 0.112714 0.112325
0.107731 0.107499 0.107260
0.112837 0.113060 0.113094
0.097571 0.097626 0.100196
0.108732 0.108482 0.108474
0.105499 0.106008 0.105470
0.095932 0.095898 0.095888
0.093820 0.093789 0.093494
0.128830 0.127786 0.128903
0.094795 0.095844 0.095645
0.094434 0.094602 0.094724
0.112542 0.112315 0.111909
0.101974 0.102402 0.101515
0.137830 0.138539 0.140228
0.109136 0.108311 0.106689
0.112083 0.112639 0.112916
0.109342 0.109177 0.109905
0.101369 0.102369 0.102974
0.101836 0.101730 0.101648
0.114671 0.113879 0.113862
0.108238 0.107903 0.108086
0.142486 0.142582 0.142240
0.101227 0.101569 0.101553
0.108664 0.109241 0.110352
0.108494 0.108906 0.108680
0.106235 0.107324 0.107688
0.102417 0.102180 0.102161
0.094530 0.093937 0.093647
0.100847 0.100560 0.101490
0.104705 0.103194 0.101397
0.118105 0.118166 0.116964
0.114999 0.114526 0.113627
0.099712 0.099558 0.098571
0.094502 0.094265 0.094551
0.099719 0.099664 0.098353
0.131446 0.130949 0.131744
0.103303 0.102805 0.106424
0.122485 0.122167 0.120511
0.107196 0.107805 0.108169
0.111436 0.111020 0.110261
0.107721 0.107620 0.108839
0.115237 0.114970 0.115238
0.106174 0.106999 0.105876
0.104003 0.104049 0.104093
0.092763 0.092366 0.092497
0.117538 0.118311 0.117303
0.112813 0.113146 0.113733
0.098317 0.099058 0.100063
0.102975 0.102748 0.103255
0.146255 0.146492 0.146426
0.097496 0.097435 0.097668
0.101094 0.102126 0.101678
0.110503 0.110389 0.110106
0.108700 0.108961 0.108929
0.102225 0.100929 0.100761
0.112732 0.112596 0.112618
0.108412 0.108709 0.108071
0.100194 0.101013 0.102108
0.111244 0.111396 0.112282
0.097910 0.097918 0.098041
0.108712 0.109054 0.108869
0.119210 0.119480 0.120181
0.108298 0.108264 0.108193
0.089039 0.089308 0.089113
0.096395 0.095430 0.095491
0.109163 0.110251 0.110317
0.113917 0.113704 0.113049
0.106331 0.104783 0.105962
0.114561 0.114886 0.115301
0.103902 0.103921 0.103889
0.107220 0.107217 0.107320
0.105909 0.105823 0.105047
0.108510 0.108593 0.108635
0.109912 0.109701 0.109764
0.114898 0.114886 0.116307
0.110293 0.111408 0.110714
0.102465 0.100465 0.099753
0.094797 0.094003 0.092490
0.104536 0.104732 0.103634
0.122145 0.122275 0.122445
0.105727 0.105486 0.105662
0.093156 0.093288 0.092815
0.109425 0.108642 0.107536
0.110803 0.110949 0.111816
0.109507 0.109695 0.109436
0.108766 0.109779 0.110737
0.108726 0.108276 0.108886
0.096388 0.096758 0.097656
0.111551 0.111325 0.108704
0.123794 0.123431 0.123068
0.102991 0.102749 0.102791
0.100527 0.100589 0.101068
0.101920 0.101998 0.101510
0.100663 0.099173 0.099204
0.112145 0.113213 0.113996
0.095260 0.095772 0.097020
0.114078 0.113579 0.113178
0.105489 0.106710 0.107930
0.100327 0.100541 0.100568
0.119245 0.119226 0.121703
0.119615 0.118958 0.118975
0.098663 0.098560 0.098667
0.108670 0.108580 0.108454
0.100414 0.100503 0.100615
0.107453 0.108155 0.108523
0.106179 0.105917 0.104897
0.108796 0.109145 0.108811
0.095154 0.095158 0.094593
0.098031 0.098371 0.099692
0.102810 0.102867 0.102500
0.130256 0.130195 0.131189
0.089763 0.089851 0.088980
0.113175 0.113215 0.113117
0.113768 0.114406 0.114043
0.115669 0.116075 0.116780
0.109176 0.109081 0.108869
0.111731 0.112188 0.111354
0.120259 0.119432 0.119445
0.110103 0.109734 0.109889
0.115733 0.115825 0.115449
0.118503 0.117140 0.116949
0.102728 0.102832 0.102868
0.115696 0.113846 0.113376
0.099748 0.100613 0.101390
0.103207 0.102791 0.102366
0.109326 0.106606 0.103980
0.101610 0.099971 0.100735
0.101294 0.101135 0.101952
0.108775 0.107992 0.109336
0.107395 0.106245 0.105992
0.102045 0.101990 0.102506
0.094406 0.094566 0.094893
0.118196 0.118291 0.117788
0.101102 0.099753 0.101947
0.111381 0.111926 0.111440
0.113734 0.112482 0.112710
0.127791 0.127630 0.125875
0.106533 0.106673 0.107172
0.095847 0.096426 0.096535
0.097344 0.097436 0.098185
0.120433 0.120619 0.121033
0.108274 0.109192 0.110036
0.099660 0.099300 0.097687
0.106514 0.105819 0.104552
0.109237 0.108282 0.108332
0.111682 0.111379 0.111949
0.115939 0.116196 0.116926
0.098001 0.098183 0.099319
0.109388 0.107842 0.107225
0.097839 0.096883 0.096359
0.097438 0.097429 0.097319
0.097217 0.096247 0.096259
0.112437 0.113611 0.113734
0.100006 0.098937 0.097934
0.113266 0.113308 0.113055
0.108434 0.109633 0.110541
0.101887 0.101337 0.100064
0.112348 0.113068 0.113407
0.093430 0.094957 0.094824
0.097146 0.097776 0.097642
0.111552 0.111615 0.109709
0.117703 0.118270 0.118394
0.092023 0.092550 0.092575
0.122918 0.123981 0.122698
0.099921 0.100310 0.100519
0.121212 0.121027 0.120782
0.103091 0.103947 0.103874
0.107489 0.106362 0.106658
0.098455 0.098376 0.099473
0.108090 0.108366 0.108779
0.098056 0.097940 0.098162
0.098740 0.098767 0.099071
0.094705 0.095170 0.094700
0.114859 0.114875 0.116340
0.101420 0.101556 0.102300
0.100996 0.101977 0.101511
0.106871 0.105800 0.105810
0.119581 0.120426 0.120005
0.112374 0.111810 0.111554
0.104234 0.104322 0.104803
0.101740 0.101781 0.102086
0.098716 0.098073 0.098001
0.106304 0.105589 0.105371
0.108813 0.109950 0.110182
0.120390 0.120833 0.120743
0.104288 0.105595 0.105613
0.102263 0.103045 0.103599
0.110163 0.110501 0.110403
0.110923 0.111655 0.113140
0.120817 0.121074 0.120931
0.113745 0.113917 0.113704
0.090584 0.090728 0.091116
0.137627 0.137597 0.136997
0.112202 0.113785 0.113823
0.104455 0.103113 0.103040
0.111431 0.110929 0.111045
0.098768 0.100356 0.102032
0.105676 0.105421 0.105492
0.119772 0.119408 0.119289
0.090758 0.090870 0.091658
0.110356 0.110939 0.111475
0.112715 0.112917 0.112838
0.102973 0.102845 0.102825
0.096787 0.096600 0.096545
0.100494 0.100393 0.099531
0.100394 0.100991 0.102541
0.126354 0.125875 0.126400
0.103850 0.103719 0.102316
0.110704 0.110001 0.109594
0.125707 0.126503 0.126644
0.100583 0.101221 0.100806
0.116611 0.116311 0.115659
0.110933 0.110730 0.110278
0.099675 0.097835 0.097852
0.095979 0.095520 0.095187
0.116896 0.119225 0.119119
0.093308 0.092373 0.092428
0.097492 0.096903 0.095604
0.104550 0.105156 0.105739
0.119071 0.119355 0.120979
0.098320 0.098276 0.097264
0.111777 0.112012 0.112113
0.109493 0.109589 0.109481
0.116644 0.116653 0.117883
0.106731 0.106423 0.106453
0.110788 0.109568 0.109188
0.108883 0.107523 0.104769
0.105188 0.104996 0.105700
0.100668 0.100547 0.099418
0.110950 0.111682 0.111379
0.098651 0.100310 0.100967
0.123235 0.123503 0.122112
0.106661 0.106662 0.107493
0.112938 0.113083 0.113340
0.137682 0.137527 0.135831
0.131568 0.131429 0.131341
0.114564 0.113561 0.113374
0.108324 0.109168 0.108631
0.109776 0.108711 0.108419
0.097751 0.096826 0.096012
0.101905 0.101463 0.101517
0.109816 0.109469 0.109747
0.112284 0.110998 0.111244
0.103011 0.101352 0.101497
0.093030 0.093408 0.093918
0.103214 0.101459 0.100863
0.106983 0.106196 0.106221
0.108170 0.108623 0.108590
0.115861 0.115913 0.116293
0.100299 0.100610 0.100936
0.111462 0.111086 0.109433
0.093337 0.094025 0.093954
0.109943 0.109748 0.109285
0.097969 0.097992 0.098072
0.112963 0.113000 0.112975
0.123762 0.123865 0.123485
0.103039 0.103129 0.103782
0.096342 0.096905 0.096820
0.114690 0.114559 0.114590
0.122124 0.124260 0.123210
0.093978 0.094241 0.094825
0.113015 0.113799 0.113962
0.106568 0.106107 0.106601
0.111425 0.110405 0.110038
0.123715 0.123855 0.124094
0.105525 0.104467 0.104545
0.128710 0.129146 0.129350
0.103049 0.104127 0.104631
0.119175 0.119389 0.119167
0.102381 0.101867 0.100099
0.132014 0.131687 0.131599
0.100673 0.101120 0.101761
0.113172 0.111919 0.113340
0.115166 0.116214 0.116941
0.116437 0.116936 0.115844
0.093370 0.093252 0.093828
0.110408 0.110022 0.110987
0.113618 0.113262 0.113590
0.093443 0.093499 0.094151
0.116180 0.116212 0.115605
0.094920 0.095027 0.094946
0.109897 0.108772 0.109083
0.114902 0.115055 0.114541
0.102805 0.102553 0.103035
0.110766 0.109346 0.110319
0.113308 0.113520 0.113594
0.112099 0.114890 0.115962
0.101702 0.101879 0.101993
0.112684 0.112558 0.112375
0.108914 0.108948 0.108574
0.100013 0.100095 0.100608
0.099803 0.100730 0.100167
0.110188 0.110839 0.111164
0.106327 0.106690 0.106605
0.122681 0.123255 0.123562
0.095793 0.095539 0.094351
0.095913 0.096130 0.096995
0.096650 0.095386 0.095126
0.108360 0.107994 0.108194
0.105964 0.106048 0.105931
0.101742 0.103160 0.104232
0.098376 0.099473 0.098872
0.117824 0.119237 0.118378
0.102489 0.102562 0.103930
0.100858 0.101267 0.101050
0.093750 0.093566 0.093948
0.111436 0.112943 0.113561
0.110958 0.110874 0.110326
0.100150 0.100404 0.101881
0.116795 0.116572 0.117024
0.105704 0.105851 0.104974
0.099543 0.099721 0.099335
0.102004 0.102469 0.102589
0.095939 0.095756 0.095771
0.116084 0.118019 0.117398
0.114856 0.115553 0.114962
0.102549 0.102895 0.102890
0.110941 0.110801 0.110649
0.101587 0.101570 0.100079
0.097198 0.098108 0.098290
0.106191 0.105341 0.105069
0.107712 0.107619 0.106626
0.129116 0.129903 0.130826
0.110111 0.109652 0.109575
0.115803 0.117897 0.116945
0.096977 0.097092 0.097441
0.102132 0.102088 0.102318
0.095934 0.096475 0.095980
0.097277 0.097423 0.097484
0.128750 0.129005 0.127591
0.093918 0.094238 0.094482
0.103239 0.102792 0.101575
0.103789 0.103928 0.103742
0.109116 0.110225 0.111772
0.099280 0.098463 0.098718
0.101671 0.100658 0.100768
0.103289 0.102401 0.100548
0.110016 0.109449 0.108270
0.108089 0.107723 0.107164
0.098471 0.099207 0.099327
0.089977 0.090151 0.090485
0.109790 0.109918 0.108896
0.100461 0.100234 0.099224
0.101609 0.102303 0.102189
0.098130 0.097978 0.098559
0.104000 0.104282 0.104533
0.100213 0.099398 0.098972
0.107519 0.107017 0.107920
0.108535 0.107767 0.107674
0.117016 0.115986 0.115653
0.097474 0.096297 0.095538
0.116440 0.116624 0.118374
0.113491 0.112192 0.113911
0.093364 0.093385 0.093572
0.111208 0.110344 0.110618
0.098310 0.099891 0.100998
0.119936 0.119365 0.119807
0.096231 0.097267 0.097159
0.098412 0.098162 0.098164
0.109427 0.109578 0.108743
0.100207 0.100324 0.100504
0.091642 0.092009 0.091955
0.100425 0.101938 0.101682
0.111863 0.111388 0.112747
0.096809 0.097563 0.095426
0.105902 0.105597 0.105362
0.134706 0.136294 0.135809
0.106795 0.107204 0.108712
0.116962 0.117895 0.118940
0.117890 0.118869 0.118735
0.092215 0.091310 0.091244
0.104123 0.103555 0.104211
0.114972 0.114930 0.114585
0.098927 0.097561 0.097668
0.093370 0.094154 0.094673
0.090021 0.090599 0.090861
0.110080 0.108598 0.109125
0.114547 0.113835 0.112825
0.095218 0.094486 0.094649
0.094433 0.094652 0.095173
0.108647 0.108016 0.107152
0.103246 0.103249 0.103307
0.111811 0.109683 0.107789
0.104182 0.104514 0.103558
0.109222 0.109220 0.108399
0.130791 0.129816 0.129665
0.115769 0.114663 0.114733
0.112874 0.112259 0.111135
0.107475 0.107612 0.107228
0.094247 0.094347 0.094451
0.118387 0.119019 0.118741
0.117670 0.117149 0.116450
0.101203 0.100917 0.100753
0.111585 0.111727 0.111838
0.099158 0.099712 0.099558
0.090415 0.090133 0.089866
0.104185 0.104245 0.103933
0.099921 0.098617 0.098862
0.101485 0.101197 0.101057
0.103019 0.103026 0.103079
0.099574 0.099572 0.099360
0.109246 0.107408 0.106696
0.107294 0.106803 0.106601
0.095539 0.094857 0.094936
0.092817 0.092478 0.091916
0.106517 0.106887 0.107226
0.106458 0.104461 0.104920
0.107326 0.107444 0.107305
0.100631 0.100839 0.100872
0.112417 0.111813 0.110847
0.119487 0.120200 0.120724
0.097386 0.097919 0.097235
0.137594 0.137538 0.137738
0.122202 0.121621 0.121790
0.113907 0.114278 0.113587
0.115908 0.116537 0.117060
0.095325 0.095150 0.095592
0.106690 0.105685 0.105689
0.103097 0.102691 0.102704
0.113064 0.113288 0.113803
0.096991 0.097285 0.098182
0.107852 0.106810 0.107529
0.100751 0.101753 0.101742
0.106017 0.106436 0.106922
0.094309 0.095301 0.095314
0.112549 0.114542 0.114766
0.107547 0.108622 0.108512
0.106909 0.106403 0.105469
0.102098 0.101897 0.100954
0.119442 0.119805 0.120320
0.108075 0.107880 0.107680
0.104615 0.102996 0.102077
0.102834 0.103059 0.102085
0.096592 0.096945 0.096521
0.112977 0.112762 0.112649
0.116911 0.116958 0.117260
0.098183 0.097848 0.097595
0.109777 0.109360 0.108517
0.095400 0.095908 0.095839
0.112287 0.113261 0.113018
0.108635 0.111590 0.111274
0.103661 0.103910 0.104362
0.098174 0.099165 0.100005
0.114799 0.116753 0.116553
0.102024 0.102590 0.102928
0.108014 0.109565 0.109732
0.108339 0.108453 0.108213
0.109906 0.109378 0.109144
0.096210 0.096118 0.096372
0.113896 0.113726 0.113516
0.095231 0.097554 0.099526
0.113374 0.113597 0.114693
0.093012 0.093397 0.093265
0.093638 0.094426 0.094725
0.113983 0.114187 0.114323
0.101356 0.101687 0.102621
0.097036 0.097851 0.097826
0.101138 0.101016 0.101438
0.111126 0.110595 0.109949
0.096977 0.097502 0.096767
0.101056 0.101277 0.101398
0.112690 0.111034 0.111334
0.112360 0.112696 0.113507
0.105814 0.105842 0.105842
0.095212 0.094720 0.093695
0.094265 0.094117 0.094914
0.100554 0.100411 0.100663
0.103347 0.102623 0.101613
0.108977 0.108446 0.107976
0.096953 0.096903 0.097424
0.101496 0.101772 0.102321
0.112848 0.112665 0.113580
0.103720 0.102167 0.101125
0.104156 0.104709 0.104916
0.112709 0.111505 0.111394
0.096925 0.096813 0.096292
0.116787 0.116240 0.115634
0.098274 0.098018 0.097915
0.098241 0.098160 0.097935
0.141133 0.141119 0.140318
0.105377 0.106082 0.105632
0.108732 0.108536 0.107716
0.097238 0.096841 0.096636
0.114368 0.114644 0.113025
0.097461 0.097620 0.097293
0.107330 0.106043 0.104713
0.116200 0.116540 0.115962
0.104251 0.105329 0.107363
0.108725 0.108851 0.108457
0.111551 0.110321 0.110307
0.111108 0.111633 0.110996
0.102341 0.102396 0.103264
0.101936 0.100340 0.100382
0.127621 0.127588 0.127377
0.111401 0.111628 0.111185
0.108009 0.107706 0.107535
0.091788 0.092414 0.092500
0.098838 0.098730 0.098593
0.112657 0.112709 0.112855
0.106782 0.105361 0.105532
0.121444 0.122257 0.121205
0.116171 0.116506 0.115025
0.097143 0.095638 0.095877
0.105600 0.105108 0.105645
0.104872 0.103954 0.103232
0.111356 0.112266 0.111904
0.088089 0.088049 0.088635
0.100751 0.101185 0.101303
0.114350 0.113245 0.114131
0.108701 0.108127 0.107666
0.109822 0.109285 0.109135
0.091941 0.091937 0.092330
0.100586 0.101394 0.103093
0.098559 0.098941 0.097710
0.094431 0.094904 0.095545
0.102031 0.101475 0.101597
0.102435 0.102537 0.102763
0.093457 0.094253 0.092922
0.110369 0.110411 0.109701
0.117437 0.117912 0.118390
0.114197 0.114497 0.114338
0.108171 0.108789 0.108970
0.110316 0.109958 0.110226
0.111142 0.110224 0.109673
0.111419 0.111488 0.111137
0.109644 0.109594 0.109178
0.096539 0.097010 0.096396
0.109378 0.109144 0.110118
0.092359 0.092439 0.092163
0.113644 0.114143 0.114101
0.113379 0.111791 0.111442
0.116956 0.117317 0.116854
0.107689 0.105861 0.106854
0.116637 0.115750 0.115620
0.111666 0.110699 0.110460
0.100550 0.099981 0.099839
0.103797 0.104333 0.104552
0.122326 0.121418 0.119602
0.114372 0.114036 0.114248
0.096270 0.095762 0.096311
0.098812 0.097581 0.096900
0.101485 0.100464 0.100631
0.102714 0.103144 0.102313
0.097160 0.098027 0.097962
0.112487 0.113275 0.114716
0.111772 0.111639 0.110890
0.093834 0.093532 0.093390
0.108247 0.107905 0.107807
0.104050 0.102923 0.102255
0.093888 0.094115 0.093958
