0.369421 0.368895 0.367285
0.389985 0.389493 0.389235
0.322487 0.319228 0.313034
0.154149 0.154964 0.156796
0.294348 0.286162 0.283188
0.339698 0.337528 0.338123
0.362939 0.362436 0.361066
0.092839 0.092839 0.092691
0.269575 0.260525 0.261626
0.320476 0.322174 0.334681
0.294351 0.296132 0.297003
0.321507 0.321907 0.321731
0.261323 0.261817 0.262100
0.317806 0.318662 0.319234
0.314122 0.313901 0.314290
0.228736 0.229268 0.229141
0.377187 0.373092 0.362773
0.262213 0.262216 0.262174
0.369271 0.370913 0.377948
0.183310 0.185584 0.185220
0.171117 0.169993 0.169648
0.083237 0.083098 0.081757
0.075227 0.076385 0.076258
0.334405 0.347744 0.351837
0.248668 0.248408 0.248667
0.330801 0.321922 0.310341
0.309756 0.309802 0.310171
0.351811 0.338056 0.332008
0.342124 0.342941 0.343756
0.305228 0.306833 0.306943
0.293882 0.292842 0.291805
0.319327 0.318667 0.318701
0.326145 0.326379 0.327080
0.174614 0.175814 0.176320
0.263153 0.263548 0.265146
0.278772 0.278964 0.279648
0.192031 0.192852 0.193012
0.092460 0.092731 0.092961
0.343069 0.344583 0.350961
0.293307 0.303317 0.303666
0.328994 0.327808 0.326665
0.320352 0.322496 0.323718
0.266713 0.269686 0.291061
0.390101 0.389709 0.389384
0.289457 0.289979 0.289768
0.160171 0.162877 0.164824
0.294209 0.314219 0.320493
0.262594 0.262417 0.262219
0.302054 0.302224 0.302178
0.106965 0.106953 0.106245
0.326832 0.326180 0.326741
0.308213 0.323681 0.326447
0.243982 0.243702 0.242354
0.299847 0.281932 0.274419
0.350139 0.347078 0.330548
0.342864 0.342682 0.341023
0.304905 0.306713 0.307439
0.082998 0.083238 0.083206
0.361843 0.361785 0.347618
0.297655 0.295597 0.293445
0.263630 0.292422 0.299804
0.316591 0.313087 0.300922
0.278409 0.271607 0.271500
0.314070 0.314313 0.316576
0.347747 0.347868 0.347259
0.394402 0.394145 0.383278
0.210084 0.209762 0.210979
0.280976 0.282382 0.283286
0.240637 0.240410 0.241789
0.355949 0.376345 0.379206
0.350540 0.349771 0.350107
0.356971 0.366244 0.352498
0.177241 0.178639 0.183433
0.071225 0.071305 0.070666
0.341403 0.341416 0.335995
0.330844 0.331044 0.328981
0.365416 0.366662 0.366743
0.362991 0.362687 0.363097
0.287442 0.275026 0.274011
0.078942 0.079801 0.079689
0.083863 0.083625 0.082517
0.211780 0.211429 0.212254
0.336291 0.328510 0.326914
0.370512 0.371058 0.372038
0.322077 0.310177 0.302029
0.107854 0.109326 0.110203
0.283534 0.283461 0.283503
0.298833 0.299092 0.299549
0.164940 0.164628 0.163481
0.379991 0.383288 0.382306
0.379105 0.378711 0.380480
0.337449 0.336778 0.336583
0.084356 0.084717 0.084030
0.320687 0.320741 0.320782
0.355960 0.344443 0.344834
0.306728 0.308242 0.323643
0.088774 0.088722 0.089767
0.167402 0.167764 0.167931
0.307744 0.304324 0.313943
0.337169 0.336853 0.336688
0.243094 0.241777 0.240673
0.081007 0.080457 0.080159
0.071686 0.072149 0.071998
0.347618 0.347036 0.342552
0.344939 0.344455 0.344177
0.153146 0.153362 0.154187
0.341440 0.341262 0.329822
0.295392 0.274396 0.273685
0.299616 0.299471 0.298737
0.279756 0.279657 0.292080
0.279040 0.265988 0.265617
0.343885 0.344279 0.344195
0.265993 0.262059 0.260622
0.292632 0.289236 0.282008
0.349833 0.339910 0.343071
0.383971 0.383314 0.369976
0.376873 0.377318 0.376557
0.203161 0.234947 0.239215
0.214867 0.216498 0.216887
0.339036 0.338769 0.339301
0.078524 0.078055 0.077879
0.385967 0.385680 0.385513
0.346955 0.346927 0.346846
0.360400 0.359510 0.358845
0.070891 0.070912 0.072131
0.073893 0.074439 0.075578
0.354592 0.353261 0.355669
0.318639 0.314578 0.314380
0.326356 0.326300 0.327204
0.336656 0.336700 0.336652
0.300684 0.299504 0.315694
0.270579 0.289694 0.293937
0.082645 0.082367 0.082833
0.178391 0.177873 0.178617
0.378035 0.378467 0.378700
0.321931 0.308907 0.306223
0.296684 0.298254 0.298718
0.342016 0.334827 0.333534
0.393651 0.395063 0.395537
0.317671 0.315068 0.315881
0.335277 0.335880 0.335519
0.267482 0.265210 0.267928
0.301794 0.307616 0.309301
0.256356 0.248284 0.235058
0.363353 0.363346 0.363998
0.316070 0.316709 0.316703
0.204888 0.202923 0.202752
0.282510 0.294675 0.296958
0.357541 0.355936 0.355408
0.190495 0.190610 0.190034
0.317551 0.317531 0.318397
0.368069 0.369573 0.370163
0.315842 0.316708 0.317070
0.068962 0.070432 0.071425
0.176275 0.176099 0.176556
0.067643 0.067618 0.067422
0.339002 0.321786 0.316507
0.342932 0.341797 0.343526
0.322349 0.322835 0.321530
0.377760 0.382922 0.381868
0.285970 0.287294 0.287496
0.317530 0.317730 0.318324
0.291626 0.291957 0.289292
0.320049 0.318517 0.321115
0.077609 0.077848 0.077928
0.333954 0.318132 0.317377
0.290894 0.287952 0.290069
0.188734 0.189743 0.191546
0.361834 0.362226 0.365397
0.375740 0.375351 0.375296
0.348357 0.364100 0.368003
0.292156 0.293087 0.304069
0.348732 0.349697 0.349371
0.369057 0.367176 0.360899
0.386774 0.392175 0.392158
0.360349 0.360581 0.360700
0.396105 0.396865 0.395463
0.310555 0.314086 0.314730
0.375366 0.375216 0.373642
0.294619 0.294090 0.294288
0.074600 0.074598 0.074697
0.325180 0.325717 0.325932
0.086001 0.086136 0.086029
0.184517 0.183531 0.182992
0.073933 0.073876 0.073415
0.361184 0.360952 0.361100
0.069568 0.069663 0.069971
0.304497 0.325102 0.327043
0.378610 0.377127 0.374718
0.171186 0.171054 0.170644
0.085191 0.084950 0.085210
0.304027 0.277534 0.278176
0.353363 0.345490 0.338613
0.375634 0.365077 0.358047
0.074083 0.074042 0.073818
0.284340 0.283047 0.281705
0.231424 0.234034 0.235042
0.337113 0.346782 0.347271
0.178794 0.178165 0.177884
0.083367 0.083569 0.083703
0.340614 0.347688 0.347142
0.288579 0.279929 0.278346
0.328865 0.327690 0.329209
0.087971 0.087723 0.087800
0.084542 0.084694 0.084389
0.076310 0.076397 0.076787
0.221394 0.221864 0.216744
0.385140 0.387926 0.398737
0.301723 0.303837 0.304298
0.387227 0.386698 0.386782
0.317419 0.317181 0.316720
0.311640 0.310703 0.310524
0.391099 0.384244 0.382519
0.077755 0.076674 0.077588
0.092905 0.092407 0.092614
0.323899 0.323350 0.321343
0.310467 0.310473 0.309119
0.077028 0.077046 0.076971
0.314638 0.314888 0.314883
0.261574 0.261825 0.261247
0.321860 0.322185 0.320874
0.289131 0.292973 0.318192
0.293025 0.293042 0.293952
0.330255 0.313946 0.312848
0.297436 0.297534 0.297413
0.359388 0.359271 0.359453
0.373846 0.373747 0.373416
0.300363 0.300833 0.302145
0.088251 0.087957 0.087990
0.199673 0.200228 0.204445
0.318355 0.318309 0.318417
0.281698 0.277769 0.277625
0.098900 0.098874 0.099202
0.300934 0.302139 0.303442
0.390981 0.388707 0.364410
0.260026 0.260060 0.259757
0.331055 0.330800 0.329659
0.383415 0.379309 0.381438
0.305379 0.308051 0.311103
0.389214 0.365817 0.361539
0.304027 0.303878 0.303084
0.279237 0.281797 0.282195
0.327444 0.346073 0.365416
0.294414 0.294130 0.293951
0.318728 0.325531 0.344303
0.315833 0.315646 0.314752
0.075628 0.074620 0.074306
0.392146 0.407941 0.422303
0.343778 0.342116 0.342322
0.285654 0.285929 0.283253
0.332220 0.330492 0.334871
0.074218 0.073989 0.073983
0.107092 0.106799 0.107314
0.356389 0.356647 0.357720
0.091604 0.092252 0.091910
0.349174 0.350366 0.350731
0.091327 0.091111 0.090828
0.386536 0.386582 0.386789
0.321083 0.320793 0.320843
0.365378 0.366661 0.366991
0.069151 0.069114 0.069774
0.089049 0.089125 0.088681
0.371278 0.383784 0.384893
0.299526 0.288899 0.288716
0.345277 0.346592 0.345022
0.352898 0.353538 0.353059
0.323277 0.339909 0.343683
0.343272 0.318125 0.313541
0.103455 0.103613 0.103149
0.275432 0.275779 0.276092
0.392063 0.392085 0.391568
0.077746 0.077458 0.076959
0.341436 0.340877 0.342289
0.266856 0.267698 0.279993
0.067015 0.066888 0.066700
0.307623 0.307727 0.309163
0.097092 0.096557 0.095601
0.388830 0.391484 0.391807
0.356676 0.358178 0.358299
0.343496 0.334888 0.333112
0.189894 0.189455 0.189664
0.276346 0.278688 0.278650
0.332072 0.332421 0.331776
0.072128 0.071943 0.071542
0.220223 0.223507 0.224117
0.368879 0.368769 0.370562
0.386957 0.387097 0.387513
0.321442 0.321902 0.321705
0.165827 0.168607 0.168549
0.335697 0.335598 0.335274
0.190794 0.186945 0.186908
0.079770 0.079828 0.080180
0.318170 0.317677 0.317534
0.382568 0.381843 0.381728
0.347651 0.348089 0.347418
0.321111 0.331832 0.331890
0.313740 0.314065 0.313850
0.165807 0.165694 0.166971
0.303342 0.313630 0.313791
0.340316 0.332762 0.332142
0.171465 0.170558 0.168968
0.295418 0.295359 0.295472
0.080674 0.080198 0.081941
0.409872 0.411198 0.412065
0.186246 0.186749 0.186632
0.341544 0.339638 0.339948
0.343404 0.333816 0.337831
0.365804 0.365646 0.365378
0.224894 0.226173 0.226360
0.352328 0.352464 0.353885
0.362968 0.364697 0.368766
0.285502 0.286202 0.287444
0.325621 0.325598 0.326318
0.339313 0.339981 0.339848
0.355707 0.355829 0.355708
0.217717 0.217021 0.216064
0.350598 0.346088 0.346346
0.353515 0.352785 0.342992
0.341878 0.341753 0.341541
0.381812 0.381865 0.382626
0.331724 0.331376 0.326767
0.086002 0.086509 0.086173
0.313224 0.313202 0.312447
0.388919 0.388873 0.380129
0.192584 0.192295 0.192425
0.306477 0.306628 0.306673
0.087786 0.087543 0.086827
0.314764 0.314934 0.315238
0.086388 0.086292 0.086205
0.203874 0.201031 0.201624
0.270193 0.270230 0.270633
0.325126 0.325499 0.336945
0.340503 0.343099 0.343182
0.076999 0.076414 0.076223
0.322795 0.320439 0.321437
0.183310 0.183554 0.183313
0.334247 0.334816 0.336527
0.335521 0.326342 0.323992
0.320440 0.320809 0.320843
0.266015 0.265546 0.261424
0.307727 0.309163 0.309360
0.371593 0.372494 0.374792
0.281526 0.281826 0.284159
0.069026 0.068998 0.069183
0.321780 0.321028 0.320340
0.211211 0.211119 0.209867
0.336700 0.336556 0.334571
0.171269 0.170817 0.169151
0.315015 0.315508 0.316070
0.274930 0.275079 0.275207
0.358693 0.357925 0.349739
0.306801 0.302999 0.302483
0.342096 0.322857 0.321464
0.075640 0.075054 0.073829
0.314661 0.316560 0.317530
0.293224 0.298203 0.299926
0.343279 0.342375 0.343030
0.190518 0.190236 0.190315
0.341086 0.341436 0.342314
0.299716 0.299968 0.300083
0.344479 0.344699 0.343515
0.300913 0.300015 0.299909
0.333910 0.333379 0.332728
0.349446 0.348889 0.347360
0.379531 0.379682 0.380310
0.237642 0.236148 0.235545
0.277975 0.277287 0.276733
0.325407 0.331497 0.314577
0.248408 0.248667 0.244024
0.064676 0.064530 0.064949
0.367662 0.366637 0.367337
0.371958 0.371343 0.370961
0.297566 0.294630 0.294351
0.284797 0.285409 0.286269
0.295682 0.295585 0.297112
0.221164 0.224894 0.226173
0.182043 0.182510 0.185704
0.372684 0.372428 0.370850
0.193837 0.194026 0.193206
0.382421 0.380534 0.371122
0.079512 0.078743 0.078476
0.412065 0.412263 0.411698
0.295734 0.279797 0.274794
0.350632 0.351124 0.348244
0.307876 0.307631 0.305434
0.384398 0.385907 0.385471
0.356354 0.355677 0.355408
0.327310 0.309776 0.307812
0.344492 0.345003 0.344399
0.312560 0.328655 0.311858
0.196794 0.197106 0.197061
0.365519 0.364678 0.363602
0.351106 0.352420 0.354274
0.071800 0.072021 0.072165
0.392807 0.392571 0.388028
0.068220 0.068507 0.068366
0.354392 0.353421 0.351708
0.216524 0.216034 0.216107
0.182499 0.183540 0.183807
0.356560 0.357070 0.359135
0.290429 0.290038 0.287091
0.324783 0.323996 0.319811
0.320360 0.320102 0.320808
0.348515 0.347681 0.338774
0.345081 0.346509 0.345965
0.312821 0.314912 0.315095
0.254490 0.254611 0.254193
0.359281 0.360516 0.365652
0.337008 0.339522 0.340010
0.316324 0.316151 0.316076
0.275201 0.275827 0.277405
0.096899 0.097291 0.097838
0.189257 0.188269 0.187992
0.310184 0.309964 0.309780
0.358477 0.358827 0.359479
0.287095 0.285941 0.286090
0.161513 0.161800 0.161576
0.083594 0.083820 0.083164
0.087577 0.088545 0.088671
0.387315 0.386286 0.386172
0.299707 0.302600 0.304905
0.323016 0.322282 0.322017
0.326792 0.326629 0.326593
0.321220 0.321315 0.321576
0.088927 0.088708 0.089416
0.425002 0.422889 0.409419
0.206902 0.203495 0.203254
0.071523 0.071610 0.071470
0.378437 0.376711 0.378369
0.073812 0.071650 0.071278
0.076218 0.075781 0.075918
0.374571 0.361092 0.343302
0.331651 0.329250 0.329387
0.337354 0.336907 0.337031
0.088274 0.088675 0.088609
0.285628 0.285731 0.285826
0.392677 0.394029 0.396850
0.391531 0.393031 0.392633
0.068258 0.067871 0.067850
0.273617 0.275009 0.291920
0.309139 0.309116 0.308165
0.286999 0.290654 0.291181
0.364353 0.363971 0.361965
0.210907 0.210171 0.208716
0.341121 0.355365 0.367411
0.374793 0.364856 0.373201
0.354704 0.354592 0.354542
0.069211 0.069574 0.070082
0.325509 0.320022 0.331398
0.312351 0.312594 0.312591
0.289483 0.288722 0.290975
0.083151 0.082811 0.082277
0.375631 0.395675 0.389261
0.300426 0.300373 0.285169
0.337693 0.339187 0.339125
0.384339 0.373778 0.371210
0.371264 0.397182 0.398730
0.377063 0.374686 0.369310
0.268489 0.268441 0.268593
0.290051 0.289626 0.289567
0.338427 0.338517 0.341191
0.310177 0.302029 0.298447
0.377083 0.372553 0.370651
0.371377 0.372834 0.377997
0.282935 0.293815 0.294961
0.226115 0.224594 0.224669
0.384498 0.384554 0.383041
0.313875 0.312713 0.312762
0.375578 0.374102 0.377237
0.183970 0.185677 0.186108
0.365533 0.375794 0.374015
0.334724 0.342987 0.342951
0.332521 0.324213 0.318397
0.082047 0.082292 0.082274
0.374437 0.373711 0.379733
0.332028 0.334882 0.335067
0.071712 0.072309 0.071918
0.358138 0.358469 0.358477
0.177713 0.177684 0.177493
0.199136 0.198077 0.197161
0.343697 0.346900 0.339712
0.371877 0.375323 0.376319
0.076736 0.076333 0.076397
0.351584 0.343117 0.336733
0.083043 0.083246 0.083241
0.329918 0.330401 0.331789
0.293797 0.293247 0.291343
0.328506 0.328138 0.327484
0.293716 0.292052 0.290763
0.397651 0.398248 0.399068
0.335817 0.333028 0.331784
0.176388 0.177366 0.177523
0.399514 0.397736 0.397361
0.295406 0.296103 0.298207
0.166097 0.166146 0.165720
0.282027 0.278913 0.267019
0.294890 0.294156 0.295114
0.312807 0.312448 0.313040
0.347340 0.346967 0.345505
0.358639 0.357004 0.356905
0.341844 0.341688 0.341655
0.190838 0.191530 0.193214
0.302055 0.297851 0.297692
0.349538 0.349153 0.349091
0.374312 0.374288 0.362642
0.176281 0.178637 0.174686
0.337885 0.340847 0.341995
0.367204 0.367999 0.365633
0.233655 0.237275 0.236353
0.351481 0.352052 0.350257
0.406905 0.405729 0.399141
0.082895 0.083176 0.083183
0.371452 0.371604 0.373650
0.311569 0.323119 0.332011
0.297839 0.297887 0.297504
0.082757 0.082974 0.083094
0.359542 0.359698 0.359567
0.374007 0.377896 0.378492
0.351659 0.350975 0.351314
0.277919 0.298533 0.302351
0.367017 0.365418 0.357889
0.073156 0.073159 0.073637
0.281044 0.271149 0.270972
0.421145 0.408854 0.408375
0.384187 0.384420 0.383901
0.203857 0.203198 0.203932
0.265302 0.265509 0.267501
0.359896 0.361475 0.361669
0.385348 0.385910 0.384534
0.072230 0.072289 0.072698
0.335276 0.335554 0.335841
0.073590 0.073281 0.073933
0.294107 0.294142 0.300109
0.370688 0.364780 0.363502
0.079545 0.078801 0.078524
0.358263 0.358380 0.363127
0.360700 0.361072 0.361408
0.311049 0.310897 0.310263
0.213679 0.214116 0.221394
0.388880 0.377765 0.373444
0.330999 0.332883 0.333159
0.289239 0.288409 0.286635
0.083491 0.086496 0.088048
0.356142 0.356019 0.356041
0.329473 0.328743 0.324825
0.202175 0.202334 0.204157
0.365285 0.351398 0.350499
0.408290 0.408510 0.411590
0.353892 0.355092 0.355606
0.339393 0.337884 0.337751
0.154192 0.154029 0.153797
0.348999 0.339176 0.322266
0.366879 0.366927 0.367291
0.077135 0.076965 0.076732
0.292505 0.292538 0.292577
0.179615 0.176021 0.175617
0.311226 0.308456 0.308519
0.236776 0.237124 0.235611
0.275941 0.276661 0.276909
0.072901 0.073889 0.074127
0.192078 0.193101 0.192546
0.085351 0.085035 0.085336
0.241943 0.241742 0.243189
0.366851 0.363466 0.363863
0.299762 0.299755 0.300137
0.241830 0.241983 0.241498
0.070825 0.071439 0.071352
0.331327 0.331381 0.331565
0.076265 0.077272 0.077280
0.319077 0.319485 0.320117
0.355536 0.355768 0.355839
0.329196 0.333364 0.333099
0.298006 0.297720 0.297771
0.359194 0.359659 0.359705
0.368455 0.348822 0.347306
0.324326 0.324579 0.323509
0.224017 0.224810 0.229317
0.305394 0.304252 0.290775
0.343802 0.344308 0.344429
0.393249 0.395833 0.396021
0.344434 0.344850 0.345167
0.105064 0.106968 0.107319
0.363313 0.368167 0.368753
0.408402 0.409375 0.411648
0.085552 0.084459 0.085295
0.333648 0.333628 0.333474
0.180860 0.181948 0.182762
0.072048 0.071930 0.071432
0.083111 0.083330 0.084484
0.330848 0.331986 0.332348
0.166113 0.166231 0.160803
0.290069 0.290051 0.299439
0.339830 0.338179 0.320360
0.336172 0.336819 0.336374
0.106555 0.107518 0.107717
0.073884 0.073431 0.073476
0.333356 0.333526 0.333249
0.321089 0.323726 0.333770
0.358748 0.359920 0.360003
0.084069 0.084061 0.083950
0.357913 0.358006 0.356230
0.078726 0.078792 0.078940
0.338549 0.326965 0.309054
0.287328 0.284563 0.284834
0.323142 0.322930 0.322690
0.352584 0.352429 0.351878
0.361267 0.359139 0.359127
0.344567 0.343084 0.336353
0.237621 0.237810 0.236759
0.345032 0.337971 0.330968
0.166222 0.164692 0.163612
0.359598 0.360300 0.370341
0.325648 0.326323 0.326594
0.069556 0.070284 0.069976
0.343792 0.344488 0.345599
0.347954 0.360463 0.368043
0.078622 0.078403 0.078128
0.315881 0.316095 0.318179
0.284536 0.284756 0.285123
0.321369 0.320405 0.319527
0.096914 0.097892 0.097968
0.071895 0.071882 0.072114
0.278196 0.291152 0.291685
0.077387 0.077662 0.078957
0.277752 0.277364 0.277774
0.177030 0.177245 0.176636
0.379252 0.381965 0.390173
0.333278 0.334489 0.344456
0.378665 0.379074 0.379278
0.309237 0.306965 0.296143
0.383674 0.386523 0.386957
0.346948 0.343890 0.336372
0.314988 0.322584 0.323435
0.347060 0.352588 0.355504
0.286849 0.290841 0.290907
0.191968 0.192273 0.192818
0.361391 0.360087 0.359450
0.318251 0.316402 0.313747
0.096748 0.096849 0.097698
0.312626 0.313268 0.314708
0.298650 0.299970 0.301584
0.171151 0.171764 0.172293
0.082718 0.082389 0.081513
0.324970 0.326469 0.327239
0.370819 0.360052 0.357553
0.093133 0.092784 0.093086
0.107446 0.107861 0.108005
0.274802 0.274796 0.275484
0.394557 0.393096 0.392521
0.323373 0.323424 0.322439
0.322395 0.313961 0.302994
0.371831 0.370441 0.371442
0.327573 0.328726 0.329857
0.279105 0.279352 0.297053
0.337499 0.336559 0.338079
0.333256 0.332104 0.331716
0.291552 0.293042 0.293496
0.339808 0.340794 0.339658
0.412100 0.424224 0.427979
0.177615 0.177466 0.176617
0.327633 0.328268 0.326884
0.188570 0.190129 0.189752
0.080784 0.080058 0.080050
0.371610 0.371738 0.371806
0.370420 0.379332 0.384865
0.319795 0.320473 0.320678
0.344065 0.343737 0.343746
0.344719 0.338801 0.344135
0.365634 0.365772 0.365694
0.097907 0.097975 0.097611
0.068147 0.067453 0.067176
0.299757 0.301130 0.302913
0.238840 0.251395 0.259484
0.315111 0.314972 0.315138
0.374792 0.366542 0.365591
0.372434 0.372214 0.371159
0.299442 0.296092 0.295133
0.342036 0.331227 0.324711
0.272447 0.270719 0.270902
0.323616 0.324388 0.336706
0.256492 0.274890 0.292751
0.360311 0.359515 0.360522
0.321360 0.318866 0.303059
0.082277 0.081884 0.081717
0.297778 0.309148 0.312980
0.075842 0.075480 0.075672
0.297258 0.299609 0.298739
0.368292 0.368199 0.368062
0.286988 0.286881 0.286461
0.335414 0.335595 0.337090
0.226433 0.225266 0.221740
0.375275 0.383294 0.390205
0.305459 0.306691 0.306728
0.298129 0.298361 0.295671
0.275609 0.275616 0.275507
0.348725 0.347921 0.344469
0.087457 0.088325 0.089033
0.348095 0.342482 0.318279
0.309570 0.309458 0.306621
0.357467 0.357649 0.358375
0.391568 0.390683 0.388602
0.327262 0.327280 0.329197
0.111801 0.111122 0.111102
0.298764 0.297542 0.295726
0.333903 0.332336 0.324638
0.408510 0.411590 0.423253
0.299005 0.299310 0.299736
0.314446 0.332541 0.334040
0.369188 0.366094 0.364585
0.169886 0.169166 0.169271
0.321299 0.323001 0.324584
0.182806 0.182700 0.184028
0.399466 0.398419 0.398150
0.327926 0.326838 0.327139
0.350632 0.350503 0.352330
0.085135 0.085291 0.085124
0.192569 0.196666 0.197053
0.373216 0.373977 0.375305
0.373463 0.374138 0.373584
0.326547 0.325605 0.324483
0.350907 0.352732 0.352152
0.271553 0.272129 0.272130
0.284661 0.284851 0.301036
0.315694 0.315906 0.315255
0.281107 0.301027 0.312474
0.376577 0.376455 0.376080
0.338876 0.318718 0.298226
0.315899 0.301692 0.293953
0.160572 0.158843 0.158202
0.279013 0.279316 0.279272
0.365875 0.368997 0.368369
0.079793 0.080048 0.080660
0.303302 0.303548 0.303906
0.327692 0.341655 0.340958
0.276476 0.275613 0.275698
0.299099 0.298909 0.298930
0.299228 0.308331 0.311918
0.291312 0.295609 0.310982
0.310768 0.310966 0.310800
0.368910 0.369222 0.364850
0.372986 0.374148 0.373706
0.314438 0.297126 0.294255
0.366743 0.366620 0.367348
0.084319 0.084939 0.085308
0.275317 0.275123 0.275472
0.076704 0.076403 0.076254
0.234372 0.234505 0.236889
0.362256 0.363561 0.364578
0.084810 0.084735 0.084332
0.291032 0.290004 0.267100
0.349846 0.349962 0.349558
0.332137 0.332778 0.335047
0.305826 0.304634 0.304605
0.334684 0.329141 0.329410
0.388920 0.382174 0.373390
0.209962 0.209543 0.212113
0.288885 0.287826 0.288053
0.343109 0.340912 0.339777
0.179481 0.179002 0.179685
0.312219 0.314878 0.317025
0.345614 0.343606 0.332289
0.327656 0.327171 0.326225
0.076892 0.077833 0.078668
0.288781 0.287930 0.286954
0.327028 0.326456 0.326292
0.204666 0.203635 0.205035
0.320214 0.317047 0.312064
0.380018 0.380239 0.382843
0.361693 0.361373 0.361502
0.291288 0.291541 0.291744
0.327192 0.325155 0.326161
0.300058 0.300186 0.299236
0.166544 0.166159 0.162494
0.311309 0.311367 0.311366
0.351347 0.351005 0.351755
0.407707 0.404475 0.385108
0.278841 0.298546 0.313403
0.083115 0.083529 0.083375
0.344153 0.344623 0.344931
0.346437 0.346574 0.338337
0.243387 0.243020 0.243048
0.364664 0.364418 0.365035
0.317022 0.317205 0.316972
0.236731 0.236102 0.235385
0.347821 0.365921 0.367522
0.069918 0.069917 0.070185
0.328522 0.328020 0.328195
0.334336 0.332680 0.329004
0.342776 0.345081 0.346509
0.170599 0.170849 0.172151
0.198643 0.198185 0.197344
0.287771 0.287232 0.285109
0.302463 0.302552 0.302701
0.318866 0.303059 0.290598
0.266779 0.267012 0.266779
0.086710 0.087790 0.087410
0.281255 0.285905 0.300707
0.372661 0.372686 0.375333
0.338764 0.316979 0.316631
0.272539 0.291428 0.295099
0.188432 0.190473 0.192991
0.356324 0.357513 0.357667
0.270866 0.268148 0.270893
0.378544 0.377645 0.377594
0.264363 0.264818 0.264227
0.311094 0.313562 0.313577
0.306373 0.306569 0.308534
0.305902 0.305782 0.304465
0.077680 0.077719 0.077901
0.322690 0.321635 0.320901
0.243288 0.242903 0.242640
0.260796 0.265173 0.267046
0.298425 0.298456 0.298285
0.385186 0.384389 0.384392
0.081988 0.081421 0.080705
0.336958 0.337131 0.337250
0.345108 0.339643 0.350248
0.373189 0.372641 0.370523
0.182009 0.181916 0.181904
0.073658 0.074197 0.074039
0.082557 0.082557 0.082708
0.083003 0.082079 0.081953
0.335636 0.334818 0.334404
0.339965 0.340541 0.339600
0.186809 0.186241 0.186168
0.287051 0.287693 0.287173
0.083071 0.082947 0.083033
0.304030 0.302585 0.301433
0.385887 0.387596 0.387214
0.318665 0.320382 0.321859
0.400861 0.400586 0.402777
0.405983 0.404538 0.401205
0.344534 0.342412 0.331149
0.362804 0.362880 0.362877
0.333789 0.333712 0.333206
0.104913 0.107225 0.107302
0.299733 0.294606 0.294082
0.332821 0.327436 0.327656
0.316591 0.319221 0.319472
0.202715 0.203745 0.203053
0.369379 0.369412 0.371278
0.383592 0.386589 0.388271
0.078755 0.078940 0.077583
0.263273 0.261148 0.263661
0.070217 0.069031 0.069579
0.397749 0.397344 0.397298
0.275022 0.275281 0.275413
0.192532 0.191447 0.191236
0.311201 0.309403 0.311735
0.339382 0.339591 0.329384
0.192558 0.199155 0.198735
0.314849 0.313144 0.313489
0.391053 0.391242 0.391235
0.093993 0.093690 0.091734
0.293273 0.293073 0.293030
0.368028 0.350084 0.345289
0.079700 0.080308 0.079804
0.072629 0.071568 0.071619
0.277471 0.277775 0.277809
0.170503 0.170510 0.169937
0.303518 0.301675 0.310045
0.209867 0.209107 0.209108
0.087905 0.087836 0.087696
0.200507 0.201266 0.200796
0.227297 0.226951 0.226476
0.075963 0.075123 0.075324
0.297516 0.298408 0.296829
0.373829 0.372894 0.372625
0.262172 0.265783 0.264971
0.086407 0.086300 0.086281
0.297749 0.295423 0.295656
0.368447 0.368888 0.369162
0.297361 0.297519 0.297578
0.357408 0.357998 0.357913
0.304268 0.304289 0.303683
0.368458 0.368245 0.368131
0.168970 0.169753 0.169964
0.290930 0.291308 0.291586
0.276323 0.275190 0.275416
0.088318 0.087841 0.088213
0.363560 0.363822 0.363067
0.374992 0.374470 0.375202
0.341771 0.347187 0.348526
0.217348 0.220969 0.221299
0.356545 0.357459 0.357796
0.379744 0.378618 0.379990
0.358778 0.358542 0.358179
0.284582 0.284017 0.283735
0.195675 0.194873 0.186536
0.385343 0.384929 0.384402
0.338290 0.338985 0.338523
0.317946 0.317660 0.317160
0.202352 0.202099 0.201927
0.170614 0.170697 0.170788
0.369282 0.367844 0.369160
0.360035 0.359946 0.359785
0.084979 0.086614 0.086572
0.324211 0.324136 0.325819
0.330664 0.331010 0.332092
0.371937 0.339405 0.335001
0.344273 0.344182 0.346387
0.358032 0.359174 0.359195
0.201700 0.202588 0.200314
0.347763 0.348974 0.348945
0.361300 0.360981 0.360901
0.324782 0.324741 0.325231
0.295760 0.280845 0.278626
0.212809 0.212816 0.212771
0.345541 0.347419 0.357360
0.332790 0.332857 0.331254
0.179873 0.183078 0.183482
0.302675 0.316666 0.321541
0.344847 0.344506 0.344598
0.316182 0.315890 0.315414
0.338355 0.337539 0.336656
0.186800 0.188432 0.190473
0.378028 0.378534 0.378822
0.096471 0.096546 0.096766
0.080512 0.081841 0.081862
0.315186 0.315034 0.313508
0.323567 0.323928 0.323668
0.083000 0.083030 0.083579
0.374711 0.365861 0.364208
0.331781 0.331693 0.331918
0.200259 0.200225 0.200672
0.237124 0.235611 0.233928
0.342393 0.342372 0.343173
0.328676 0.327565 0.327025
0.073717 0.073884 0.073431
0.337200 0.339395 0.340417
0.178471 0.179789 0.181271
0.392325 0.383667 0.384069
0.314710 0.312303 0.310703
0.195406 0.198642 0.199217
0.336752 0.335597 0.333527
0.322711 0.329370 0.330664
0.300832 0.300404 0.300339
0.337084 0.337499 0.336559
0.240499 0.216919 0.210122
0.342765 0.342891 0.342925
0.303874 0.304554 0.303899
0.334125 0.346637 0.350700
0.315586 0.315132 0.314775
0.335511 0.336762 0.350291
0.083499 0.083237 0.083098
0.352213 0.352327 0.352392
0.264545 0.264764 0.264151
0.221423 0.221911 0.222773
0.337358 0.346654 0.345261
0.315890 0.315414 0.315480
0.080143 0.080603 0.081432
0.354688 0.354704 0.354592
0.183362 0.181142 0.179573
0.189115 0.188889 0.189652
0.309773 0.312485 0.314786
0.088027 0.087692 0.087687
0.208588 0.206914 0.202554
0.310600 0.312419 0.331132
0.183554 0.183313 0.183613
0.311580 0.314521 0.315907
0.427786 0.427991 0.425265
0.340881 0.351731 0.353400
0.322975 0.320455 0.300916
0.283348 0.283534 0.283461
0.310336 0.293398 0.294651
0.383613 0.383695 0.383233
0.305758 0.295776 0.296493
0.224676 0.221609 0.220308
0.294935 0.294760 0.296146
0.340037 0.326651 0.321318
0.176424 0.176064 0.176077
0.335705 0.335251 0.335511
0.272027 0.272046 0.272214
0.310029 0.310887 0.311173
0.073684 0.073636 0.074369
0.392387 0.392761 0.392944
0.351795 0.351498 0.352039
0.335418 0.336194 0.336226
0.177185 0.182359 0.189505
0.339260 0.339222 0.338380
0.347636 0.347724 0.343373
0.192541 0.196328 0.196368
0.096350 0.096558 0.096605
0.176617 0.175149 0.175703
0.344997 0.344466 0.344226
0.284816 0.307869 0.308061
0.154964 0.156796 0.157243
0.378956 0.380329 0.382415
0.269920 0.268379 0.269025
0.319772 0.319904 0.320038
0.091010 0.090376 0.088069
0.384245 0.395171 0.395726
0.348768 0.348360 0.348266
0.353579 0.339151 0.355008
0.328523 0.328676 0.327565
0.387660 0.392146 0.407941
0.297692 0.298400 0.299026
0.182186 0.182923 0.183807
0.343890 0.336372 0.318958
0.406801 0.404476 0.384897
