0.082208 0.081954 0.081366
0.083947 0.084511 0.084648
0.101327 0.101453 0.101290
0.081425 0.081358 0.081343
0.094162 0.093895 0.093830
0.080715 0.081223 0.080984
0.090446 0.088928 0.088902
0.089663 0.090139 0.089909
0.109900 0.110125 0.111374
0.081769 0.081415 0.081404
0.083894 0.084401 0.084516
0.122027 0.116452 0.116339
0.103170 0.103410 0.103613
0.083017 0.082057 0.081432
0.088541 0.088326 0.088475
0.090416 0.090410 0.091729
0.097871 0.098388 0.098985
0.089983 0.089771 0.089499
0.081394 0.081416 0.081187
0.102779 0.102055 0.101448
0.082165 0.082954 0.082380
0.079546 0.079286 0.079873
0.087936 0.089173 0.089635
0.119475 0.117912 0.117823
0.079990 0.078752 0.077314
0.081576 0.082119 0.082768
0.116129 0.113425 0.111070
0.118576 0.118229 0.118654
0.138872 0.138528 0.138373
0.069249 0.069321 0.069377
0.115838 0.115947 0.115903
0.084288 0.084235 0.083741
0.090648 0.088924 0.089561
0.130047 0.130998 0.130984
0.093881 0.093642 0.094053
0.108365 0.108530 0.108847
0.081363 0.081133 0.081132
0.083520 0.082818 0.082678
0.094813 0.095091 0.095347
0.087538 0.087251 0.086906
0.100122 0.100172 0.100234
0.084890 0.084671 0.085347
0.072949 0.072732 0.072858
0.100019 0.100132 0.099587
0.073934 0.073872 0.074223
0.103267 0.103486 0.104489
0.075032 0.076674 0.078528
0.099617 0.097359 0.097518
0.090652 0.090399 0.090243
0.093099 0.093262 0.092410
0.081645 0.081630 0.081136
0.078108 0.078189 0.078596
0.106467 0.106245 0.105936
0.091109 0.091304 0.090607
0.107861 0.108408 0.108467
0.096616 0.096735 0.096747
0.120485 0.120404 0.120245
0.097109 0.096267 0.095610
0.093513 0.093981 0.094219
0.095203 0.095515 0.096093
0.087253 0.086864 0.085643
0.097852 0.097833 0.098426
0.086738 0.087107 0.086989
0.089788 0.089443 0.089622
0.086459 0.086822 0.086863
0.088644 0.088616 0.088650
0.074373 0.072926 0.073296
0.069611 0.069358 0.069271
0.104702 0.104909 0.104858
0.078993 0.078893 0.078829
0.106807 0.105421 0.103814
0.089433 0.088990 0.089189
0.078948 0.078782 0.078889
0.084095 0.084979 0.085135
0.087838 0.088022 0.087641
0.104823 0.105312 0.106680
0.141260 0.141232 0.140822
0.096066 0.095649 0.095745
0.076202 0.076279 0.076833
0.085204 0.085705 0.085979
0.082451 0.082835 0.082575
0.077116 0.077264 0.077458
0.096798 0.096660 0.095983
0.123724 0.123645 0.123893
0.080305 0.080261 0.080508
0.079408 0.079112 0.079392
0.098548 0.097158 0.096860
0.075768 0.075881 0.075963
0.088331 0.088409 0.088765
0.084392 0.084409 0.084257
0.090629 0.090470 0.090405
0.085743 0.083663 0.082940
0.082485 0.082191 0.080710
0.089995 0.090097 0.090414
0.095210 0.096581 0.096489
0.089646 0.089445 0.089909
0.086566 0.085720 0.084909
0.116538 0.117119 0.117362
0.090387 0.090245 0.090673
0.126029 0.123463 0.122123
0.078867 0.079053 0.079403
0.086249 0.086779 0.088053
0.067677 0.067869 0.068385
0.086680 0.086335 0.084276
0.100343 0.096848 0.096050
0.081912 0.082243 0.085608
0.094125 0.094945 0.094600
0.086598 0.086561 0.086456
0.072968 0.073191 0.074034
0.118127 0.118362 0.118554
0.099834 0.100725 0.102024
0.081361 0.081429 0.081544
0.084981 0.084667 0.084845
0.087389 0.087213 0.086740
0.170885 0.170325 0.169613
0.089454 0.088948 0.088360
0.096099 0.095455 0.095241
0.080459 0.080477 0.079712
0.106039 0.105658 0.105188
0.091106 0.090352 0.090774
0.084673 0.085052 0.085298
0.082439 0.081360 0.081209
0.090511 0.090871 0.091028
0.063084 0.063531 0.063527
0.121574 0.122414 0.123729
0.085751 0.086549 0.086902
0.089779 0.089837 0.089564
0.068045 0.068600 0.068748
0.077079 0.077129 0.076822
0.086617 0.086302 0.086405
0.078285 0.078650 0.079062
0.103563 0.103911 0.104207
0.069053 0.067654 0.067546
0.094101 0.094136 0.094343
0.077899 0.078668 0.078663
0.125336 0.122666 0.121635
0.091065 0.092049 0.092043
0.089624 0.089778 0.091224
0.078381 0.078430 0.080342
0.092774 0.092800 0.092935
0.083619 0.084629 0.085132
0.081567 0.082121 0.080186
0.085404 0.085407 0.085702
0.117427 0.117038 0.116630
0.077770 0.078490 0.078773
0.083202 0.082557 0.083280
0.079228 0.080874 0.081123
0.081602 0.081743 0.082123
0.079277 0.079145 0.079056
0.070036 0.069613 0.070243
0.085069 0.084865 0.084602
0.089609 0.089624 0.089778
0.091874 0.091890 0.092372
0.078952 0.078523 0.078297
0.079023 0.079705 0.079340
0.090488 0.090413 0.089758
0.076034 0.075890 0.076237
0.101137 0.100934 0.101671
0.083146 0.083452 0.083272
0.101285 0.101404 0.101311
0.074988 0.074506 0.075883
0.085151 0.084581 0.085537
0.080924 0.084630 0.085782
0.098737 0.098773 0.099333
0.084131 0.083818 0.081501
0.095743 0.095610 0.095713
0.074890 0.075418 0.075256
0.086515 0.086815 0.087648
0.080625 0.080354 0.080496
0.130899 0.131146 0.131700
0.093237 0.093376 0.093402
0.089048 0.088717 0.090931
0.090194 0.089460 0.089260
0.113796 0.112644 0.113375
0.088071 0.087188 0.086837
0.067739 0.067653 0.067635
0.059885 0.060116 0.060021
0.084433 0.084492 0.084112
0.080224 0.080314 0.080860
0.080375 0.079769 0.079482
0.071594 0.071368 0.071298
0.085681 0.085233 0.084934
0.058956 0.057259 0.057004
0.087685 0.087624 0.088308
0.072501 0.070512 0.070207
0.088784 0.089994 0.094335
0.082637 0.082364 0.081984
0.080094 0.079752 0.079520
0.080476 0.080826 0.081100
0.081912 0.081779 0.081537
0.081287 0.082268 0.083083
0.092456 0.093297 0.093439
0.086074 0.086443 0.086023
0.089243 0.087985 0.087246
0.085823 0.085990 0.085826
0.086941 0.086745 0.086501
0.106036 0.106411 0.106149
0.084748 0.085245 0.091119
0.090042 0.087478 0.086395
0.161811 0.162205 0.162479
0.092737 0.092428 0.092615
0.079655 0.079856 0.079918
0.089871 0.089910 0.090221
0.089942 0.089637 0.089541
0.107486 0.106747 0.106890
0.121060 0.122887 0.124178
0.089994 0.094335 0.094928
0.127635 0.132082 0.133543
0.078338 0.078380 0.078639
0.091586 0.091747 0.091592
0.082405 0.082221 0.081932
0.090878 0.090848 0.089996
0.092211 0.092533 0.092457
0.088189 0.088180 0.088162
0.081685 0.081828 0.084789
0.166758 0.166474 0.166914
0.113363 0.114041 0.116883
0.119077 0.119027 0.119562
0.076307 0.076268 0.074893
0.078134 0.078190 0.078650
0.087956 0.087675 0.087746
0.087844 0.086947 0.086077
0.086608 0.087830 0.088037
0.082862 0.083112 0.083483
0.090705 0.091338 0.090731
0.079823 0.079768 0.079780
0.114545 0.114455 0.108016
0.078495 0.078974 0.078830
0.076424 0.075856 0.075300
0.080650 0.080409 0.080256
0.092518 0.092533 0.092720
0.105645 0.105498 0.105306
0.094562 0.094711 0.094245
0.088074 0.088990 0.089294
0.085061 0.085621 0.085642
0.074792 0.074620 0.074920
0.098705 0.100012 0.103730
0.134485 0.137115 0.137062
0.082099 0.082265 0.082742
0.084926 0.083843 0.083436
0.076444 0.075543 0.075192
0.085671 0.084837 0.085149
0.109898 0.105221 0.104165
0.096040 0.095280 0.095979
0.085869 0.084334 0.084110
0.072147 0.072765 0.073256
0.091680 0.092121 0.091996
0.097668 0.097094 0.095877
0.079341 0.079176 0.079117
0.134409 0.136467 0.137077
0.073031 0.073169 0.072990
0.079877 0.079916 0.080324
0.090831 0.091053 0.091196
0.087896 0.088226 0.087228
0.146894 0.146693 0.145469
0.097869 0.098431 0.099340
0.083866 0.085469 0.085799
0.085928 0.085411 0.085117
0.081334 0.081002 0.080495
0.093335 0.091745 0.091351
0.081343 0.080846 0.081090
0.089230 0.086257 0.085587
0.087151 0.087127 0.086885
0.079641 0.079512 0.079066
0.082831 0.082834 0.082739
0.089840 0.089829 0.089947
0.092378 0.092241 0.091992
0.082582 0.083295 0.083340
0.083061 0.082955 0.082813
0.073014 0.073171 0.074064
0.088104 0.088516 0.088988
0.080682 0.080655 0.080536
0.096180 0.095282 0.094953
0.063070 0.063558 0.063419
0.116427 0.116496 0.116376
0.078836 0.078601 0.078870
0.108930 0.107823 0.104822
0.119259 0.119282 0.119333
0.089664 0.090320 0.091106
0.088611 0.088659 0.088754
0.079814 0.080118 0.080311
0.075534 0.075164 0.075147
0.102303 0.102365 0.102426
0.168681 0.168823 0.168683
0.081050 0.080952 0.080914
0.089140 0.087545 0.086636
0.119280 0.117411 0.117273
0.082345 0.082759 0.082567
0.107276 0.107411 0.108195
0.075512 0.074374 0.073789
0.090294 0.090432 0.090238
0.125088 0.124813 0.124741
0.081875 0.081968 0.081897
0.096799 0.096810 0.097978
0.096054 0.095368 0.094906
0.087713 0.088426 0.088549
0.127448 0.127246 0.127361
0.087654 0.087706 0.087538
0.090671 0.091057 0.090684
0.100524 0.101009 0.099780
0.110900 0.111831 0.112570
0.089400 0.089109 0.087053
0.079627 0.078398 0.078629
0.086423 0.086880 0.087040
0.076423 0.076234 0.076226
0.081803 0.082143 0.082273
0.077505 0.077404 0.077485
0.091377 0.091915 0.091454
0.077201 0.076859 0.076441
0.091395 0.092212 0.092215
0.082725 0.082589 0.081634
0.107730 0.108607 0.108340
0.083387 0.081646 0.080234
0.085092 0.084566 0.084498
0.073729 0.073766 0.073255
0.079128 0.079557 0.079491
0.086553 0.086877 0.087014
0.097957 0.095153 0.095075
0.112246 0.112958 0.115840
0.088252 0.088702 0.088677
0.087580 0.087869 0.088066
0.081190 0.080930 0.080834
0.103135 0.107293 0.107597
0.087205 0.087168 0.087399
0.088094 0.088879 0.089135
0.122686 0.122754 0.122625
0.086690 0.087186 0.087305
0.099116 0.100293 0.102576
0.111640 0.112311 0.112208
0.087477 0.087078 0.085964
0.090407 0.090445 0.090960
0.083499 0.083496 0.083700
0.087291 0.087667 0.087667
0.081361 0.081897 0.081905
0.109175 0.109030 0.108752
0.086960 0.086941 0.086745
0.086288 0.086211 0.086249
0.080344 0.080259 0.080420
0.083786 0.084402 0.084044
0.077051 0.076750 0.079910
0.083938 0.083813 0.083672
0.083655 0.084053 0.084054
0.088433 0.088237 0.088581
0.083448 0.082980 0.082057
0.084797 0.084732 0.083488
0.104491 0.103360 0.103390
0.090113 0.090077 0.089428
0.111030 0.111412 0.108364
0.106440 0.106762 0.107036
0.097767 0.098164 0.098643
0.091689 0.094436 0.095115
0.098571 0.098903 0.097960
0.078904 0.078525 0.077123
0.101669 0.101452 0.100807
0.079419 0.079578 0.079872
0.086596 0.086790 0.087273
0.087736 0.087838 0.088081
0.099179 0.098322 0.098528
0.087758 0.087496 0.087934
0.090893 0.092517 0.092774
0.090631 0.091789 0.092058
0.067690 0.067592 0.067329
0.076176 0.076354 0.076328
0.081548 0.081349 0.081249
0.087466 0.087403 0.087407
0.082788 0.081338 0.080104
0.087003 0.086972 0.086837
0.088073 0.088320 0.088446
0.077958 0.076933 0.077091
0.075717 0.075648 0.075358
0.108764 0.108752 0.108784
0.119852 0.120157 0.120488
0.107272 0.104928 0.103873
0.073178 0.073245 0.073279
0.079423 0.079484 0.078314
0.081541 0.081554 0.081409
0.083179 0.082808 0.083099
0.088552 0.087880 0.087848
0.112376 0.110684 0.109826
0.075209 0.075587 0.074191
0.088346 0.088341 0.087860
0.086066 0.085507 0.085209
0.083935 0.083553 0.084816
0.088990 0.089294 0.089554
0.114041 0.116883 0.119735
0.094258 0.094329 0.093531
0.095325 0.095851 0.095314
0.086425 0.086048 0.086054
0.095170 0.095710 0.095271
0.086680 0.087100 0.086492
0.077292 0.077454 0.079619
0.094634 0.094422 0.095790
0.093238 0.095030 0.095403
0.081839 0.081898 0.081627
0.079520 0.079942 0.080937
0.072741 0.073675 0.073729
0.090550 0.090836 0.090700
0.083502 0.083461 0.081816
0.085937 0.086239 0.086016
0.088079 0.088708 0.088768
0.083767 0.083907 0.083343
0.086849 0.086933 0.087299
0.090124 0.090168 0.091050
0.081772 0.081785 0.081222
0.078048 0.078474 0.077030
0.167911 0.168709 0.168577
0.080799 0.080919 0.080965
0.139555 0.139584 0.139608
0.087867 0.088572 0.088438
0.084704 0.085207 0.085673
0.090068 0.087348 0.087615
0.089876 0.090071 0.089671
0.136655 0.138157 0.139339
0.095455 0.095241 0.095318
0.081906 0.081265 0.080710
0.088782 0.088450 0.086676
0.068921 0.068608 0.068514
0.085237 0.085578 0.088243
0.077462 0.078868 0.081076
0.106057 0.107071 0.107201
0.088608 0.088689 0.088679
0.089297 0.089344 0.089316
0.088643 0.088171 0.087216
0.084746 0.085167 0.085778
0.089035 0.089372 0.087969
0.086648 0.086715 0.086873
0.083544 0.084556 0.086334
0.107410 0.106395 0.104772
0.064441 0.064099 0.064354
0.082321 0.081331 0.082429
0.160020 0.160307 0.160402
0.080932 0.081074 0.081069
0.091736 0.090877 0.091072
0.094917 0.094958 0.094621
0.090479 0.090500 0.090469
0.081063 0.080894 0.081135
0.086074 0.085680 0.084257
0.073823 0.073919 0.073895
0.090284 0.091206 0.090353
0.085643 0.087216 0.087410
0.080325 0.081013 0.080912
0.105541 0.104714 0.104450
0.084215 0.086922 0.087243
0.140118 0.140266 0.142549
0.098905 0.098466 0.097892
0.076366 0.077478 0.077435
0.108280 0.108893 0.108812
0.088411 0.088161 0.088002
0.080710 0.080905 0.080300
0.083452 0.083420 0.083553
0.095731 0.096429 0.097184
0.085734 0.088092 0.089290
0.107151 0.107360 0.107636
0.148617 0.148998 0.150925
0.122994 0.130359 0.131259
0.099042 0.098748 0.098496
0.110879 0.112128 0.112126
0.111800 0.111593 0.111226
0.067778 0.068962 0.069120
0.086104 0.086476 0.086212
0.143453 0.137555 0.119849
0.093289 0.093421 0.091419
0.085379 0.084965 0.085665
0.138549 0.140243 0.141007
0.077520 0.077588 0.077916
0.106793 0.106741 0.106667
0.085715 0.084912 0.084236
0.086552 0.086467 0.085690
0.081559 0.081853 0.082031
0.085091 0.085315 0.085601
0.148992 0.149425 0.149300
0.068503 0.068016 0.068099
0.082195 0.081305 0.080656
0.084299 0.084255 0.083747
0.112218 0.112178 0.112918
0.105874 0.105931 0.105561
0.081734 0.081391 0.080574
0.082510 0.082514 0.082708
0.082340 0.082234 0.082222
0.086871 0.086487 0.086436
0.080001 0.079634 0.079764
0.082053 0.082407 0.082315
0.072817 0.072850 0.072813
0.085220 0.084889 0.085034
0.075955 0.075972 0.075712
0.077698 0.078145 0.078796
0.086978 0.086761 0.086344
0.095938 0.095718 0.095942
0.095805 0.095523 0.094739
0.082604 0.082892 0.083151
0.070633 0.070114 0.069843
0.099850 0.099186 0.097335
0.088933 0.087260 0.086957
0.079997 0.079605 0.077643
0.076182 0.075901 0.075743
0.080459 0.080988 0.080927
0.076914 0.077664 0.079056
0.070815 0.070352 0.070203
0.085275 0.085248 0.086561
0.107481 0.106909 0.107842
0.074647 0.073475 0.073748
0.095608 0.095975 0.095910
0.222964 0.218567 0.194030
0.102946 0.102575 0.102810
0.083751 0.085602 0.085831
0.081412 0.081946 0.082248
0.087313 0.087643 0.087537
0.118046 0.117669 0.117816
0.084023 0.084114 0.084632
0.089817 0.089857 0.089873
0.076820 0.076674 0.076840
0.095066 0.093939 0.090156
0.090999 0.090822 0.090325
0.090119 0.087686 0.088722
0.115259 0.115513 0.115177
0.082382 0.083869 0.087229
0.082147 0.081856 0.080871
0.076203 0.075870 0.076008
0.106989 0.108428 0.108512
0.095482 0.095755 0.095754
0.090791 0.091033 0.089717
0.112475 0.111940 0.113321
0.089026 0.089368 0.089552
0.118977 0.136526 0.138768
0.081002 0.080495 0.080476
0.069570 0.069542 0.069745
0.106117 0.103679 0.102628
0.083326 0.082821 0.081130
0.167906 0.168705 0.168631
0.072445 0.071773 0.071270
0.090817 0.090829 0.087395
0.088997 0.089116 0.089405
0.081853 0.082064 0.082363
0.084765 0.078422 0.076133
0.100462 0.098239 0.097862
0.106496 0.106352 0.103513
0.088641 0.087910 0.087907
0.082733 0.082328 0.082933
0.077956 0.079353 0.079792
0.077236 0.077684 0.078980
0.227046 0.227010 0.226643
0.081411 0.081493 0.081471
0.087977 0.088059 0.087730
0.084544 0.085131 0.087205
0.079890 0.079975 0.080073
0.083621 0.084661 0.085388
0.083152 0.083411 0.083570
0.106820 0.106788 0.106809
0.077630 0.078381 0.078430
0.090937 0.091017 0.091048
0.077200 0.077742 0.077942
0.088803 0.088475 0.089130
0.081203 0.080778 0.080675
0.069473 0.069215 0.069920
0.094339 0.093990 0.093956
0.086869 0.086769 0.089459
0.086252 0.086065 0.087159
0.082277 0.082130 0.082153
0.086554 0.086777 0.089088
0.093938 0.093680 0.093450
0.083754 0.085009 0.085440
0.089236 0.087839 0.085855
0.097814 0.097530 0.097621
0.093313 0.093015 0.093013
0.083387 0.082914 0.082649
0.098043 0.098367 0.100816
0.081785 0.081846 0.081828
0.090158 0.091291 0.092371
0.084468 0.084056 0.084662
0.119970 0.120485 0.117383
0.145150 0.145431 0.145579
0.084892 0.084345 0.083216
0.093678 0.094100 0.094306
0.073651 0.074072 0.073983
0.087894 0.087959 0.087910
0.088713 0.088770 0.088390
0.066987 0.067114 0.067025
0.106739 0.106788 0.106583
0.086898 0.088832 0.089642
0.077590 0.077104 0.077679
0.103669 0.103313 0.102885
0.082544 0.081330 0.080703
0.073172 0.072288 0.072066
0.068392 0.068962 0.069310
0.085540 0.085478 0.085769
0.087064 0.086830 0.086766
0.073046 0.075158 0.078311
0.098016 0.097234 0.096965
0.081375 0.082034 0.082057
0.086880 0.086637 0.086954
0.102351 0.101974 0.101451
0.092747 0.092487 0.091946
0.088037 0.088030 0.086913
0.091959 0.090980 0.089377
0.089854 0.090580 0.090566
0.074213 0.074325 0.074339
0.095601 0.113735 0.116343
0.095942 0.095379 0.092130
0.094980 0.096473 0.097232
0.102460 0.102316 0.101963
0.108765 0.108943 0.109018
0.080488 0.080588 0.080565
0.087878 0.087897 0.088126
0.087521 0.087327 0.087410
0.078759 0.076967 0.076927
0.098024 0.096666 0.096255
0.079612 0.079968 0.079917
0.083350 0.083188 0.081768
0.224940 0.225046 0.225316
0.082001 0.080038 0.079623
0.095936 0.096076 0.097095
0.082843 0.082542 0.082720
0.085824 0.085879 0.085450
0.086047 0.086526 0.087333
0.093145 0.091098 0.090941
0.083756 0.083819 0.084192
0.084509 0.084459 0.085162
0.087834 0.087465 0.087025
0.091473 0.092248 0.093660
0.080196 0.079381 0.079198
0.093611 0.094151 0.094812
0.094988 0.095931 0.094212
0.105667 0.104815 0.104525
0.091814 0.090640 0.090641
0.075957 0.075866 0.075836
0.089321 0.090034 0.091073
0.087373 0.086892 0.088090
0.080286 0.080610 0.081233
0.080700 0.080749 0.081092
0.088927 0.089233 0.089413
0.089698 0.089911 0.089667
0.089627 0.089083 0.088465
0.085898 0.086760 0.086940
0.094499 0.092740 0.093576
0.117155 0.117722 0.117844
0.073581 0.073961 0.073735
0.090437 0.090376 0.090734
0.087411 0.087646 0.087478
0.084827 0.085040 0.086661
0.087624 0.088147 0.089818
0.083461 0.083950 0.083812
0.113224 0.116022 0.117042
0.092370 0.091340 0.091200
0.096386 0.096029 0.095308
0.084310 0.084043 0.083923
0.120962 0.121638 0.121783
0.087019 0.086730 0.086351
0.070790 0.071010 0.071491
0.071160 0.071045 0.072335
0.083322 0.082181 0.082222
0.090852 0.090576 0.089250
0.074597 0.074890 0.075418
0.090654 0.091572 0.091310
0.096816 0.095979 0.093902
0.102581 0.102526 0.102382
0.093784 0.102280 0.122604
0.086147 0.086429 0.086603
0.094187 0.092315 0.090943
0.073420 0.073620 0.073934
0.117580 0.118060 0.117936
0.082598 0.083271 0.083283
0.108338 0.107568 0.106888
0.092410 0.092304 0.091952
0.086264 0.087015 0.087243
0.077343 0.077757 0.078042
0.082058 0.081908 0.081526
0.062772 0.064254 0.064043
0.148311 0.138481 0.129245
0.084872 0.084858 0.085148
0.087262 0.086920 0.086508
0.084699 0.084760 0.084723
0.089442 0.089558 0.089386
0.091986 0.092072 0.093058
0.098510 0.098812 0.098580
0.083395 0.083378 0.083422
0.082765 0.083333 0.083822
0.091309 0.092403 0.092249
0.084094 0.084244 0.084245
0.089183 0.088050 0.087962
0.094670 0.094489 0.094723
0.118578 0.118590 0.118572
0.079729 0.078727 0.075922
0.097296 0.096641 0.095252
0.109413 0.108267 0.108604
0.067356 0.067667 0.067530
0.163685 0.166050 0.167149
0.083435 0.083344 0.084318
0.096746 0.096730 0.097098
0.094592 0.094737 0.095742
0.105475 0.105528 0.107508
0.092351 0.091304 0.090788
0.086012 0.085448 0.084915
0.077522 0.077279 0.078261
0.079324 0.079105 0.079260
0.085893 0.085707 0.084575
0.088766 0.088560 0.088224
0.076462 0.076509 0.076781
0.093695 0.094034 0.094232
0.084251 0.084396 0.084512
0.080696 0.080941 0.080623
0.063933 0.063858 0.064570
0.070862 0.070882 0.070860
0.095361 0.092136 0.091567
0.106883 0.106557 0.106593
0.079060 0.078859 0.079634
0.099126 0.100334 0.100985
0.121102 0.121163 0.121019
0.140439 0.138977 0.135929
0.091707 0.093083 0.093233
0.082938 0.082795 0.082733
0.102009 0.101520 0.101368
0.091736 0.091600 0.091422
0.086652 0.086750 0.086675
0.109164 0.109567 0.109664
0.075321 0.075261 0.076641
0.084820 0.084657 0.084769
0.082784 0.082565 0.083038
0.074590 0.074310 0.074319
0.090514 0.090731 0.090815
0.093892 0.096830 0.097073
0.081401 0.081130 0.081341
0.074999 0.074838 0.074523
0.085156 0.084983 0.085724
0.070959 0.071373 0.071205
0.081901 0.081765 0.081176
0.063920 0.063608 0.062445
0.080007 0.079928 0.079975
0.081132 0.080766 0.082746
0.078282 0.078353 0.078608
0.103523 0.104039 0.104268
0.091913 0.092445 0.091644
0.086085 0.086216 0.085633
0.093439 0.093725 0.093812
0.087856 0.087655 0.087306
0.080890 0.081125 0.081295
0.141983 0.142318 0.142364
0.086080 0.086500 0.088208
0.091326 0.091527 0.091577
0.077603 0.077607 0.077706
0.080982 0.080720 0.080172
0.096404 0.096791 0.097418
0.089228 0.089275 0.088491
0.138595 0.139889 0.140624
0.079915 0.080769 0.081442
0.119217 0.119014 0.118706
0.098290 0.098417 0.099350
0.085096 0.085138 0.085079
0.090239 0.090304 0.090739
0.086232 0.087674 0.088476
0.078522 0.078281 0.078215
0.075940 0.076066 0.076033
0.092250 0.092143 0.091801
0.086071 0.084351 0.085077
0.084312 0.084507 0.084230
0.095793 0.113836 0.116374
0.091953 0.092019 0.092151
0.083653 0.084878 0.084952
0.101981 0.102650 0.102627
0.093947 0.094641 0.097699
0.084650 0.084194 0.084310
0.087667 0.087440 0.087314
0.081164 0.081046 0.080729
0.092054 0.092429 0.094421
0.083427 0.083809 0.083799
0.093284 0.093151 0.092838
0.087262 0.086418 0.085776
0.088044 0.088490 0.088638
0.077983 0.077316 0.076986
0.069781 0.069672 0.069502
0.082046 0.081767 0.081297
0.081266 0.081616 0.081678
0.065605 0.065270 0.065459
0.081173 0.081773 0.081139
0.086733 0.087097 0.086886
0.081774 0.081561 0.081115
0.077117 0.077063 0.073681
0.081999 0.081741 0.081403
0.100914 0.100810 0.098901
0.080204 0.080528 0.080615
0.082924 0.083021 0.082840
0.083945 0.082297 0.080633
0.091952 0.091840 0.091951
0.089608 0.089360 0.089506
0.098862 0.098696 0.098626
0.085000 0.085221 0.083499
0.085798 0.085883 0.086045
0.093516 0.093393 0.094169
0.088293 0.088739 0.088983
0.087538 0.086712 0.085332
0.069744 0.069977 0.069970
0.087352 0.087887 0.087672
0.086646 0.085999 0.085660
0.064491 0.064313 0.064503
0.086985 0.086802 0.086984
0.077199 0.077198 0.077163
0.081001 0.081041 0.080757
0.079996 0.077762 0.075539
0.101344 0.102265 0.101077
0.086644 0.086492 0.086199
0.086940 0.086821 0.086069
0.079588 0.079927 0.080144
0.087885 0.087739 0.088526
0.086041 0.086220 0.086483
0.095263 0.094940 0.094254
0.099599 0.099039 0.099251
0.081301 0.081167 0.081445
0.089870 0.089844 0.089242
0.090086 0.090820 0.091069
0.097801 0.097798 0.097780
0.147613 0.147249 0.146894
0.074051 0.073992 0.073943
0.093358 0.092606 0.089739
0.094643 0.094618 0.094837
0.086533 0.085068 0.085730
0.064002 0.064068 0.063747
0.077664 0.079056 0.079331
0.079398 0.079461 0.079599
0.076244 0.071599 0.071291
0.125915 0.125792 0.125645
0.080567 0.081195 0.081550
0.098933 0.098816 0.099179
0.105913 0.102536 0.099280
0.082020 0.081715 0.082287
0.122775 0.122971 0.123629
0.083652 0.084147 0.084921
0.081811 0.081403 0.081769
0.107954 0.107745 0.108069
0.082621 0.082587 0.080604
0.106794 0.106987 0.105906
0.080944 0.081083 0.080586
0.075610 0.075378 0.075133
0.088468 0.089108 0.088388
0.084037 0.083984 0.083948
0.087212 0.086556 0.086083
0.081593 0.081856 0.082797
0.102400 0.102325 0.102239
0.109180 0.110757 0.110887
0.079175 0.080200 0.080935
0.103628 0.103621 0.103650
0.135452 0.135636 0.134900
0.091963 0.091939 0.090689
0.075016 0.074687 0.074470
0.091208 0.088172 0.088118
0.084808 0.085744 0.083562
0.086079 0.085556 0.085990
0.084768 0.084656 0.085873
0.090308 0.090623 0.090651
0.086811 0.087215 0.087336
0.101451 0.101585 0.101797
0.226667 0.225479 0.225154
0.080426 0.079962 0.080660
0.086098 0.086418 0.086248
0.064968 0.064911 0.063368
0.072454 0.072324 0.072486
0.081168 0.081811 0.081403
0.101051 0.101501 0.101514
0.080779 0.081848 0.082299
0.081889 0.081698 0.081913
0.089463 0.089655 0.089939
0.083442 0.083768 0.082095
0.079280 0.078741 0.079046
0.085430 0.085178 0.084890
0.085757 0.085431 0.085308
0.085824 0.086245 0.085913
0.069212 0.069575 0.069493
0.074149 0.070408 0.070327
0.085226 0.084682 0.083997
0.082057 0.080365 0.080519
0.087601 0.086163 0.085155
0.075411 0.075699 0.075032
0.119601 0.120464 0.126261
0.084874 0.085171 0.084936
0.088208 0.092034 0.092362
0.079494 0.078997 0.079406
0.072835 0.072608 0.072758
0.088027 0.087701 0.087598
0.100339 0.100128 0.099095
0.097098 0.097179 0.096773
0.101129 0.100355 0.099909
0.079334 0.079606 0.079421
0.083414 0.082543 0.082897
0.154599 0.155145 0.155584
0.089896 0.090582 0.090562
0.080256 0.079695 0.078948
0.073797 0.073765 0.074895
0.067803 0.066617 0.065955
0.079380 0.079231 0.079311
0.099337 0.099081 0.099617
0.084433 0.084507 0.084687
0.225264 0.225483 0.226261
0.104781 0.112317 0.114221
0.106864 0.106731 0.106807
0.102991 0.102953 0.102413
0.078816 0.079065 0.079858
0.101806 0.101587 0.101614
0.076425 0.077232 0.077497
0.108568 0.109084 0.109117
0.084507 0.084337 0.084647
0.091163 0.091543 0.090558
0.093233 0.092953 0.093203
0.090794 0.090420 0.090081
0.103435 0.103640 0.103509
0.075498 0.075961 0.076653
0.078671 0.076858 0.075857
0.090410 0.091729 0.091630
0.085937 0.086097 0.086218
0.086893 0.086212 0.086341
0.155254 0.154472 0.154857
0.078673 0.078847 0.078271
0.088021 0.088054 0.088502
0.085754 0.085730 0.089957
0.079400 0.083893 0.084019
0.088384 0.089731 0.089665
0.073715 0.074376 0.074307
0.083875 0.084217 0.083850
0.103524 0.103605 0.104221
0.137001 0.136983 0.137535
0.096740 0.096436 0.096040
0.101271 0.101414 0.101602
0.084987 0.085348 0.086375
0.082940 0.082668 0.082820
0.087058 0.086432 0.086046
0.082056 0.082932 0.082937
0.080764 0.080900 0.081375
0.096120 0.094249 0.094995
0.080001 0.080894 0.081285
0.104109 0.104746 0.104453
0.110066 0.110885 0.109816
0.065053 0.064978 0.065168
0.093463 0.093323 0.093589
0.068995 0.069611 0.069358
0.227312 0.227303 0.224359
0.077341 0.077187 0.077201
0.082103 0.082285 0.082291
0.074879 0.073344 0.073851
0.100260 0.100373 0.103019
0.094883 0.094848 0.095000
0.088641 0.087570 0.087828
0.108774 0.108923 0.108983
0.083878 0.083870 0.083840
0.066724 0.066726 0.066223
0.085451 0.085763 0.086535
0.077858 0.078373 0.079126
0.080684 0.080679 0.080336
0.083662 0.083622 0.083413
0.085420 0.085343 0.085093
0.092793 0.093859 0.095183
0.081654 0.082166 0.082451
0.090248 0.090114 0.089400
0.075214 0.075003 0.075005
0.085840 0.086364 0.085620
0.080921 0.080713 0.079437
0.073827 0.074944 0.074869
0.086030 0.086846 0.087006
0.105446 0.102672 0.101257
0.078566 0.078411 0.077901
0.098219 0.099345 0.099279
0.121767 0.124719 0.126152
0.088134 0.088274 0.088301
0.092248 0.091927 0.091635
0.105579 0.106978 0.107714
0.144252 0.144051 0.139437
0.084694 0.085030 0.084254
0.073552 0.073415 0.073978
0.076018 0.075797 0.075857
0.088190 0.088010 0.087686
0.090337 0.090989 0.090945
0.096239 0.095621 0.095509
0.087837 0.087457 0.087212
0.102188 0.103523 0.103856
0.094324 0.094618 0.096006
0.084102 0.084398 0.084393
0.086936 0.086385 0.085835
0.097476 0.097661 0.097960
0.083873 0.084328 0.084448
0.094986 0.096122 0.096031
0.086665 0.086739 0.085832
0.081288 0.081178 0.080791
0.125423 0.122027 0.116452
0.087231 0.087583 0.087377
0.089226 0.088926 0.089621
0.090882 0.092474 0.092870
0.081119 0.081807 0.082349
0.106791 0.106437 0.106678
0.072758 0.072662 0.074012
0.082518 0.081988 0.081857
0.093648 0.093237 0.091940
0.082294 0.082033 0.081996
0.089415 0.089642 0.089209
0.093178 0.093316 0.092953
0.083712 0.083839 0.084363
0.091652 0.091733 0.091224
0.086570 0.086998 0.087950
0.072404 0.072176 0.071263
0.096296 0.098344 0.098817
0.084277 0.084074 0.083464
0.085815 0.087234 0.087606
0.086531 0.086239 0.084736
0.079318 0.079096 0.079558
0.082347 0.081549 0.081829
