0.512674 0.514581 0.516781
0.527166 0.530144 0.537527
0.449835 0.449420 0.448283
0.412583 0.409881 0.412085
0.435234 0.454171 0.475542
0.533982 0.542040 0.540723
0.525973 0.527086 0.530609
0.520231 0.523728 0.524609
0.617646 0.618799 0.618314
0.417410 0.414954 0.414799
0.498838 0.509724 0.507770
0.485395 0.490845 0.504308
0.525150 0.525253 0.525235
0.506651 0.498738 0.496453
0.569092 0.569175 0.569436
0.445722 0.445275 0.444916
0.629750 0.632446 0.630209
0.489325 0.487805 0.482790
0.425822 0.433645 0.431487
0.530957 0.530472 0.535739
0.524090 0.526916 0.531375
0.357242 0.358735 0.359531
0.608639 0.608007 0.607957
0.484274 0.484323 0.484210
0.507702 0.506668 0.501032
0.505851 0.500982 0.497344
0.491951 0.493188 0.493181
0.418244 0.419864 0.438588
0.452754 0.445290 0.429738
0.442650 0.446338 0.448864
0.528759 0.529195 0.536388
0.490868 0.487933 0.487381
0.613245 0.617944 0.627508
0.421336 0.421411 0.421413
0.480938 0.484239 0.485959
0.465863 0.465674 0.465569
0.492047 0.496327 0.497652
0.431762 0.432079 0.431799
0.498590 0.501132 0.504349
0.465074 0.452628 0.452981
0.500296 0.505605 0.505172
0.528973 0.528997 0.529133
0.489173 0.499678 0.501262
0.519227 0.526113 0.528138
0.385535 0.385741 0.385308
0.566662 0.567365 0.566077
0.430471 0.431338 0.431348
0.458752 0.455822 0.458342
0.452365 0.455875 0.458321
0.578230 0.580122 0.591804
0.457024 0.457408 0.459753
0.433071 0.442169 0.445198
0.548706 0.551630 0.551401
0.360167 0.392008 0.406537
0.489943 0.493790 0.498406
0.481746 0.476079 0.468321
0.544415 0.548990 0.542237
0.507540 0.508594 0.510264
0.572351 0.572519 0.572369
0.515374 0.520220 0.521605
0.520295 0.507621 0.504553
0.658020 0.658536 0.658650
0.552051 0.548846 0.545124
0.522486 0.524764 0.521326
0.572057 0.569067 0.566775
0.514657 0.519256 0.531912
0.494416 0.497191 0.502753
0.649403 0.651840 0.658978
0.536551 0.533937 0.521429
0.499785 0.499264 0.499537
0.535049 0.535351 0.535303
0.568141 0.568079 0.567040
0.404812 0.408293 0.408647
0.668283 0.668447 0.668794
0.464618 0.466596 0.461542
0.566178 0.570099 0.578072
0.410848 0.411169 0.411131
0.473090 0.464415 0.468260
0.477374 0.474578 0.475119
0.537530 0.520267 0.515736
0.473619 0.473575 0.471141
0.540994 0.543164 0.544096
0.446824 0.444360 0.442812
0.417809 0.419593 0.430386
0.616610 0.617062 0.618904
0.604922 0.608432 0.611274
0.383426 0.385988 0.372794
0.511180 0.509815 0.510299
0.490985 0.498464 0.500489
0.566923 0.559920 0.540936
0.535052 0.533342 0.531955
0.489968 0.490361 0.498373
0.628880 0.623591 0.618934
0.548701 0.537190 0.513710
0.568110 0.560395 0.557558
0.550726 0.548117 0.547481
0.447971 0.447113 0.447033
0.412464 0.412689 0.412669
0.561083 0.557607 0.554634
0.391429 0.392445 0.393231
0.550227 0.549871 0.549034
0.395268 0.391889 0.389879
0.433812 0.433493 0.431952
0.418525 0.413755 0.414579
0.499934 0.499579 0.492842
0.521220 0.521231 0.520035
0.516503 0.519725 0.555104
0.512035 0.511402 0.523461
0.406514 0.407107 0.407599
0.504310 0.505425 0.505064
0.505568 0.504328 0.504994
0.505911 0.506073 0.506678
0.413428 0.413424 0.412588
0.636219 0.631971 0.618390
0.515434 0.515230 0.513672
0.478240 0.474130 0.476206
0.439553 0.438180 0.437765
0.489038 0.493882 0.495052
0.461338 0.448532 0.448357
0.567014 0.565994 0.562838
0.528296 0.526163 0.523567
0.579734 0.587512 0.605993
0.559444 0.557772 0.569626
0.519795 0.519627 0.515850
0.435702 0.438728 0.440369
0.589253 0.589054 0.588301
0.621147 0.621056 0.620590
0.404665 0.406631 0.414818
0.584277 0.551061 0.548931
0.608753 0.608666 0.608639
0.470278 0.470842 0.469976
0.482147 0.481736 0.477523
0.517931 0.517416 0.510904
0.453000 0.449187 0.446968
0.533189 0.533298 0.538826
0.534922 0.545954 0.546488
0.519566 0.508524 0.508478
0.487590 0.482543 0.495855
0.570448 0.561833 0.554312
0.410636 0.411178 0.410387
0.481668 0.488979 0.507539
0.413098 0.423428 0.425688
0.476831 0.482317 0.483272
0.479396 0.478828 0.483023
0.472519 0.470803 0.471825
0.515926 0.516061 0.515961
0.515392 0.514511 0.511808
0.449111 0.449253 0.453508
0.565077 0.561456 0.535342
0.482871 0.485528 0.489134
0.418054 0.416840 0.416257
0.419594 0.435087 0.441328
0.463899 0.482872 0.484683
0.519501 0.519267 0.518302
0.526163 0.523706 0.525706
0.542877 0.538362 0.526742
0.508621 0.508903 0.509532
0.552196 0.549407 0.539803
0.516230 0.513400 0.512710
0.534012 0.535861 0.539328
0.508472 0.505396 0.501973
0.553139 0.556550 0.555373
0.491029 0.489074 0.487809
0.506224 0.506895 0.498124
0.505519 0.506242 0.505380
0.331362 0.322141 0.321960
0.513191 0.514770 0.515192
0.476337 0.474701 0.474433
0.460487 0.460531 0.460397
0.423488 0.422125 0.426704
0.519994 0.515904 0.512567
0.495789 0.492283 0.525402
0.502215 0.498149 0.493820
0.477200 0.480521 0.482247
0.446572 0.455912 0.457183
0.530581 0.526888 0.527231
0.493109 0.484391 0.482170
0.469389 0.468385 0.473261
0.472701 0.469632 0.465180
0.646464 0.646118 0.646388
0.499094 0.501367 0.504489
0.555378 0.552326 0.548957
0.482808 0.484540 0.488008
0.493702 0.491182 0.493690
0.412737 0.421356 0.422150
0.482509 0.488805 0.488513
0.452019 0.456052 0.460808
0.566747 0.569876 0.572467
0.495669 0.465063 0.451972
0.600652 0.598906 0.598373
0.456752 0.457615 0.461851
0.389777 0.390158 0.380771
0.480227 0.480927 0.481684
0.567969 0.555886 0.552691
0.358096 0.359637 0.359604
0.535652 0.548919 0.550103
0.534739 0.532414 0.531715
0.415520 0.412343 0.410557
0.556218 0.548966 0.545043
0.527169 0.526405 0.529968
0.463844 0.461927 0.445249
0.396786 0.397260 0.397374
0.638909 0.638236 0.638123
0.615239 0.612052 0.611906
0.559629 0.558059 0.557484
0.491737 0.494054 0.491559
0.476215 0.421770 0.417308
0.453005 0.454136 0.449801
0.478669 0.469774 0.470303
0.372995 0.371484 0.370521
0.499049 0.496893 0.494074
0.598641 0.598596 0.599132
0.486642 0.486064 0.485785
0.423966 0.429350 0.435833
0.586194 0.584591 0.581329
0.519064 0.516609 0.509028
0.522382 0.528334 0.524483
0.447112 0.449718 0.449940
0.646091 0.646675 0.649223
0.476553 0.475988 0.477878
0.627385 0.618748 0.598566
0.613119 0.620222 0.621144
0.438960 0.439441 0.441836
0.525703 0.527750 0.529717
0.478887 0.466423 0.464280
0.549407 0.539803 0.523012
0.531957 0.532681 0.534208
0.450930 0.449693 0.447942
0.421364 0.421938 0.423709
0.646877 0.644705 0.644365
0.555518 0.557311 0.560176
0.392277 0.391640 0.392349
0.373427 0.373078 0.371655
0.384989 0.432798 0.443228
0.438055 0.438031 0.437082
0.453540 0.454235 0.451455
0.499067 0.498868 0.501354
0.489537 0.488228 0.486245
0.443495 0.442824 0.440988
0.496940 0.499423 0.501099
0.498260 0.500510 0.504231
0.620384 0.578075 0.563153
0.481324 0.458070 0.440876
0.410213 0.419148 0.423076
0.630793 0.618543 0.617526
0.455052 0.457631 0.450513
0.476206 0.476187 0.478427
0.549306 0.549082 0.549972
0.505725 0.502866 0.493875
0.566462 0.557465 0.556623
0.560789 0.560829 0.561220
0.472901 0.477309 0.480753
0.399573 0.405266 0.407880
0.487311 0.487248 0.476231
0.475179 0.472489 0.468426
0.458886 0.461898 0.465135
0.465364 0.468603 0.471422
0.595854 0.599107 0.596996
0.465023 0.465104 0.466573
0.422496 0.421939 0.420655
0.494248 0.495843 0.496321
0.496921 0.498119 0.495462
0.613536 0.613475 0.613601
0.540404 0.557390 0.548007
0.474645 0.468620 0.468016
0.487018 0.487482 0.488259
0.475600 0.471916 0.468741
0.656916 0.660011 0.665905
0.558036 0.563163 0.560150
0.520292 0.494880 0.492629
0.483061 0.479581 0.477872
0.564416 0.557098 0.552180
0.443494 0.446439 0.451080
0.509664 0.501712 0.500541
0.431819 0.431239 0.432130
0.514234 0.514707 0.514585
0.486923 0.486935 0.486919
0.460162 0.456836 0.453114
0.529242 0.525767 0.496802
0.454031 0.458734 0.457709
0.587783 0.588413 0.587321
0.481432 0.485222 0.518672
0.436976 0.437156 0.442878
0.423321 0.426156 0.426379
0.439139 0.439921 0.439855
0.491809 0.486652 0.482063
0.546192 0.546215 0.551735
0.624746 0.621627 0.621587
0.458353 0.458370 0.458426
0.527417 0.519931 0.513401
0.498713 0.501448 0.508590
0.431869 0.432543 0.434307
0.432226 0.432886 0.433040
0.628637 0.632168 0.632564
0.489038 0.488282 0.500357
0.535824 0.560268 0.572165
0.414372 0.409218 0.407996
0.475647 0.475082 0.475140
0.432318 0.433448 0.437366
0.414079 0.409624 0.408740
0.465390 0.465653 0.472329
0.463854 0.468189 0.493363
0.421312 0.414236 0.411320
0.453924 0.456978 0.463183
0.531804 0.537933 0.565698
0.536442 0.528998 0.528340
0.548016 0.545754 0.545583
0.388651 0.387873 0.388286
0.447063 0.447153 0.448913
0.496083 0.498920 0.502207
0.524291 0.525089 0.525077
0.488014 0.484415 0.484156
0.657428 0.650639 0.647798
0.474183 0.476968 0.484796
0.671149 0.699081 0.700948
0.467473 0.467792 0.477296
0.538063 0.538111 0.538312
0.496440 0.498342 0.495730
0.522507 0.520712 0.514420
0.419127 0.425058 0.425446
0.476488 0.460579 0.475359
0.514371 0.513985 0.513482
0.499325 0.497906 0.496089
0.636272 0.643525 0.645924
0.373077 0.370760 0.369087
0.457259 0.446355 0.421083
0.545486 0.545489 0.545237
0.526017 0.529944 0.537447
0.544426 0.541431 0.541919
0.599363 0.689848 0.626553
0.515557 0.514977 0.519140
0.612854 0.614052 0.622344
0.426426 0.422991 0.420389
0.549395 0.548862 0.542616
0.481679 0.480095 0.477369
0.422496 0.422519 0.422099
0.406450 0.421442 0.420028
0.445692 0.442283 0.436126
0.452630 0.452754 0.445290
0.395677 0.395692 0.396580
0.518434 0.517733 0.516622
0.425164 0.425113 0.425370
0.624287 0.624300 0.625005
0.558466 0.560096 0.561620
0.509678 0.509221 0.509092
0.465113 0.465795 0.467012
0.519595 0.516881 0.523783
0.421457 0.418771 0.417856
0.530510 0.530409 0.530738
0.478738 0.478907 0.482732
0.621612 0.621179 0.620623
0.534540 0.538847 0.532881
0.535286 0.535364 0.536080
0.487461 0.489608 0.489777
0.424290 0.417793 0.411819
0.559360 0.554186 0.534528
0.477319 0.480417 0.483849
0.460925 0.462775 0.463710
0.462302 0.462353 0.461458
0.527355 0.527094 0.523660
0.529379 0.530039 0.530789
0.499976 0.503745 0.509033
0.531344 0.531113 0.529899
0.441923 0.442591 0.445577
0.471488 0.477071 0.492615
0.482316 0.484508 0.484916
0.505768 0.495573 0.491539
0.432659 0.424979 0.418727
0.417323 0.416770 0.420691
0.509615 0.503794 0.501979
0.459933 0.448965 0.444020
0.508048 0.508772 0.510689
0.523599 0.523673 0.524071
0.468160 0.462597 0.460445
0.557111 0.555336 0.535687
0.434482 0.435784 0.441425
0.507556 0.511924 0.502493
0.493735 0.491971 0.501961
0.431491 0.428657 0.427148
0.540156 0.553252 0.557083
0.485688 0.490656 0.492337
0.495238 0.495064 0.495207
0.483534 0.483050 0.483146
0.620318 0.626352 0.626424
0.431349 0.430505 0.428254
0.507371 0.499797 0.493333
0.570515 0.558923 0.546013
0.380352 0.380548 0.381054
0.607583 0.614290 0.620214
0.523560 0.542846 0.552647
0.505998 0.505394 0.505306
0.500401 0.495908 0.490359
0.517753 0.537601 0.539729
0.568333 0.568280 0.568353
0.390859 0.403154 0.419170
0.483404 0.485237 0.488536
0.420820 0.420933 0.422160
0.360952 0.366881 0.369826
0.479863 0.478722 0.479941
0.440366 0.438344 0.442159
0.531542 0.530249 0.533777
0.483462 0.482046 0.481526
0.574943 0.602766 0.621200
0.470065 0.466978 0.447758
0.541545 0.541709 0.540040
0.422572 0.422471 0.422583
0.512878 0.511697 0.511445
0.538983 0.539159 0.538938
0.529504 0.529092 0.516299
0.553763 0.543674 0.539493
0.496715 0.502339 0.502122
0.616202 0.611750 0.611938
0.428954 0.419054 0.413983
0.449238 0.449043 0.448770
0.447611 0.446225 0.449749
0.503414 0.504536 0.513721
0.426296 0.427822 0.426842
0.458396 0.458448 0.463342
0.601231 0.604084 0.602769
0.460135 0.463131 0.464187
0.485183 0.486023 0.489084
0.558473 0.558543 0.554904
0.532822 0.533701 0.542220
0.536309 0.468351 0.452183
0.459472 0.453845 0.436096
0.398378 0.445011 0.451726
0.403176 0.403925 0.404265
0.524482 0.516732 0.515264
0.518687 0.518813 0.518412
0.412219 0.412137 0.411917
0.495390 0.490748 0.485470
0.512066 0.507791 0.504089
0.458446 0.447242 0.441583
0.555361 0.554974 0.546557
0.475930 0.478879 0.480450
0.516622 0.522290 0.524198
0.432536 0.434291 0.436108
0.468519 0.467599 0.468808
0.330994 0.332438 0.332301
0.448214 0.448789 0.449449
0.509891 0.512358 0.511835
0.546916 0.540307 0.534945
0.470886 0.469547 0.471307
0.494077 0.489236 0.488021
0.445767 0.444597 0.441158
0.468581 0.474244 0.480042
0.454759 0.450973 0.450815
0.528480 0.527929 0.525317
0.644520 0.647820 0.646685
0.531303 0.531289 0.529033
0.505935 0.506866 0.507247
0.700617 0.700550 0.700452
0.553507 0.551882 0.547878
0.558844 0.562595 0.557205
0.458088 0.456586 0.456747
0.481401 0.486757 0.497599
0.416523 0.410403 0.405986
0.545446 0.547054 0.544155
0.559437 0.556529 0.551023
0.442642 0.443434 0.444460
0.512505 0.509638 0.519744
0.507659 0.505664 0.501583
0.581885 0.583989 0.599235
0.544847 0.549709 0.550408
0.468414 0.471928 0.495745
0.491401 0.495237 0.495369
0.475542 0.576115 0.577819
0.513397 0.506655 0.503307
0.530326 0.508173 0.494986
0.535441 0.524099 0.518189
0.469171 0.458042 0.458748
0.413102 0.413934 0.419999
0.520984 0.520270 0.522653
0.372055 0.368068 0.369121
0.566105 0.562526 0.556015
0.426841 0.419115 0.413820
0.479349 0.481330 0.485365
0.380141 0.376996 0.376633
0.497562 0.496363 0.495873
0.465255 0.464903 0.464417
0.544405 0.543092 0.548535
0.530063 0.528411 0.527748
0.476578 0.484190 0.487473
0.533623 0.537971 0.539487
0.436780 0.436938 0.438372
0.494889 0.493088 0.493526
0.513602 0.517573 0.514031
0.556278 0.556732 0.554438
0.584490 0.586524 0.586883
0.505297 0.508928 0.513626
0.413010 0.412888 0.413363
0.585326 0.595526 0.599933
0.561222 0.561152 0.561258
0.535558 0.537032 0.539179
0.533159 0.534528 0.536663
0.507793 0.505469 0.505295
0.553375 0.552820 0.551979
0.528851 0.616818 0.628364
0.534388 0.536882 0.536193
0.412190 0.412535 0.412701
0.433464 0.433285 0.435681
0.480280 0.478604 0.479800
0.577717 0.571773 0.571887
0.475632 0.475254 0.476045
0.624300 0.625005 0.626623
0.399916 0.402043 0.406746
0.381435 0.379626 0.379290
0.471711 0.472565 0.472329
0.536440 0.534758 0.532449
0.561386 0.555336 0.553586
0.444039 0.449273 0.441260
0.519888 0.520547 0.507443
0.444458 0.441524 0.440158
0.455705 0.456904 0.461414
0.422404 0.425216 0.425637
0.486590 0.486130 0.483082
0.412372 0.415261 0.420006
0.614887 0.630348 0.632144
0.426983 0.420602 0.417910
0.510148 0.509146 0.501094
0.487379 0.486194 0.486080
0.512975 0.514014 0.518179
0.382858 0.383594 0.385633
0.467739 0.470243 0.471306
0.473382 0.471740 0.471710
0.498945 0.498827 0.498334
0.571604 0.571513 0.570488
0.510316 0.511484 0.511906
0.536328 0.534965 0.531005
0.455107 0.463390 0.466736
0.505267 0.503789 0.503363
0.427152 0.426421 0.426097
0.516563 0.519010 0.510321
0.539129 0.531920 0.531690
0.437081 0.432437 0.434264
0.567555 0.567055 0.569230
0.541972 0.547641 0.553153
0.501618 0.501547 0.501092
0.534092 0.540189 0.545750
0.632059 0.632523 0.633968
0.565747 0.578855 0.604661
0.500728 0.502351 0.505200
0.500021 0.498111 0.507116
0.534430 0.534960 0.536048
0.473028 0.473699 0.469389
0.531082 0.529628 0.528528
0.486486 0.486888 0.486941
0.476148 0.474216 0.474544
0.479144 0.488176 0.486691
0.660361 0.657729 0.651896
0.531107 0.531207 0.531298
0.359966 0.358970 0.358368
0.659380 0.660364 0.663486
0.486269 0.493942 0.494930
0.494552 0.488216 0.488816
0.387656 0.402800 0.419191
0.410623 0.412099 0.415221
0.603753 0.603889 0.607438
0.436872 0.439328 0.438990
0.515340 0.517179 0.517080
0.530308 0.532317 0.545607
0.558923 0.546013 0.540578
0.467422 0.456931 0.451039
0.526735 0.526503 0.529329
0.445377 0.441718 0.430831
0.479541 0.480938 0.484239
0.525463 0.496440 0.498342
0.486260 0.488806 0.485361
0.493480 0.483272 0.480238
0.487990 0.490442 0.493802
0.457999 0.464196 0.468311
0.524446 0.525814 0.528783
0.502007 0.503891 0.487138
0.509724 0.507770 0.507564
0.501275 0.500839 0.507229
0.486643 0.493326 0.495301
0.462671 0.464665 0.464620
0.522804 0.522461 0.530923
0.429942 0.431502 0.426605
0.501953 0.501695 0.500746
0.646975 0.646593 0.649403
0.532232 0.523667 0.521902
0.449524 0.449355 0.449085
0.445689 0.447005 0.449414
0.421153 0.421142 0.421508
0.524388 0.524906 0.525067
0.511795 0.510491 0.509998
0.531202 0.547268 0.551348
0.462904 0.466803 0.471652
0.385858 0.385383 0.385223
0.496327 0.497652 0.496342
0.564652 0.559657 0.550831
0.632013 0.623349 0.620445
0.429636 0.429601 0.429632
0.444611 0.445758 0.442422
0.595977 0.585638 0.570094
0.490213 0.484833 0.448110
0.573739 0.575505 0.576861
0.553130 0.558473 0.558543
0.429647 0.429609 0.429657
0.499905 0.509108 0.513134
0.462855 0.462686 0.461726
0.398778 0.410863 0.426121
0.489544 0.500796 0.522955
0.559641 0.560155 0.557237
0.441607 0.449058 0.459459
0.515954 0.521815 0.527129
0.565375 0.562490 0.566031
0.509435 0.508652 0.507737
0.517753 0.519251 0.520513
0.499813 0.501018 0.500892
0.512416 0.508832 0.510373
0.466499 0.463270 0.466446
0.516101 0.520043 0.526960
0.358921 0.363749 0.368410
0.434188 0.437174 0.451802
0.452099 0.452687 0.453063
0.492976 0.490730 0.483809
0.600862 0.600983 0.599811
0.600712 0.594857 0.577252
0.459223 0.458186 0.459670
0.464091 0.458363 0.457348
0.548469 0.552687 0.563062
0.559090 0.568519 0.559381
0.458001 0.455910 0.457954
0.574796 0.584980 0.591162
0.451672 0.449830 0.458108
0.537883 0.538658 0.538866
0.519698 0.519347 0.512240
0.387884 0.385315 0.384289
0.658964 0.662273 0.674328
0.550514 0.551622 0.551761
0.568840 0.570769 0.577485
0.528428 0.526689 0.526755
0.546242 0.543067 0.540352
0.533115 0.567570 0.568702
0.638666 0.638216 0.638130
0.438082 0.437637 0.437503
0.512918 0.515170 0.515763
0.422858 0.420474 0.418698
0.379937 0.381364 0.382187
0.517658 0.517886 0.525617
0.517163 0.508123 0.485750
0.452620 0.452384 0.451581
0.411960 0.386999 0.381295
0.442646 0.433883 0.433599
0.495587 0.494600 0.494723
0.508790 0.507286 0.508865
0.517372 0.513215 0.511355
0.481030 0.480456 0.480345
0.504099 0.500125 0.498458
0.500676 0.500084 0.491825
0.476544 0.475232 0.471221
0.464150 0.470682 0.473923
0.551372 0.548270 0.549956
0.404928 0.426044 0.430368
0.480744 0.480653 0.475096
0.567064 0.566610 0.571604
0.548931 0.546038 0.545642
0.495815 0.496256 0.495996
0.454881 0.508917 0.520098
0.561810 0.562017 0.566856
0.662229 0.663802 0.670378
0.516657 0.524194 0.524784
0.487032 0.494678 0.490853
0.489053 0.487412 0.478957
0.505260 0.448357 0.433140
0.438244 0.444763 0.446971
0.531415 0.533406 0.544405
0.489930 0.491886 0.493088
0.425544 0.428104 0.434033
0.464674 0.466460 0.460612
0.609997 0.610631 0.610333
0.636400 0.635699 0.629146
0.422806 0.423359 0.427201
0.435071 0.434989 0.435369
0.515656 0.518456 0.512730
0.528912 0.526627 0.511716
0.658017 0.658623 0.658870
0.514716 0.513114 0.489724
0.558335 0.554648 0.550390
0.460451 0.459499 0.460424
0.543504 0.535776 0.532247
0.511860 0.513766 0.519201
0.483733 0.487502 0.498332
0.528090 0.528973 0.528997
0.492486 0.502783 0.505155
0.507798 0.509147 0.508407
0.492952 0.491467 0.490106
0.495674 0.499151 0.499626
0.538228 0.536377 0.532757
0.541379 0.539790 0.535245
0.597301 0.598345 0.594384
0.484779 0.490279 0.490673
0.590142 0.586906 0.592471
0.478968 0.478924 0.479043
0.539839 0.539371 0.542149
0.503900 0.488941 0.486138
0.479444 0.473430 0.466116
0.611506 0.610307 0.606549
0.557909 0.563802 0.565966
0.390059 0.394251 0.406727
0.452779 0.452616 0.467029
0.505885 0.502197 0.504672
0.448037 0.443291 0.448861
0.501013 0.463131 0.452702
0.618054 0.618281 0.612778
0.466656 0.465580 0.465585
0.531365 0.530224 0.522672
0.486367 0.489377 0.490727
0.477326 0.472701 0.469632
0.613795 0.611201 0.609047
0.647294 0.643331 0.640814
0.415614 0.415527 0.416091
0.400975 0.406636 0.408092
0.682844 0.682964 0.681696
0.642237 0.641058 0.643775
0.499446 0.496974 0.512546
0.534065 0.539564 0.542353
0.512778 0.513247 0.512227
0.388508 0.391049 0.391257
0.421443 0.421313 0.424544
0.408170 0.419623 0.420173
0.485136 0.492177 0.492798
0.605577 0.613860 0.668967
0.548246 0.549283 0.549423
0.715164 0.719077 0.700460
0.437505 0.437016 0.437766
0.445836 0.445856 0.445438
0.444462 0.442088 0.417336
0.433623 0.435473 0.441484
0.570978 0.570933 0.570986
0.625784 0.612197 0.603034
0.528989 0.534723 0.530174
0.528094 0.528855 0.529201
0.483091 0.483584 0.494893
0.627098 0.625502 0.625702
0.416518 0.420400 0.423634
0.479429 0.480036 0.480361
0.552180 0.553293 0.552788
0.506641 0.510676 0.513397
0.566106 0.570878 0.571584
0.453198 0.462299 0.459686
0.489656 0.487927 0.486028
0.516191 0.515915 0.515758
0.519788 0.505926 0.503269
0.510010 0.509309 0.509768
0.529931 0.526289 0.515765
0.566878 0.573498 0.574204
0.484049 0.485459 0.487623
0.480094 0.478915 0.478722
0.552577 0.550292 0.546664
0.532541 0.532774 0.542752
0.490826 0.513748 0.516624
0.498218 0.510175 0.509713
0.536332 0.540054 0.535059
0.478579 0.479810 0.480352
0.492458 0.493782 0.491951
0.524173 0.529629 0.530308
0.616755 0.617749 0.619625
0.569983 0.565216 0.564653
0.510977 0.507331 0.523958
0.656441 0.651588 0.646097
0.507494 0.514664 0.515017
0.629819 0.640343 0.639917
0.473698 0.474255 0.471423
0.461905 0.461016 0.451910
0.454032 0.467062 0.471748
0.509401 0.506053 0.505668
0.487677 0.485960 0.481595
0.439422 0.442317 0.443460
0.507284 0.493078 0.482099
0.506657 0.513208 0.522936
0.458996 0.463244 0.464605
0.544406 0.546817 0.548232
0.401789 0.401168 0.400098
0.489702 0.490626 0.491868
0.505678 0.501447 0.499332
0.588359 0.573879 0.561444
0.503410 0.506657 0.513208
0.478093 0.470728 0.451825
0.448677 0.451051 0.451006
0.422756 0.416627 0.414799
0.477369 0.478601 0.483518
0.509756 0.509850 0.512013
0.480338 0.484132 0.486328
0.512505 0.511757 0.510533
0.554714 0.555039 0.556910
0.434937 0.437424 0.442755
0.384784 0.376843 0.372235
0.614102 0.613220 0.600027
0.393406 0.397584 0.398778
0.518738 0.516305 0.513813
0.622875 0.592245 0.584582
0.518517 0.523741 0.527168
0.477007 0.485203 0.487067
0.483759 0.488919 0.490326
0.477840 0.477040 0.476950
0.450841 0.453110 0.432614
0.488908 0.486305 0.482567
0.512414 0.515283 0.519523
0.477071 0.492615 0.495560
0.516418 0.508310 0.496420
0.598053 0.598116 0.597944
0.475538 0.463517 0.463343
0.526450 0.536085 0.540156
0.562632 0.562635 0.559559
0.488051 0.494449 0.496531
0.519548 0.519320 0.518738
0.567947 0.565846 0.571019
0.488261 0.483093 0.483266
0.533749 0.539286 0.541494
0.397314 0.396271 0.394606
0.488279 0.482639 0.479806
0.391558 0.385931 0.377650
0.577393 0.588115 0.587965
0.498563 0.499878 0.501194
0.639213 0.652632 0.658609
0.498439 0.502763 0.503757
0.646055 0.646593 0.647037
0.551345 0.551371 0.549723
0.504380 0.504426 0.504602
0.453282 0.455703 0.453083
0.449252 0.449391 0.449266
0.452869 0.455585 0.455732
0.417161 0.415592 0.415210
0.549265 0.545132 0.547329
0.453431 0.451171 0.431029
0.472597 0.470829 0.467838
0.484236 0.486905 0.489017
0.618933 0.612833 0.627867
0.510377 0.501319 0.498484
0.487580 0.490892 0.489290
0.604145 0.606342 0.606108
0.475532 0.471552 0.469119
0.488550 0.487542 0.486212
0.411948 0.409450 0.411509
0.500220 0.496901 0.495319
0.504402 0.504249 0.504161
0.518209 0.519635 0.519367
0.493818 0.495037 0.494118
0.399116 0.398501 0.397933
0.507249 0.510690 0.520647
0.540906 0.537204 0.546789
0.495397 0.489259 0.487290
0.482665 0.485779 0.485962
0.600510 0.601369 0.604299
0.437684 0.437763 0.441152
0.584324 0.604624 0.612722
0.361357 0.360760 0.360535
0.445646 0.445415 0.445274
0.464022 0.463330 0.458909
0.529699 0.529812 0.530709
0.564990 0.563783 0.562375
0.321339 0.328295 0.353838
0.545024 0.538968 0.536543
0.464849 0.464762 0.464535
0.543503 0.540049 0.538036
0.470909 0.471653 0.471928
0.472095 0.477182 0.472731
0.472513 0.471073 0.471568
0.477597 0.475726 0.479131
0.438272 0.441279 0.443890
0.410387 0.408959 0.409733
0.464711 0.464112 0.465245
0.702157 0.699827 0.699097
0.515812 0.514874 0.510970
0.501382 0.497912 0.499037
0.490123 0.494578 0.497437
0.546926 0.546743 0.546911
0.446657 0.446058 0.446413
0.415553 0.427092 0.430391
0.480514 0.482295 0.481921
0.431858 0.432528 0.429696
0.519740 0.519473 0.518443
0.380493 0.380913 0.382445
0.506338 0.537600 0.552004
0.448253 0.440828 0.441547
0.473866 0.472613 0.468437
0.454017 0.451521 0.455808
0.513847 0.520303 0.528081
0.462230 0.464125 0.502379
0.545827 0.547772 0.547888
0.533223 0.531339 0.530637
0.502747 0.501316 0.500583
0.505567 0.510475 0.510830
0.513940 0.512742 0.512556
0.537214 0.539433 0.540092
0.491237 0.488550 0.487542
0.503556 0.503600 0.503799
0.486528 0.498168 0.504816
0.511375 0.512103 0.511948
0.514419 0.510656 0.511170
0.641012 0.638501 0.639301
0.574282 0.575828 0.577188
0.490924 0.484053 0.484812
0.493078 0.482099 0.481925
0.499325 0.499150 0.498896
0.437252 0.437676 0.439749
0.427122 0.427389 0.427405
0.691815 0.688947 0.671574
0.464060 0.462831 0.466612
0.503510 0.503727 0.504344
0.493888 0.502396 0.504688
0.454450 0.453795 0.452569
0.460879 0.461109 0.460969
0.521633 0.513596 0.515225
0.384644 0.399764 0.400230
0.532633 0.522683 0.487808
0.460245 0.457932 0.457798
0.487340 0.487688 0.488001
0.431375 0.431327 0.431938
0.537498 0.543144 0.541223
0.508656 0.507626 0.506675
0.509682 0.501977 0.499708
0.453868 0.453145 0.452295
0.461127 0.463402 0.467798
0.481901 0.462230 0.464125
0.428453 0.437656 0.446815
0.405499 0.388903 0.385370
0.537042 0.525600 0.524048
0.549006 0.543970 0.549569
0.481568 0.480944 0.482378
0.546486 0.538638 0.534241
0.519975 0.520690 0.522469
0.467307 0.467524 0.461314
0.559556 0.558908 0.551301
0.464300 0.467826 0.469881
0.562898 0.548036 0.549979
0.646005 0.647098 0.639209
0.588761 0.588933 0.589484
0.493484 0.498559 0.499096
0.435041 0.437780 0.468612
0.490104 0.490706 0.489423
0.509450 0.507057 0.506250
0.448814 0.448857 0.449071
0.495828 0.494236 0.495010
0.509869 0.509654 0.509773
0.488457 0.491297 0.491222
0.492842 0.492063 0.491149
0.439347 0.440664 0.444229
0.455905 0.454971 0.454919
0.617559 0.613639 0.604430
0.433569 0.456207 0.463237
0.631196 0.627733 0.619479
0.457369 0.455725 0.455941
0.530335 0.533082 0.535879
0.629105 0.627970 0.631137
0.533617 0.531705 0.532616
0.486590 0.476977 0.475320
0.536327 0.531415 0.533406
0.529578 0.537071 0.546979
0.512161 0.516474 0.518775
0.487842 0.482872 0.483568
0.576638 0.569119 0.570684
0.630740 0.631440 0.631725
0.472412 0.466965 0.472181
0.413393 0.413546 0.413004
0.486834 0.486178 0.490310
0.490312 0.488487 0.487810
0.425856 0.423806 0.422178
0.500840 0.495487 0.498426
0.485294 0.481196 0.479722
0.498004 0.496896 0.487677
0.493514 0.497776 0.499952
0.421435 0.422791 0.423162
0.502871 0.500050 0.507468
0.538394 0.537747 0.537748
0.413936 0.420425 0.423488
0.604912 0.603868 0.601024
0.481156 0.478688 0.477466
0.388572 0.396447 0.398309
0.696502 0.714196 0.712360
0.408929 0.410944 0.410404
0.682992 0.682024 0.680705
0.409856 0.424610 0.424478
0.428761 0.426119 0.425956
0.578290 0.579339 0.581202
0.384748 0.385649 0.379806
0.526124 0.529733 0.528990
0.537541 0.543951 0.540125
0.473089 0.476047 0.525012
0.481411 0.469322 0.469002
0.492455 0.489504 0.490862
0.603834 0.607742 0.612523
0.507569 0.512622 0.514667
0.446344 0.443726 0.434018
0.475907 0.474558 0.469743
0.638437 0.641162 0.646850
0.643174 0.641253 0.644662
0.491915 0.484268 0.481187
0.371204 0.371575 0.372022
0.550210 0.547669 0.548905
0.531793 0.521102 0.515208
0.366142 0.406108 0.408985
0.512169 0.508818 0.508835
0.435989 0.420955 0.413533
0.532661 0.483606 0.471759
0.432680 0.437439 0.442508
0.525311 0.517517 0.511212
