0.090580 0.089620 0.088663
0.152042 0.154413 0.154283
0.118281 0.117824 0.118002
0.081565 0.081396 0.081754
0.125554 0.125563 0.125944
0.144352 0.145444 0.146358
0.141124 0.141659 0.141481
0.138619 0.138906 0.136440
0.093674 0.094406 0.096230
0.173294 0.174861 0.175145
0.161195 0.159734 0.159216
0.129187 0.129223 0.129574
0.135325 0.137044 0.137763
0.135340 0.135402 0.135262
0.108358 0.108013 0.104990
0.100013 0.099961 0.099473
0.154139 0.154540 0.157575
0.145780 0.146083 0.144443
0.154927 0.154209 0.154112
0.133473 0.139920 0.140917
0.123244 0.122364 0.120734
0.133384 0.133920 0.134799
0.112409 0.112837 0.111411
0.127112 0.126919 0.126449
0.112421 0.112031 0.111432
0.143061 0.143611 0.144884
0.084709 0.085637 0.086672
0.105332 0.104463 0.102455
0.137210 0.136466 0.136781
0.140618 0.140875 0.144640
0.154234 0.154591 0.153473
0.146517 0.146394 0.147234
0.074131 0.074477 0.074967
0.117771 0.118270 0.118178
0.105826 0.106066 0.106089
0.138275 0.138983 0.139615
0.104468 0.104645 0.105420
0.150018 0.151455 0.151510
0.094835 0.094875 0.093331
0.150571 0.151712 0.151549
0.130382 0.130410 0.130211
0.099432 0.097210 0.095826
0.136795 0.137078 0.137325
0.110507 0.110896 0.110692
0.108111 0.107892 0.110715
0.154905 0.157065 0.156993
0.077217 0.077171 0.077103
0.120637 0.125481 0.126232
0.165149 0.163750 0.154280
0.097675 0.098672 0.099059
0.127335 0.127496 0.127516
0.085766 0.086259 0.087187
0.123595 0.122001 0.118541
0.102049 0.102018 0.102085
0.175543 0.176218 0.176263
0.081271 0.080606 0.080937
0.113017 0.112519 0.112461
0.158994 0.157471 0.157832
0.146280 0.146340 0.146190
0.151661 0.151875 0.153864
0.105285 0.105198 0.107870
0.138229 0.138043 0.138559
0.089277 0.088761 0.088195
0.134590 0.133742 0.133280
0.161806 0.162278 0.161732
0.123052 0.125511 0.124825
0.155757 0.156702 0.156317
0.153195 0.153688 0.153914
0.144212 0.143840 0.143634
0.154763 0.152960 0.147733
0.114000 0.113383 0.112431
0.153607 0.152971 0.148282
0.122364 0.120734 0.120463
0.131355 0.131371 0.131433
0.132431 0.132656 0.131052
0.116609 0.116159 0.115051
0.081238 0.082356 0.082255
0.127977 0.128504 0.128719
0.125851 0.125950 0.125290
0.118195 0.115681 0.115839
0.147242 0.148748 0.149368
0.148899 0.148793 0.148896
0.108164 0.108328 0.108452
0.110748 0.110762 0.111903
0.129181 0.129512 0.129082
0.108660 0.107665 0.102171
0.094959 0.095304 0.095309
0.137976 0.138514 0.138592
0.115301 0.119235 0.119410
0.122172 0.122072 0.122549
0.157504 0.159914 0.159827
0.107520 0.107591 0.107635
0.160507 0.156586 0.144833
0.108288 0.108352 0.108043
0.114936 0.115231 0.117390
0.161980 0.161983 0.162145
0.146626 0.144121 0.143260
0.156226 0.156379 0.156432
0.145151 0.145302 0.145070
0.127620 0.127999 0.127893
0.147525 0.147536 0.146782
0.125232 0.125117 0.124203
0.132783 0.132323 0.132195
0.142767 0.142949 0.141932
0.074554 0.074891 0.075359
0.110344 0.110160 0.110148
0.155682 0.154484 0.155187
0.122080 0.122138 0.122141
0.128641 0.131319 0.131757
0.161687 0.164632 0.167705
0.167562 0.167500 0.167835
0.078366 0.076681 0.076416
0.098955 0.095688 0.094713
0.118760 0.119969 0.122750
0.078662 0.077514 0.077645
0.087575 0.087551 0.088614
0.138771 0.136672 0.136282
0.128553 0.129224 0.129178
0.071619 0.071459 0.072288
0.121214 0.121967 0.122617
0.102775 0.102752 0.101559
0.143604 0.143327 0.143873
0.133729 0.133886 0.133504
0.124493 0.123003 0.122078
0.118677 0.118942 0.118186
0.146617 0.146464 0.146437
0.140605 0.141377 0.141211
0.160872 0.159277 0.158930
0.123167 0.122051 0.115192
0.165638 0.165471 0.164705
0.115033 0.114334 0.114048
0.125480 0.125539 0.125389
0.133476 0.132114 0.131391
0.149601 0.149409 0.150222
0.103019 0.102524 0.101039
0.162085 0.158667 0.160147
0.144620 0.144428 0.139229
0.123452 0.123783 0.122720
0.124820 0.125265 0.124826
0.130194 0.124800 0.121202
0.104827 0.103533 0.103134
0.123178 0.123167 0.122466
0.146394 0.146036 0.145955
0.104541 0.108296 0.109044
0.167140 0.167441 0.163111
0.120496 0.120514 0.119599
0.173899 0.173398 0.173141
0.123571 0.122955 0.122978
0.133232 0.132611 0.127776
0.137288 0.137141 0.137184
0.146254 0.145973 0.145373
0.165366 0.165153 0.165022
0.158965 0.155819 0.156802
0.142273 0.144258 0.144077
0.147536 0.146782 0.145414
0.117356 0.117748 0.118219
0.122990 0.120743 0.120312
0.166014 0.165961 0.166089
0.147521 0.146286 0.144940
0.140764 0.142088 0.141960
0.141529 0.141204 0.140653
0.077616 0.077768 0.077577
0.106774 0.107680 0.107219
0.150508 0.145999 0.140638
0.149743 0.149932 0.149904
0.124635 0.124637 0.124854
0.113074 0.113068 0.112822
0.151494 0.149714 0.149698
0.144791 0.146244 0.148947
0.128979 0.128727 0.128997
0.102319 0.103543 0.103611
0.146732 0.146794 0.146734
0.120119 0.120008 0.120506
0.080340 0.080578 0.080495
0.097894 0.100323 0.101828
0.130705 0.132288 0.141321
0.135442 0.136190 0.137263
0.089381 0.090558 0.090041
0.108282 0.108466 0.107213
0.108076 0.108226 0.108494
0.158362 0.158005 0.159105
0.115051 0.114943 0.115474
0.118356 0.117579 0.118191
0.097881 0.097928 0.097838
0.147708 0.148390 0.153254
0.118817 0.119178 0.119276
0.127150 0.127132 0.127116
0.138845 0.139346 0.138154
0.145369 0.144865 0.144704
0.119406 0.118964 0.118765
0.084333 0.084122 0.083240
0.127292 0.125065 0.124464
0.136789 0.136580 0.139791
0.125350 0.125444 0.124743
0.084732 0.084379 0.084219
0.123878 0.123897 0.124625
0.138590 0.138287 0.137688
0.124275 0.123918 0.120778
0.168051 0.168382 0.167467
0.121865 0.120939 0.120107
0.124439 0.123583 0.124125
0.138560 0.137224 0.125195
0.078242 0.078777 0.080291
0.099868 0.098896 0.098701
0.120040 0.120016 0.120397
0.124189 0.123088 0.123045
0.121502 0.121121 0.121504
0.117824 0.117647 0.117649
0.146493 0.145883 0.145389
0.140984 0.141316 0.139706
0.156349 0.158597 0.159982
0.159215 0.158136 0.157797
0.135102 0.135222 0.135061
0.075636 0.075189 0.075410
0.124690 0.127310 0.127228
0.145503 0.145480 0.146192
0.077251 0.076857 0.079867
0.149727 0.149989 0.151042
0.143425 0.143773 0.143803
0.134977 0.135871 0.144707
0.157123 0.155978 0.155267
0.131540 0.132387 0.133057
0.124859 0.127418 0.127339
0.155771 0.155694 0.156052
0.100175 0.100001 0.100069
0.127835 0.127881 0.127870
0.155828 0.155998 0.156419
0.120109 0.120056 0.120014
0.157340 0.157419 0.157719
0.105913 0.105897 0.106220
0.081945 0.082848 0.084887
0.118657 0.118633 0.116122
0.155445 0.155364 0.155684
0.130489 0.131368 0.131008
0.132347 0.130570 0.130357
0.148076 0.146842 0.147362
0.099747 0.100020 0.100162
0.128755 0.128846 0.128738
0.110459 0.108916 0.108896
0.089458 0.088891 0.089286
0.131978 0.132760 0.134425
0.111801 0.111090 0.110087
0.138283 0.138310 0.139006
0.083270 0.082834 0.082902
0.075073 0.074198 0.073015
0.138299 0.137333 0.137611
0.094650 0.094881 0.094517
0.165231 0.165986 0.167022
0.125200 0.125607 0.126417
0.142834 0.143402 0.143393
0.146303 0.142697 0.135198
0.118383 0.119011 0.119629
0.167048 0.173431 0.174602
0.119502 0.119143 0.119869
0.120391 0.120369 0.120062
0.148936 0.148358 0.148874
0.122589 0.122624 0.122561
0.109973 0.110494 0.111322
0.140842 0.139815 0.139263
0.133410 0.132794 0.132274
0.137846 0.137263 0.136469
0.106192 0.106134 0.105534
0.073566 0.073487 0.073818
0.165672 0.163315 0.163258
0.162641 0.163149 0.162420
0.146667 0.146925 0.147364
0.111276 0.110954 0.111348
0.098701 0.098915 0.099069
0.138160 0.138100 0.138446
0.115504 0.114720 0.112884
0.131375 0.130642 0.128356
0.139455 0.139386 0.139017
0.163756 0.164584 0.164241
0.124287 0.124303 0.124656
0.127497 0.128801 0.127329
0.113338 0.113389 0.113892
0.130023 0.129634 0.127544
0.137238 0.130404 0.129889
0.141568 0.141469 0.141368
0.087655 0.087537 0.086407
0.167707 0.168452 0.168372
0.166659 0.166340 0.164019
0.135023 0.134454 0.135839
0.132703 0.132700 0.133017
0.121625 0.123014 0.123133
0.153466 0.158800 0.159691
0.143781 0.144264 0.143893
0.171851 0.172085 0.169496
0.165911 0.166076 0.165923
0.109227 0.109500 0.109962
0.165723 0.166112 0.165717
0.127695 0.128002 0.126636
0.088635 0.089410 0.089736
0.181132 0.180465 0.180887
0.122925 0.123046 0.123629
0.136824 0.136037 0.135644
0.133803 0.133944 0.134399
0.125072 0.127931 0.127824
0.149102 0.148815 0.148154
0.157449 0.157263 0.157182
0.148856 0.148935 0.148956
0.098932 0.099197 0.099825
0.132915 0.132567 0.132470
0.147966 0.149152 0.149875
0.149673 0.151559 0.151784
0.137817 0.138996 0.139242
0.133486 0.133623 0.132870
0.141575 0.142093 0.142499
0.098112 0.099044 0.099421
0.136936 0.138984 0.147140
0.127501 0.127396 0.127067
0.151742 0.152042 0.154413
0.124045 0.123286 0.123506
0.143419 0.143340 0.143434
0.119862 0.119366 0.119257
0.105292 0.105986 0.110003
0.154159 0.154667 0.154176
0.123812 0.123528 0.123171
0.119847 0.118881 0.118626
0.112097 0.111761 0.111243
0.105478 0.105210 0.105932
0.159629 0.160909 0.160868
0.161570 0.162570 0.164252
0.120809 0.120240 0.118966
0.137593 0.137748 0.137728
0.116146 0.116064 0.115568
0.147120 0.147284 0.145328
0.079770 0.080140 0.080348
0.135046 0.135222 0.134980
0.154657 0.154251 0.154749
0.113283 0.114531 0.115172
0.135523 0.135210 0.135080
0.165156 0.165601 0.166543
0.073496 0.073587 0.073182
0.129528 0.125108 0.124669
0.127170 0.126992 0.125672
0.157949 0.157840 0.157511
0.125312 0.125713 0.126877
0.146166 0.145546 0.145799
0.165225 0.164716 0.163623
0.137423 0.135640 0.135125
0.163011 0.164129 0.164274
0.138629 0.138382 0.137018
0.136713 0.136654 0.137642
0.148815 0.148154 0.149994
0.073493 0.073186 0.073150
0.138559 0.139037 0.136926
0.165012 0.155910 0.152169
0.091837 0.091433 0.090659
0.120727 0.120445 0.118791
0.095075 0.094232 0.093319
0.076339 0.076344 0.076006
0.108144 0.109107 0.108681
0.141433 0.140688 0.138947
0.129175 0.129707 0.129215
0.130480 0.130969 0.130890
0.104253 0.105472 0.104472
0.113102 0.113089 0.113159
0.115801 0.116640 0.116943
0.124276 0.123660 0.123682
0.132759 0.132347 0.130570
0.123122 0.122361 0.121453
0.127416 0.126894 0.126447
0.129048 0.129306 0.129257
0.168474 0.166098 0.165745
0.167851 0.169081 0.169099
0.098234 0.098481 0.099126
0.170735 0.171147 0.174938
0.087439 0.087743 0.087677
0.132244 0.132465 0.131948
0.152107 0.156496 0.156637
0.166076 0.165923 0.166387
0.127438 0.127753 0.127024
0.162746 0.162956 0.162608
0.152020 0.151522 0.151026
0.120508 0.120508 0.120914
0.136088 0.134886 0.134993
0.098436 0.101827 0.101665
0.101749 0.101112 0.100739
0.132726 0.132165 0.133252
0.075005 0.074206 0.074983
0.163979 0.166321 0.166273
0.128096 0.128691 0.128774
0.120403 0.119601 0.118775
0.104994 0.103272 0.102868
0.109245 0.109700 0.111162
0.075551 0.075535 0.075292
0.126022 0.124135 0.123075
0.127012 0.127008 0.130277
0.166322 0.166539 0.166595
0.119608 0.118660 0.118587
0.114403 0.114520 0.114716
0.106715 0.107268 0.107499
0.168751 0.170844 0.172408
0.093387 0.093346 0.093934
0.131449 0.131826 0.132623
0.107466 0.109019 0.109436
0.131598 0.131459 0.131294
0.126095 0.126325 0.126589
0.118661 0.118497 0.116709
0.103065 0.103366 0.106548
0.092441 0.092561 0.093060
0.122439 0.122032 0.119956
0.148457 0.147925 0.146229
0.164705 0.163475 0.161996
0.088852 0.089286 0.089493
0.151042 0.156076 0.156382
0.142962 0.143399 0.143572
0.109303 0.108057 0.110543
0.153358 0.152420 0.150612
0.152488 0.152112 0.152032
0.102307 0.102057 0.101984
0.126597 0.128909 0.127258
0.158590 0.157249 0.155450
0.137300 0.137591 0.139288
0.142177 0.142661 0.143131
0.146691 0.148478 0.150293
0.149232 0.150365 0.151361
0.146028 0.149851 0.152251
0.134187 0.133576 0.133682
0.110285 0.109875 0.108443
0.120197 0.119541 0.120066
0.157998 0.157559 0.157167
0.110438 0.110316 0.110436
0.141016 0.141086 0.141660
0.107699 0.107189 0.107453
0.127363 0.124223 0.124048
0.167315 0.161672 0.162279
0.132879 0.132255 0.132861
0.120968 0.120728 0.120203
0.108531 0.108268 0.107652
0.115051 0.113689 0.113161
0.125050 0.125710 0.125375
0.141997 0.140717 0.140392
0.100167 0.104475 0.106015
0.152455 0.152350 0.150595
0.098257 0.098196 0.097470
0.126919 0.126449 0.126216
0.142703 0.142595 0.142047
0.132508 0.132608 0.133050
0.146362 0.146076 0.146168
0.134230 0.131681 0.130674
0.077779 0.078086 0.078009
0.168060 0.168214 0.167662
0.154339 0.156115 0.160221
0.097364 0.096196 0.089237
0.127181 0.126016 0.125849
0.131999 0.134008 0.132935
0.109130 0.107195 0.107261
0.120936 0.120123 0.117687
0.083395 0.083808 0.084097
0.117485 0.117546 0.121340
0.125053 0.125374 0.125900
0.144281 0.144262 0.144211
0.096597 0.096097 0.093370
0.108511 0.108510 0.109269
0.122971 0.120461 0.120565
0.162092 0.162016 0.162291
0.150817 0.151204 0.151114
0.149932 0.149904 0.150560
0.135319 0.134249 0.133598
0.089997 0.089633 0.090546
0.143056 0.143130 0.143015
0.128653 0.130756 0.132984
0.138850 0.138761 0.139209
0.162589 0.161774 0.157429
0.082843 0.083004 0.082984
0.145603 0.145512 0.146986
0.140828 0.140338 0.140037
0.120729 0.120074 0.120592
0.113239 0.113074 0.112733
0.131971 0.130900 0.129030
0.153910 0.154108 0.153818
0.129942 0.130806 0.131066
0.127055 0.123833 0.123900
0.144822 0.143907 0.142182
0.130696 0.130216 0.130231
0.114998 0.115040 0.115424
0.120722 0.119832 0.117022
0.126511 0.126075 0.126421
0.112691 0.112231 0.112436
0.125081 0.123812 0.123528
0.124804 0.120937 0.121127
0.118973 0.119446 0.120381
0.132808 0.131917 0.132823
0.137911 0.137436 0.135036
0.138858 0.140488 0.151737
0.103713 0.103181 0.102175
0.137468 0.138247 0.139544
0.113472 0.112427 0.112592
0.129248 0.128826 0.128813
0.125763 0.124946 0.124787
0.107785 0.107548 0.107527
0.121687 0.123276 0.124413
0.123202 0.124019 0.126274
0.161009 0.163473 0.162869
0.126886 0.125022 0.122280
0.115382 0.112939 0.112796
0.137687 0.137782 0.138188
0.073958 0.074131 0.074477
0.149120 0.149007 0.149895
0.119950 0.119903 0.119152
0.071400 0.071455 0.071711
0.090148 0.090198 0.090130
0.143767 0.141050 0.140787
0.110484 0.110240 0.109793
0.133309 0.133504 0.136363
0.165949 0.165943 0.166123
0.126122 0.126934 0.127124
0.117947 0.118002 0.117137
0.119437 0.118904 0.119038
0.166496 0.166938 0.167537
0.115222 0.115673 0.114847
0.134773 0.134758 0.134672
0.128351 0.128192 0.128116
0.145587 0.145730 0.145697
0.107063 0.107966 0.107975
0.114236 0.114259 0.114107
0.148286 0.147136 0.146115
0.102992 0.103651 0.103607
0.154973 0.157216 0.157131
0.139527 0.140398 0.140678
0.100356 0.099705 0.099467
0.138689 0.138498 0.137229
0.148236 0.152700 0.153064
0.144723 0.144308 0.143317
0.157781 0.157047 0.156308
0.097146 0.097079 0.097600
0.167637 0.168051 0.168382
0.115615 0.116091 0.118688
0.176080 0.176106 0.176540
0.155507 0.154576 0.157196
0.119892 0.119736 0.119935
0.149033 0.148931 0.148076
0.088135 0.087633 0.085933
0.136372 0.135694 0.135299
0.141830 0.142116 0.142253
0.099126 0.099389 0.100103
0.125227 0.125203 0.124893
0.142502 0.142471 0.142427
0.119196 0.119484 0.117453
0.081211 0.080880 0.081029
0.151675 0.151226 0.148094
0.111118 0.110916 0.111436
0.125509 0.123472 0.123780
0.144832 0.144750 0.144096
0.135396 0.134638 0.134101
0.130290 0.130985 0.131963
0.158288 0.160028 0.162567
0.118081 0.120678 0.121234
0.108230 0.108224 0.108062
0.162552 0.159432 0.159428
0.139908 0.140644 0.140524
0.128900 0.127920 0.130844
0.077344 0.076918 0.077434
0.092034 0.092074 0.092288
0.138445 0.135412 0.134762
0.122610 0.125347 0.125079
0.101035 0.100986 0.100224
0.137574 0.139190 0.138443
0.088195 0.087861 0.087789
0.143478 0.142835 0.142577
0.129178 0.129051 0.129509
0.133352 0.133519 0.133673
0.122407 0.122428 0.122240
0.100215 0.098896 0.098653
0.137475 0.137143 0.136356
0.155933 0.156012 0.156180
0.144670 0.144651 0.145052
0.138852 0.141969 0.142049
0.166119 0.165964 0.165263
0.137756 0.136501 0.134669
0.108336 0.107506 0.105293
0.131085 0.130578 0.129955
0.115191 0.116373 0.115761
0.136766 0.138680 0.137461
0.153086 0.151748 0.151647
0.160612 0.160059 0.158590
0.109011 0.107327 0.106241
0.154795 0.155986 0.155831
0.142116 0.142253 0.145865
0.160439 0.160324 0.160244
0.139615 0.139395 0.138024
0.128912 0.130096 0.130366
0.143188 0.143841 0.142614
0.114785 0.114838 0.115899
0.131880 0.132436 0.132854
0.154562 0.155110 0.154913
0.125731 0.125708 0.125712
0.126732 0.125126 0.125537
0.105046 0.104564 0.105510
0.122353 0.122315 0.122268
0.132933 0.132934 0.133133
0.144368 0.149536 0.150133
0.114547 0.111445 0.104039
0.138487 0.139072 0.139227
0.126555 0.126776 0.126861
0.089155 0.089115 0.089223
0.160091 0.160179 0.161437
0.122092 0.122680 0.123087
0.113718 0.113615 0.114408
0.164196 0.163414 0.162975
0.119809 0.120573 0.121151
0.137239 0.139593 0.140287
0.174931 0.173378 0.170578
0.142335 0.143246 0.143441
0.094700 0.094707 0.095076
0.152700 0.153064 0.153670
0.144815 0.144335 0.143453
0.098156 0.097505 0.097549
0.136378 0.135588 0.134771
0.158963 0.154211 0.153689
0.125513 0.125499 0.129366
0.160354 0.158389 0.157551
0.167679 0.164688 0.164710
0.111064 0.108086 0.107210
0.121278 0.122708 0.122693
0.124628 0.124696 0.123993
0.072744 0.072181 0.072067
0.143428 0.143687 0.143940
0.126639 0.126517 0.126631
0.106899 0.108111 0.108138
0.133829 0.133382 0.132429
0.133008 0.135934 0.137079
0.122263 0.122968 0.123406
0.133626 0.133335 0.133236
0.083431 0.082639 0.082216
0.114718 0.114826 0.115623
0.122387 0.116655 0.116145
0.107136 0.105462 0.103239
0.134360 0.133804 0.135775
0.146385 0.145587 0.145730
0.125729 0.125295 0.125522
0.090147 0.089358 0.088802
0.125950 0.125245 0.125119
0.111340 0.111273 0.109903
0.081995 0.082552 0.081987
0.132279 0.133460 0.136191
0.153275 0.153470 0.153234
0.114187 0.114338 0.114372
0.144089 0.143638 0.142883
0.167634 0.167176 0.165672
0.124246 0.123251 0.122944
0.159383 0.159791 0.160245
0.088892 0.089299 0.089670
0.085819 0.087079 0.087367
0.126421 0.126714 0.126263
0.095716 0.095577 0.094860
0.163431 0.161391 0.149450
0.077118 0.077091 0.077246
0.172916 0.173251 0.173357
0.160934 0.161093 0.161042
0.123938 0.122972 0.122134
0.146168 0.146070 0.145920
0.112018 0.112132 0.112433
0.123848 0.123575 0.124591
0.140150 0.138624 0.137219
0.131551 0.130311 0.129954
0.117040 0.117273 0.117210
0.137920 0.138408 0.137126
0.127827 0.130420 0.130945
0.157849 0.158422 0.155874
0.156429 0.156952 0.157307
0.158872 0.154864 0.153752
0.154758 0.155618 0.161379
0.149680 0.149084 0.147338
0.145818 0.144958 0.143765
0.151349 0.154159 0.154667
0.132260 0.133748 0.135888
0.168819 0.169058 0.169067
0.146596 0.146467 0.147270
0.108253 0.104227 0.103634
0.094460 0.094323 0.094311
0.124807 0.114920 0.113841
0.097897 0.097428 0.097510
0.121172 0.119831 0.119333
0.160867 0.161056 0.160495
0.146832 0.145763 0.148413
0.157131 0.157066 0.156861
0.077673 0.077719 0.077556
0.138154 0.137514 0.137144
0.145707 0.139292 0.138254
0.126504 0.126013 0.127323
0.144705 0.144595 0.142802
0.126497 0.126560 0.125656
0.134087 0.134622 0.134087
0.141615 0.145646 0.145579
0.166455 0.166892 0.161973
0.123910 0.123878 0.123897
0.151493 0.152194 0.148216
0.152114 0.151029 0.148936
0.129561 0.129990 0.130591
0.134453 0.135143 0.135818
0.112461 0.113669 0.119732
0.096434 0.096491 0.096759
0.078280 0.078102 0.078800
0.129132 0.129702 0.129760
0.120452 0.132568 0.133993
0.118765 0.117616 0.117923
0.140291 0.139888 0.138238
0.119371 0.119415 0.119304
0.125391 0.125636 0.125729
0.166423 0.167065 0.167382
0.144951 0.144215 0.143506
0.139358 0.138791 0.137521
0.122168 0.122835 0.122449
0.144642 0.144828 0.143676
0.126525 0.124139 0.118738
0.135733 0.135899 0.135908
0.138412 0.136558 0.135347
0.121497 0.120816 0.120377
0.147404 0.147045 0.146980
0.161376 0.161158 0.160985
0.127047 0.123804 0.123813
0.111781 0.110710 0.109908
0.118318 0.118459 0.118665
0.161774 0.157429 0.157105
0.073407 0.073499 0.073452
0.100912 0.101975 0.102705
0.125045 0.126554 0.125878
0.080264 0.079406 0.079193
0.118317 0.117708 0.117393
0.124873 0.124804 0.124638
0.141280 0.143882 0.144059
0.095738 0.096379 0.097260
0.100530 0.099581 0.098933
0.122761 0.122391 0.123708
0.134258 0.134018 0.133906
0.141818 0.141986 0.141427
0.142697 0.142559 0.141476
0.119008 0.119190 0.119506
0.120968 0.121079 0.124024
0.102369 0.101567 0.100096
0.077751 0.077129 0.077346
0.134166 0.134028 0.133156
0.097553 0.097922 0.098376
0.149787 0.149900 0.150000
0.146099 0.146470 0.146008
0.139343 0.139689 0.138063
0.123907 0.123602 0.124360
0.148689 0.149038 0.149158
0.084233 0.084917 0.084995
0.145615 0.146773 0.147515
0.116339 0.116444 0.117270
0.117472 0.118144 0.117365
0.143423 0.144071 0.143267
0.164688 0.164710 0.166554
0.077352 0.077314 0.077148
0.102038 0.102545 0.102070
0.153864 0.154929 0.153905
0.153905 0.154157 0.154682
0.153512 0.153046 0.152841
0.132153 0.133375 0.135963
0.132944 0.131801 0.130813
0.135822 0.136777 0.136744
0.102416 0.102317 0.103543
0.142961 0.142973 0.142921
0.105981 0.106026 0.106099
0.155035 0.155533 0.155732
0.131381 0.131386 0.129683
0.142112 0.142565 0.145151
0.123912 0.124205 0.124385
0.139658 0.139593 0.138835
0.165755 0.166730 0.167066
0.101991 0.102137 0.102053
0.164657 0.164287 0.164480
0.143247 0.143167 0.142861
0.088856 0.089310 0.089673
0.118618 0.124875 0.124579
0.137188 0.136680 0.135904
0.116085 0.115822 0.116184
0.127287 0.127241 0.127286
0.135797 0.134332 0.135545
0.131015 0.131123 0.131524
0.140437 0.140515 0.138107
0.111901 0.112117 0.111618
0.141811 0.141980 0.140415
0.128644 0.130983 0.131579
0.113220 0.114099 0.115023
0.126607 0.125207 0.124538
0.079886 0.079424 0.079271
0.169344 0.170513 0.170577
0.167951 0.167548 0.166865
0.162714 0.162373 0.162798
0.136033 0.136024 0.136030
0.123750 0.124176 0.124333
0.075312 0.074438 0.074187
0.145925 0.144674 0.142978
0.107024 0.109476 0.109509
0.142816 0.143195 0.142961
0.076095 0.077277 0.077076
0.151609 0.151609 0.150622
0.145412 0.145665 0.145780
0.129223 0.128279 0.128049
0.122667 0.121752 0.120859
0.150085 0.151327 0.153220
0.142953 0.143086 0.143099
0.105214 0.104637 0.104585
0.121462 0.120921 0.120449
0.132745 0.133221 0.133711
0.144674 0.142978 0.141428
0.114321 0.116767 0.117566
0.130412 0.130326 0.129832
0.107652 0.108076 0.108288
0.136060 0.142225 0.142471
0.111632 0.111366 0.110969
0.126254 0.126850 0.126946
0.117245 0.116864 0.118393
0.144963 0.145820 0.145012
0.118537 0.118895 0.118324
0.119370 0.118623 0.118677
0.115742 0.115748 0.115379
0.097810 0.097275 0.094555
0.124251 0.124166 0.126430
0.135552 0.135202 0.136380
0.136555 0.137002 0.137913
0.122100 0.122105 0.121830
0.133923 0.132566 0.132709
0.152594 0.152559 0.152484
0.110363 0.110759 0.111534
0.135801 0.137896 0.138008
0.122294 0.121956 0.121562
0.155241 0.160089 0.159565
0.108300 0.109063 0.108962
0.135227 0.134531 0.131782
0.141380 0.140853 0.142265
0.149151 0.151939 0.152334
0.146853 0.146512 0.146394
0.106717 0.105678 0.105877
0.125495 0.125759 0.125585
0.127294 0.128339 0.128209
0.138974 0.135407 0.135624
0.127669 0.132338 0.133362
0.071145 0.071122 0.070781
0.166861 0.168464 0.165484
0.127802 0.126509 0.126834
0.109193 0.109264 0.108737
0.085325 0.085696 0.084999
0.146975 0.146962 0.145844
0.122324 0.121511 0.121140
0.154362 0.154892 0.154079
0.113106 0.113011 0.112119
0.094265 0.094087 0.094384
0.111167 0.111088 0.109689
0.116734 0.116570 0.116788
0.143061 0.143056 0.143130
0.170788 0.174898 0.173975
0.150775 0.151410 0.151475
0.104443 0.104504 0.104409
0.114004 0.114982 0.115498
0.134422 0.133948 0.134000
0.148090 0.147992 0.145780
0.155495 0.152502 0.152271
0.144218 0.144375 0.143726
0.128693 0.129228 0.129118
0.102332 0.102336 0.102359
0.148734 0.151007 0.154775
0.134955 0.134717 0.134625
0.152211 0.151877 0.151317
0.091603 0.094057 0.096883
0.136875 0.136794 0.136396
0.096000 0.095117 0.099049
0.139820 0.141516 0.140991
0.171965 0.173114 0.172567
0.139433 0.140181 0.140685
0.139979 0.140058 0.140070
0.170429 0.170225 0.169873
0.127289 0.127991 0.129183
0.101086 0.102363 0.101942
0.124339 0.124278 0.123151
0.131353 0.133039 0.134001
0.127619 0.127421 0.127310
0.150774 0.151197 0.150604
0.120609 0.121389 0.121792
0.160186 0.164988 0.165482
0.123783 0.122720 0.122340
0.114511 0.114526 0.115070
0.139854 0.140413 0.140751
0.139796 0.140003 0.140342
0.142262 0.141597 0.139279
0.122925 0.123014 0.123569
0.148983 0.148899 0.148669
0.130480 0.130058 0.130228
0.163559 0.164111 0.162816
0.134846 0.134195 0.133547
0.137431 0.131305 0.129900
0.078456 0.077606 0.077822
0.172084 0.168717 0.168048
0.166632 0.166789 0.168883
0.158681 0.158287 0.158035
0.088835 0.088620 0.088641
0.133395 0.133420 0.132921
0.115090 0.114252 0.114370
0.121402 0.122374 0.123283
0.151552 0.151346 0.151426
0.108773 0.107779 0.106131
0.139450 0.141196 0.141206
0.117104 0.117334 0.117150
0.130944 0.130193 0.128791
0.101120 0.100709 0.100971
0.136753 0.137752 0.137728
0.082298 0.081719 0.081845
0.158423 0.158300 0.152456
0.143239 0.144724 0.145821
0.114848 0.116041 0.118356
0.104916 0.107617 0.108085
0.154786 0.154294 0.148314
0.132422 0.132450 0.132391
0.132994 0.132620 0.131590
0.121703 0.118665 0.118272
0.136205 0.136204 0.134817
0.123350 0.118673 0.118294
0.136153 0.136014 0.135751
0.097965 0.098193 0.098391
0.129211 0.127076 0.125081
0.159849 0.157721 0.159084
0.142514 0.142304 0.141594
0.143015 0.143133 0.142193
0.100323 0.101828 0.101925
0.145011 0.145539 0.145686
0.154789 0.153523 0.152959
0.085695 0.087145 0.088830
0.114146 0.114417 0.115470
0.122583 0.123034 0.123355
0.099828 0.100172 0.100223
0.141567 0.141838 0.141784
0.125005 0.124632 0.124759
0.121200 0.122153 0.122132
0.125775 0.126796 0.127074
0.093603 0.093318 0.093429
0.157982 0.158632 0.160214
0.107357 0.107223 0.106919
0.117311 0.115511 0.114662
0.121111 0.120845 0.120417
0.127834 0.128372 0.130074
0.113300 0.112527 0.112107
0.121247 0.120130 0.120112
0.132195 0.131361 0.130677
0.163269 0.163684 0.163470
0.142702 0.144367 0.144384
0.151303 0.152415 0.151617
0.156372 0.161122 0.162353
0.152648 0.151013 0.149375
0.120370 0.120853 0.120853
0.146813 0.147176 0.147499
0.157624 0.157654 0.158511
0.128296 0.127767 0.127209
0.112003 0.112934 0.113373
0.127621 0.125981 0.124804
0.105903 0.105841 0.105913
0.099298 0.099713 0.100890
0.122920 0.121990 0.119370
0.118809 0.119934 0.128410
0.120629 0.121538 0.122270
0.151442 0.149532 0.149656
0.166245 0.165777 0.166438
0.166390 0.167758 0.168751
0.143337 0.142995 0.143343
0.139664 0.139537 0.139259
0.175167 0.175452 0.176177
0.133472 0.132601 0.131320
0.169144 0.170230 0.170085
0.142135 0.140498 0.140777
0.166123 0.166638 0.167718
0.150438 0.150367 0.148657
0.124729 0.125797 0.127308
0.130748 0.130853 0.130178
0.083247 0.082860 0.082447
0.123529 0.123578 0.124721
0.146915 0.146572 0.146538
0.129167 0.129503 0.129112
0.130746 0.130216 0.127236
0.147234 0.147040 0.147647
0.146785 0.146663 0.146468
0.166323 0.165850 0.166093
0.151326 0.150672 0.150998
0.139810 0.140647 0.143554
0.077309 0.077394 0.077235
0.121377 0.120096 0.124017
0.125436 0.123068 0.121142
0.143879 0.144217 0.146453
0.092136 0.092089 0.092371
0.125445 0.125060 0.124949
0.108928 0.108669 0.107866
0.156077 0.156098 0.156299
0.144923 0.145065 0.143158
0.140847 0.140331 0.139265
0.136777 0.136744 0.135695
0.120839 0.120307 0.120514
0.111539 0.110289 0.109894
0.137085 0.137525 0.137589
0.129649 0.129660 0.126803
0.142674 0.143118 0.147030
0.099329 0.099432 0.099329
0.139277 0.139804 0.139819
0.139922 0.139000 0.137303
0.145284 0.144224 0.144560
0.135286 0.134156 0.134458
0.144624 0.145299 0.144779
0.152540 0.151301 0.151092
