0.053651 0.053693 0.054787
0.052914 0.053062 0.052690
0.205778 0.207005 0.208173
0.220827 0.221600 0.220856
0.267705 0.269639 0.271939
0.247829 0.251072 0.250651
0.091606 0.091209 0.079586
0.156798 0.156704 0.156684
0.150385 0.150093 0.150887
0.108509 0.108766 0.111362
0.233394 0.233878 0.230011
0.129054 0.129010 0.130144
0.048566 0.048543 0.048711
0.187732 0.181521 0.179721
0.251802 0.255653 0.255170
0.168945 0.170674 0.172394
0.270917 0.270355 0.271072
0.200549 0.200678 0.202357
0.120232 0.120430 0.121036
0.219973 0.218874 0.218008
0.284089 0.283962 0.283301
0.308472 0.320527 0.324243
0.060118 0.060675 0.060859
0.163906 0.160974 0.161096
0.168584 0.170293 0.171552
0.214730 0.214932 0.212752
0.274086 0.271496 0.269092
0.137682 0.138028 0.138239
0.195755 0.195726 0.204095
0.192506 0.199960 0.204592
0.192589 0.193317 0.193446
0.165652 0.168692 0.169048
0.256037 0.253538 0.247291
0.223654 0.222681 0.224097
0.169331 0.166933 0.165961
0.246240 0.245714 0.245376
0.195062 0.195735 0.203539
0.129126 0.129091 0.127544
0.172995 0.168427 0.167870
0.306196 0.307507 0.307643
0.307692 0.319608 0.325662
0.217587 0.218765 0.221868
0.156679 0.156732 0.156453
0.256129 0.256746 0.258804
0.334770 0.335048 0.334741
0.186718 0.188237 0.187916
0.173305 0.173438 0.174946
0.320193 0.315697 0.316119
0.232571 0.232911 0.233948
0.101757 0.101610 0.102106
0.239784 0.240338 0.240196
0.210820 0.213023 0.211993
0.099295 0.101067 0.101369
0.150261 0.151490 0.151861
0.177147 0.175267 0.174656
0.220834 0.223663 0.222836
0.230426 0.230973 0.231714
0.092766 0.092648 0.091606
0.039761 0.040059 0.040448
0.151134 0.151525 0.151962
0.206597 0.204542 0.202794
0.245419 0.245234 0.244791
0.087290 0.087690 0.087714
0.212578 0.213114 0.212901
0.313576 0.325405 0.330459
0.229971 0.239361 0.239467
0.181183 0.174923 0.172293
0.117994 0.117800 0.117737
0.127988 0.127483 0.127285
0.063180 0.061322 0.060837
0.235870 0.235982 0.235748
0.216389 0.218936 0.217606
0.267776 0.263905 0.262702
0.221946 0.226036 0.230607
0.174118 0.173562 0.173477
0.256844 0.255455 0.250715
0.240499 0.240418 0.239050
0.224648 0.224141 0.224149
0.215780 0.216058 0.214704
0.263446 0.272421 0.272906
0.266522 0.268779 0.268713
0.120417 0.120604 0.121272
0.152228 0.152163 0.149532
0.048967 0.048997 0.049319
0.240458 0.237548 0.236934
0.211631 0.213475 0.213462
0.245396 0.245600 0.245698
0.240025 0.239757 0.239716
0.200185 0.200666 0.200928
0.205679 0.206370 0.207500
0.162517 0.162361 0.161577
0.169366 0.169651 0.175628
0.251692 0.233663 0.230819
0.184716 0.184766 0.185305
0.200922 0.200060 0.198452
0.128121 0.128141 0.126612
0.150562 0.150488 0.150995
0.223988 0.223403 0.226183
0.247834 0.247510 0.247477
0.197277 0.197332 0.197562
0.202728 0.201814 0.188501
0.107902 0.115329 0.115292
0.158441 0.159088 0.161011
0.308450 0.308375 0.308447
0.192644 0.192686 0.193021
0.203750 0.202499 0.201048
0.209559 0.210474 0.210162
0.251418 0.249901 0.248778
0.189150 0.188570 0.185969
0.168949 0.169040 0.169381
0.124745 0.124821 0.125351
0.188629 0.187183 0.177788
0.066322 0.065723 0.065315
0.262940 0.261976 0.252468
0.182963 0.177924 0.177041
0.200632 0.200965 0.200371
0.042519 0.042241 0.042263
0.193743 0.193755 0.193824
0.213194 0.213571 0.208287
0.158659 0.158685 0.158801
0.298733 0.302018 0.304297
0.174847 0.176101 0.176880
0.058862 0.058663 0.058646
0.269262 0.269499 0.269171
0.174511 0.174762 0.174666
0.046828 0.046886 0.046891
0.139393 0.139906 0.139287
0.143905 0.142443 0.142176
0.153947 0.153912 0.154716
0.074736 0.076874 0.076614
0.218815 0.221072 0.221371
0.224566 0.225916 0.225876
0.213821 0.212522 0.212261
0.164245 0.164273 0.164016
0.225509 0.222971 0.222798
0.231526 0.231123 0.229327
0.180617 0.186321 0.186880
0.263251 0.263245 0.273958
0.272104 0.271521 0.268779
0.273094 0.273663 0.286230
0.257700 0.258300 0.257116
0.224284 0.223059 0.223169
0.209081 0.201281 0.200177
0.077030 0.076894 0.076940
0.133718 0.136805 0.136999
0.168427 0.167870 0.168036
0.154789 0.156156 0.156679
0.126395 0.126600 0.126473
0.129019 0.140782 0.143157
0.235332 0.235675 0.237437
0.213925 0.216431 0.216720
0.160983 0.160901 0.161132
0.220719 0.220254 0.220136
0.244633 0.245481 0.243572
0.219195 0.220709 0.221506
0.323577 0.323708 0.322400
0.200742 0.201657 0.203134
0.214724 0.215085 0.215344
0.335480 0.332062 0.330714
0.274045 0.273094 0.273663
0.216324 0.214332 0.213473
0.249053 0.248853 0.250436
0.224105 0.225044 0.225257
0.276392 0.276137 0.275979
0.256649 0.256580 0.262469
0.107672 0.107460 0.096909
0.243384 0.245290 0.243502
0.214684 0.215427 0.218896
0.042588 0.042638 0.042600
0.176509 0.176035 0.173998
0.204505 0.204442 0.205250
0.322267 0.321831 0.321831
0.044620 0.044777 0.044725
0.205513 0.205678 0.204694
0.267368 0.260811 0.260427
0.049694 0.050770 0.050974
0.120302 0.120025 0.120188
0.205908 0.203016 0.202763
0.299608 0.299597 0.299182
0.237658 0.238601 0.237608
0.253767 0.253428 0.259935
0.200447 0.201562 0.201864
0.150704 0.149254 0.147688
0.156955 0.153534 0.148893
0.295116 0.295579 0.296349
0.138960 0.136932 0.136174
0.278608 0.279304 0.280208
0.121314 0.121359 0.121148
0.062861 0.062808 0.062618
0.201666 0.202093 0.202143
0.121309 0.121428 0.121584
0.168898 0.168745 0.168432
0.298658 0.297883 0.297019
0.158891 0.158871 0.158126
0.235820 0.236130 0.237574
0.054385 0.054537 0.053971
0.153470 0.153245 0.153157
0.227593 0.229088 0.231980
0.274202 0.274280 0.275753
0.189331 0.190862 0.191707
0.192227 0.190929 0.188229
0.158583 0.156461 0.156402
0.166208 0.166322 0.166811
0.163690 0.164871 0.165816
0.258796 0.259480 0.258701
0.145434 0.145551 0.145671
0.194824 0.194450 0.194660
0.250254 0.249553 0.243450
0.175246 0.177484 0.178119
0.212194 0.210973 0.209958
0.076805 0.076804 0.077076
0.151799 0.151504 0.151911
0.199341 0.200554 0.214142
0.204050 0.203303 0.202888
0.057958 0.058461 0.058180
0.241262 0.241307 0.241192
0.176255 0.176020 0.174170
0.201419 0.201561 0.203247
0.255074 0.256660 0.255606
0.138580 0.138885 0.138977
0.294363 0.295123 0.293254
0.200463 0.200182 0.199888
0.103585 0.103709 0.103958
0.104582 0.104820 0.106607
0.207955 0.207918 0.208495
0.332462 0.328192 0.327671
0.242601 0.242674 0.242760
0.206024 0.207836 0.210235
0.206708 0.206168 0.206109
0.130286 0.130133 0.130353
0.277028 0.276365 0.276462
0.164706 0.165179 0.165277
0.163203 0.163459 0.163396
0.236275 0.235198 0.235698
0.232660 0.231711 0.229691
0.102597 0.102513 0.102331
0.149267 0.149249 0.147508
0.077866 0.083617 0.087632
0.203997 0.204123 0.203621
0.157871 0.158057 0.158144
0.177335 0.174042 0.185590
0.187888 0.189676 0.203210
0.153450 0.152871 0.153022
0.259191 0.256633 0.254988
0.175838 0.175880 0.171102
0.266630 0.263717 0.262684
0.312093 0.311105 0.312204
0.227111 0.227993 0.227998
0.259202 0.263517 0.263734
0.234772 0.235677 0.235541
0.209232 0.205495 0.204681
0.316980 0.316979 0.317783
0.140344 0.140348 0.140170
0.180761 0.186713 0.186945
0.077949 0.085785 0.087686
0.218187 0.220008 0.221325
0.262442 0.262108 0.262193
0.097624 0.098969 0.098817
0.259127 0.258530 0.261570
0.168462 0.164077 0.163867
0.233220 0.231411 0.232245
0.243632 0.244571 0.244228
0.282063 0.281370 0.280063
0.148118 0.147740 0.142907
0.217584 0.216684 0.217143
0.245656 0.246411 0.247833
0.097882 0.097878 0.097878
0.147685 0.144816 0.143976
0.162821 0.162682 0.162475
0.233284 0.233558 0.233324
0.158277 0.156326 0.156310
0.062582 0.062693 0.062580
0.264740 0.264691 0.265619
0.045043 0.045106 0.045003
0.096937 0.096809 0.096732
0.249947 0.250096 0.250437
0.110609 0.110844 0.111258
0.238688 0.238522 0.237787
0.164916 0.164318 0.164067
0.328641 0.330575 0.330800
0.207284 0.206037 0.206261
0.222710 0.221118 0.220246
0.221775 0.224492 0.224251
0.234593 0.240714 0.243473
0.340201 0.339559 0.338323
0.233532 0.236058 0.244222
0.163535 0.157883 0.154889
0.211526 0.211104 0.211531
0.227859 0.222581 0.221169
0.320715 0.320739 0.315900
0.096233 0.095391 0.095567
0.216866 0.218590 0.224517
0.046890 0.046834 0.046910
0.251054 0.247948 0.246323
0.197928 0.198042 0.197148
0.232302 0.232947 0.231639
0.251346 0.250589 0.249976
0.231280 0.230969 0.226936
0.083473 0.081474 0.081392
0.244682 0.249933 0.252676
0.230743 0.231509 0.232333
0.234654 0.235039 0.237244
0.065674 0.063487 0.061414
0.295156 0.294493 0.292815
0.223094 0.222818 0.223172
0.192980 0.193936 0.193427
0.177468 0.177549 0.177799
0.330643 0.331211 0.333039
0.221958 0.222187 0.222205
0.197807 0.197780 0.197937
0.270714 0.269450 0.268414
0.045771 0.045800 0.045372
0.101354 0.101448 0.101422
0.088767 0.085653 0.087749
0.181735 0.181176 0.180397
0.206407 0.205456 0.209615
0.256008 0.245852 0.244046
0.195063 0.196401 0.197102
0.088891 0.088849 0.089031
0.319306 0.320122 0.319918
0.245940 0.245987 0.244979
0.112967 0.112833 0.112180
0.193391 0.193415 0.195718
0.283414 0.280120 0.278125
0.271997 0.277045 0.281219
0.228123 0.227293 0.224524
0.055186 0.055003 0.055228
0.049814 0.050151 0.050214
0.268508 0.272662 0.272271
0.231524 0.232779 0.233056
0.338323 0.335513 0.336650
0.256520 0.250826 0.250445
0.159389 0.159448 0.158495
0.204368 0.204681 0.206641
0.151090 0.150358 0.150004
0.237025 0.235999 0.238367
0.221423 0.221316 0.219715
0.234645 0.234709 0.234761
0.265788 0.267603 0.268041
0.219975 0.219937 0.220202
0.224471 0.228659 0.232019
0.191881 0.192227 0.190929
0.254074 0.254416 0.254387
0.168929 0.168221 0.167469
0.236555 0.239092 0.239161
0.156993 0.155413 0.155263
0.132368 0.132711 0.132982
0.123685 0.124198 0.125525
0.195374 0.189201 0.190245
0.194908 0.195005 0.200310
0.145509 0.146937 0.146758
0.211657 0.212044 0.212685
0.208102 0.208425 0.209213
0.208349 0.210309 0.210593
0.062679 0.062284 0.061926
0.251837 0.250764 0.249430
0.163865 0.163904 0.164398
0.233658 0.232728 0.231695
0.198729 0.197324 0.196760
0.268931 0.269813 0.269763
0.148817 0.147762 0.140072
0.221552 0.220949 0.218422
0.205789 0.207362 0.207565
0.220724 0.220368 0.219936
0.101735 0.100541 0.100243
0.249758 0.256427 0.257338
0.219333 0.226976 0.226640
0.162852 0.162737 0.162540
0.179334 0.153788 0.154990
0.267644 0.273521 0.279144
0.260523 0.259560 0.259122
0.203360 0.203208 0.202897
0.081508 0.081660 0.081606
0.221098 0.221304 0.223269
0.218489 0.202508 0.198328
0.208052 0.203477 0.203269
0.162213 0.169337 0.177730
0.233285 0.233284 0.233558
0.226786 0.226784 0.228548
0.312753 0.312354 0.305626
0.050292 0.049620 0.049875
0.210311 0.210691 0.208977
0.273342 0.272780 0.272064
0.169423 0.169181 0.168632
0.215469 0.217182 0.215512
0.181648 0.181884 0.182770
0.168504 0.171370 0.171750
0.052029 0.052332 0.052357
0.211127 0.208396 0.208531
0.158329 0.158280 0.158636
0.224687 0.225660 0.226389
0.258067 0.257818 0.256704
0.152025 0.150524 0.149531
0.196240 0.200629 0.200185
0.201867 0.203302 0.206419
0.163938 0.163858 0.162867
0.131055 0.129847 0.129974
0.164908 0.164793 0.166932
0.262583 0.256277 0.255654
0.298924 0.299895 0.299584
0.239227 0.247842 0.248446
0.255949 0.256631 0.258574
0.117774 0.117810 0.117783
0.230787 0.231678 0.239704
0.155601 0.155174 0.161921
0.069059 0.069104 0.068785
0.225204 0.223128 0.223532
0.114785 0.115548 0.119894
0.223664 0.223191 0.222791
0.171966 0.171913 0.172062
0.217210 0.215430 0.214730
0.137627 0.138875 0.138789
0.274698 0.273476 0.272041
0.130274 0.130083 0.130307
0.068705 0.067858 0.067564
0.222090 0.221870 0.219503
0.229397 0.228982 0.229809
0.047701 0.047246 0.046997
0.257330 0.257490 0.260317
0.153291 0.153663 0.153814
0.039052 0.039580 0.040109
0.088822 0.088769 0.088743
0.104010 0.104173 0.104294
0.216591 0.216037 0.216603
0.174755 0.174255 0.177987
0.273685 0.273303 0.272797
0.258248 0.258274 0.259532
0.236694 0.236780 0.238211
0.197958 0.197844 0.197985
0.245290 0.243502 0.242604
0.167948 0.168268 0.168323
0.050151 0.059674 0.062613
0.304739 0.303481 0.302716
0.107757 0.108243 0.108316
0.104692 0.106738 0.106898
0.257741 0.258703 0.256387
0.270858 0.280872 0.282746
0.167718 0.167316 0.166997
0.107568 0.120557 0.123142
0.115312 0.116284 0.116983
0.203062 0.197657 0.200722
0.306514 0.305449 0.302867
0.205563 0.205603 0.204928
0.219801 0.219824 0.218392
0.095919 0.096282 0.095969
0.269893 0.269762 0.269146
0.297353 0.294524 0.295879
0.275666 0.275315 0.273374
0.265583 0.265372 0.265984
0.234172 0.236091 0.234781
0.224701 0.223787 0.225456
0.095252 0.095174 0.095249
0.107958 0.106675 0.103227
0.237196 0.237654 0.239906
0.123023 0.123270 0.112663
0.226045 0.233259 0.233553
0.291959 0.290942 0.289994
0.200597 0.199088 0.198565
0.302456 0.302317 0.304493
0.041728 0.041814 0.041856
0.127549 0.127520 0.128090
0.223910 0.225267 0.225770
0.265482 0.264894 0.263924
0.293999 0.295428 0.296121
0.242622 0.241263 0.231288
0.173743 0.173270 0.172935
0.235022 0.233811 0.233036
0.099784 0.096747 0.099581
0.155399 0.155735 0.155744
0.141906 0.141586 0.141603
0.100909 0.100980 0.101058
0.270878 0.270299 0.263904
0.198349 0.198838 0.198874
0.133964 0.133728 0.133665
0.249773 0.250474 0.248366
0.167925 0.167925 0.168288
0.240540 0.244622 0.245476
0.203168 0.208677 0.208960
0.260911 0.260445 0.258592
0.097928 0.098864 0.104060
0.301424 0.302545 0.301453
0.222587 0.225736 0.239984
0.172781 0.172294 0.171769
0.270165 0.270530 0.272050
0.237228 0.235965 0.236264
0.222110 0.222321 0.222202
0.188180 0.185349 0.190701
0.193148 0.197828 0.200816
0.122178 0.121313 0.121334
0.117272 0.119165 0.112793
0.255869 0.254825 0.254005
0.125836 0.125718 0.122998
0.313263 0.313748 0.315641
0.215971 0.220234 0.221514
0.234805 0.234794 0.241065
0.249180 0.248679 0.248319
0.202578 0.202761 0.202606
0.188422 0.189258 0.193182
0.254628 0.252117 0.253195
0.163200 0.163626 0.163816
0.205685 0.210919 0.212371
0.194795 0.190667 0.189842
0.241776 0.242375 0.242602
0.267336 0.263663 0.264197
0.183188 0.175347 0.175138
0.184848 0.187650 0.191517
0.156593 0.155404 0.155376
0.270556 0.270047 0.269128
0.262945 0.272494 0.274167
0.062797 0.062745 0.062561
0.317288 0.315821 0.314478
0.203134 0.208352 0.209618
0.203966 0.203010 0.202939
0.275502 0.274946 0.273228
0.147162 0.148248 0.147146
0.207623 0.207120 0.206097
0.160611 0.159971 0.160529
0.308116 0.306234 0.306167
0.204927 0.202682 0.194688
0.145358 0.142527 0.141905
0.097204 0.097126 0.097144
0.171328 0.171871 0.171780
0.230908 0.231083 0.231722
0.253986 0.253380 0.251220
0.052339 0.052373 0.052810
0.254241 0.256167 0.257717
0.155778 0.155603 0.163498
0.235872 0.236984 0.244215
0.227310 0.228536 0.215104
0.056976 0.057162 0.057189
0.126980 0.131215 0.132118
0.173801 0.173192 0.172843
0.220117 0.225218 0.225065
0.146699 0.144542 0.143507
0.156741 0.158055 0.159419
0.260344 0.260185 0.260282
0.164298 0.168173 0.169368
0.234804 0.239058 0.237360
0.262830 0.263025 0.263184
0.200413 0.200162 0.199877
0.049156 0.048692 0.048920
0.136223 0.136249 0.136266
0.250141 0.254524 0.259541
0.218998 0.218676 0.218596
0.179051 0.183116 0.183382
0.198081 0.202547 0.204431
0.138137 0.137979 0.138125
0.297786 0.297913 0.298671
0.046864 0.046919 0.047069
0.216694 0.215995 0.213248
0.280596 0.279468 0.278821
0.202346 0.203213 0.206113
0.235672 0.233608 0.234708
0.093684 0.092691 0.092635
0.192270 0.194030 0.192148
0.135330 0.135176 0.138423
0.221790 0.227315 0.227126
0.235852 0.237250 0.238901
0.276129 0.275810 0.276308
0.285674 0.286966 0.287681
0.253981 0.255160 0.256265
0.290850 0.295497 0.295706
0.231275 0.228890 0.227871
0.161895 0.161454 0.161283
0.195994 0.196194 0.194795
0.141245 0.141431 0.140375
0.047734 0.047701 0.047246
0.214476 0.215419 0.214502
0.205837 0.205451 0.205508
0.238131 0.237742 0.234669
0.173192 0.172843 0.172467
0.103234 0.103415 0.103679
0.245456 0.245482 0.245457
0.245555 0.245233 0.248457
0.213508 0.221586 0.222691
0.042268 0.042310 0.042349
0.087774 0.088685 0.095865
0.205822 0.206416 0.207727
0.237792 0.237725 0.237437
0.229561 0.229734 0.233957
0.230700 0.229822 0.229458
0.268751 0.267615 0.263114
0.062700 0.062767 0.061770
0.254576 0.252869 0.253052
0.061421 0.060454 0.051436
0.268587 0.266064 0.266195
0.203393 0.203574 0.203755
0.202591 0.202915 0.202811
0.263307 0.262430 0.261274
0.105119 0.105104 0.104962
0.151492 0.152079 0.153023
0.235784 0.236588 0.234845
0.222172 0.222057 0.218675
0.165004 0.163410 0.171215
0.176759 0.177724 0.177456
0.247604 0.247874 0.254562
0.260712 0.261059 0.260426
0.160588 0.153045 0.152025
0.086810 0.086978 0.087982
0.285880 0.287592 0.293190
0.296129 0.295863 0.292645
0.249329 0.248563 0.249757
0.168315 0.168310 0.168022
0.303985 0.303704 0.301614
0.057246 0.058499 0.058872
0.270058 0.271331 0.272375
0.283904 0.282018 0.280980
0.212677 0.213097 0.216836
0.147270 0.146880 0.147066
0.223663 0.222836 0.223002
0.271620 0.271513 0.271895
0.121976 0.123104 0.132715
0.144961 0.150539 0.151964
0.181710 0.189679 0.189621
0.218597 0.216573 0.216963
0.252924 0.252546 0.250449
0.251537 0.248053 0.246677
0.166869 0.164329 0.164225
0.196980 0.196690 0.195713
0.298001 0.298760 0.293729
0.262097 0.262595 0.262684
0.233219 0.232798 0.231669
0.276981 0.278623 0.277879
0.297093 0.297901 0.297864
0.047139 0.046892 0.046833
0.221967 0.222237 0.223335
0.263472 0.264359 0.265056
0.158937 0.158518 0.158711
0.111859 0.111817 0.113165
0.238263 0.239048 0.239702
0.202703 0.206122 0.206641
0.210195 0.205837 0.205451
0.201427 0.199190 0.196771
0.209389 0.208954 0.207168
0.239483 0.239725 0.238512
0.255915 0.254421 0.254058
0.174855 0.173496 0.173888
0.279579 0.276967 0.275473
0.208325 0.206980 0.206097
0.047500 0.047338 0.047249
0.194276 0.189694 0.189083
0.265001 0.267334 0.265688
0.272738 0.268786 0.271152
0.224634 0.228668 0.232040
0.208476 0.208662 0.208899
0.219115 0.218947 0.218389
0.181385 0.181556 0.178914
0.103254 0.104121 0.104089
0.214344 0.215052 0.216628
0.135235 0.138467 0.138389
0.161021 0.161521 0.162570
0.123281 0.115717 0.112126
0.191634 0.192425 0.188898
0.244420 0.244674 0.242852
0.204083 0.206041 0.211998
0.104293 0.103978 0.103824
0.164778 0.164797 0.164951
0.129630 0.127864 0.127523
0.212763 0.210266 0.208301
0.254017 0.253895 0.254313
0.135024 0.134204 0.133953
0.116121 0.116217 0.116526
0.275425 0.272715 0.272846
0.181601 0.183163 0.183390
0.281824 0.282493 0.281302
0.269236 0.270857 0.278188
0.143640 0.143355 0.143382
0.130949 0.131163 0.132394
0.266027 0.265957 0.265583
0.133970 0.134048 0.135751
0.217660 0.217951 0.213582
0.223090 0.225946 0.227138
0.088743 0.088382 0.088336
0.271225 0.269142 0.272572
0.188536 0.189197 0.188127
0.156312 0.158699 0.159983
0.250459 0.250860 0.250979
0.133951 0.134007 0.135796
0.226035 0.228023 0.228274
0.206724 0.206609 0.211900
0.167257 0.167180 0.167847
0.180870 0.179316 0.155002
0.058781 0.059045 0.059123
0.219264 0.222762 0.222809
0.248913 0.249280 0.249324
0.138082 0.138925 0.142346
0.280293 0.278846 0.278618
0.238457 0.237938 0.238803
0.271792 0.274735 0.276940
0.104085 0.103891 0.103649
0.229821 0.229597 0.226710
0.174200 0.170102 0.168956
0.185320 0.191538 0.191585
0.146966 0.145787 0.134466
0.197697 0.193771 0.193791
0.128440 0.128363 0.128246
0.200664 0.200977 0.201395
0.320321 0.315645 0.314798
0.258600 0.260681 0.260026
0.262590 0.262645 0.262614
0.174585 0.169589 0.169434
0.148876 0.141586 0.139759
0.302902 0.303278 0.303752
0.212393 0.211374 0.205576
0.104925 0.105396 0.109482
0.160600 0.158158 0.157202
0.177931 0.177063 0.172596
0.281911 0.278339 0.272914
0.056759 0.056260 0.056297
0.256815 0.257329 0.253812
0.186358 0.186424 0.188269
0.254512 0.256688 0.258509
0.166810 0.167081 0.166806
0.237584 0.239244 0.239494
0.204602 0.198795 0.193771
0.048069 0.047677 0.047761
0.249093 0.249822 0.246035
0.128267 0.127317 0.127137
0.178797 0.177996 0.177741
0.271649 0.271581 0.271802
0.179737 0.179597 0.180033
0.199491 0.199739 0.200002
0.176817 0.177870 0.178017
0.215445 0.214065 0.214245
0.306482 0.312735 0.324717
0.208446 0.208287 0.208726
0.252222 0.246175 0.245919
0.193041 0.191959 0.192348
0.056133 0.055661 0.057871
0.225516 0.222939 0.222804
0.171362 0.172261 0.172821
0.182553 0.183330 0.183812
0.277378 0.273629 0.273732
0.277733 0.277146 0.276344
0.269858 0.268783 0.267024
0.302536 0.304900 0.308721
0.206469 0.208355 0.214090
0.242662 0.242675 0.243597
0.285568 0.293432 0.294202
0.271803 0.276565 0.276533
0.151242 0.151483 0.151863
0.171484 0.170378 0.168123
0.242669 0.242570 0.240930
0.214603 0.214536 0.215774
0.241065 0.241407 0.243479
0.192135 0.195128 0.196788
0.153761 0.151588 0.150080
0.220827 0.219703 0.220271
0.271697 0.273730 0.276314
0.052345 0.052827 0.052830
0.157748 0.158052 0.158239
0.095379 0.095453 0.095412
0.234870 0.268232 0.274208
0.262657 0.259704 0.259876
0.259719 0.259376 0.258248
0.272855 0.273153 0.272294
0.239400 0.237248 0.236649
0.154710 0.155389 0.153872
0.175067 0.176990 0.177591
0.059232 0.059553 0.059949
0.197606 0.196289 0.193806
0.263906 0.261368 0.260231
0.221908 0.221493 0.220678
0.174562 0.172269 0.171061
0.303003 0.303954 0.304731
0.129049 0.128779 0.127295
0.298768 0.292596 0.291115
0.218853 0.219074 0.219286
0.249245 0.248451 0.248950
0.057346 0.057415 0.057541
0.275657 0.274223 0.270658
0.200889 0.201056 0.201544
0.154558 0.154205 0.148817
0.190671 0.189090 0.188743
0.238563 0.237288 0.233709
0.089249 0.089363 0.089235
0.100312 0.101283 0.101354
0.189678 0.189555 0.192688
0.073827 0.073543 0.073417
0.282799 0.280825 0.280387
0.255621 0.255415 0.254974
0.195015 0.194522 0.194900
0.167320 0.167129 0.166893
0.260846 0.264089 0.264957
0.043361 0.043124 0.043063
0.065280 0.065267 0.064806
0.101209 0.101368 0.101249
0.323526 0.322600 0.327335
0.144032 0.143463 0.143691
0.250356 0.250312 0.246385
0.258913 0.260070 0.260580
0.080864 0.080905 0.080898
0.080817 0.080984 0.080852
0.045775 0.045415 0.045323
0.293896 0.294359 0.296335
0.136259 0.135119 0.135958
0.178209 0.175332 0.175091
0.206497 0.206185 0.206238
0.228090 0.226154 0.225946
0.253648 0.245201 0.243516
0.076969 0.076838 0.077252
0.156218 0.157532 0.158799
0.174080 0.174396 0.174255
0.185126 0.193365 0.194981
0.216772 0.215364 0.214817
0.151338 0.150619 0.149509
0.205724 0.205399 0.205630
0.250860 0.250979 0.249491
0.299667 0.299258 0.292171
0.115347 0.115169 0.115226
0.044903 0.044905 0.044570
0.218581 0.219886 0.219911
0.250559 0.248487 0.248275
0.177312 0.179449 0.177800
0.172038 0.169482 0.168414
0.152155 0.151031 0.147727
0.256181 0.257040 0.259011
0.145134 0.144580 0.144988
0.291677 0.292620 0.291604
0.200293 0.200545 0.201012
0.207349 0.208704 0.209546
0.208486 0.206948 0.208736
0.248067 0.255758 0.259253
0.218425 0.218845 0.219894
0.315811 0.310962 0.308806
0.296124 0.296138 0.295985
0.328675 0.330000 0.331165
0.154998 0.153346 0.148833
0.211310 0.205463 0.205197
0.277418 0.277820 0.279592
0.195059 0.195701 0.194892
0.264645 0.264084 0.262866
0.206376 0.205108 0.205145
0.071075 0.070858 0.071429
0.106565 0.104226 0.101345
0.183908 0.184286 0.184892
0.279771 0.279756 0.280274
0.286025 0.285270 0.282678
0.243863 0.243922 0.247077
0.318807 0.318805 0.319595
0.236852 0.237027 0.239909
0.186047 0.183215 0.182787
0.042899 0.042786 0.042745
0.277685 0.277387 0.278724
0.268414 0.268740 0.268690
0.239834 0.242771 0.243344
0.176650 0.176291 0.176795
0.139126 0.136290 0.137705
0.045830 0.045151 0.045084
0.226198 0.226787 0.229706
0.221274 0.219358 0.220345
0.145184 0.144462 0.143866
0.256590 0.258521 0.259866
0.110234 0.109359 0.107093
0.248705 0.247370 0.244905
0.250694 0.248250 0.248055
0.106289 0.107246 0.108020
0.212342 0.212849 0.207639
0.164988 0.163469 0.168954
0.093915 0.094255 0.094734
0.194159 0.190643 0.189642
0.153938 0.155415 0.155735
0.142617 0.142853 0.142855
0.224854 0.222759 0.222930
0.265773 0.265762 0.264225
0.200415 0.200192 0.199884
0.240340 0.240947 0.242366
0.040059 0.040448 0.040362
0.189162 0.192108 0.193738
0.225864 0.226788 0.233257
0.195427 0.196769 0.198485
0.188836 0.189099 0.188476
0.250165 0.249056 0.248814
0.272884 0.273549 0.274543
0.185681 0.186618 0.188610
0.266381 0.264832 0.261605
0.079890 0.081522 0.094858
0.142483 0.141553 0.141337
0.249546 0.249467 0.249352
0.242423 0.242055 0.244785
0.074362 0.074228 0.074690
0.268043 0.269317 0.269657
0.208750 0.207997 0.207834
0.192650 0.192578 0.192875
0.277265 0.277418 0.277820
0.256861 0.257145 0.257493
0.096525 0.096921 0.096983
0.286109 0.273005 0.270468
0.211481 0.211052 0.205648
0.149442 0.150046 0.150416
0.254409 0.253715 0.253329
0.226110 0.226948 0.225301
0.247922 0.253472 0.253011
0.137236 0.137593 0.137988
0.040080 0.040224 0.040162
0.146341 0.146714 0.149856
0.222334 0.223666 0.223551
0.261292 0.259307 0.256694
0.258934 0.252182 0.250345
0.102106 0.111229 0.111772
0.202988 0.200654 0.200894
0.242284 0.244041 0.242511
0.058274 0.057012 0.057471
0.181564 0.181600 0.182688
0.270400 0.271464 0.271464
0.202409 0.201249 0.200553
0.287558 0.288035 0.288042
0.216891 0.216971 0.217012
0.108279 0.108344 0.108357
0.045701 0.045953 0.046125
0.330800 0.331295 0.333039
0.102736 0.103027 0.103652
0.119019 0.118535 0.118384
0.205811 0.206612 0.209497
0.247136 0.247328 0.247387
0.157737 0.157690 0.157745
0.217590 0.218144 0.217974
0.230459 0.218562 0.215573
0.254000 0.253526 0.251281
0.230451 0.232685 0.232575
0.168293 0.168945 0.170674
0.247832 0.247351 0.249565
0.203238 0.201778 0.201798
0.258015 0.256303 0.257030
0.081370 0.081384 0.081425
0.278152 0.272477 0.270248
0.188600 0.187985 0.188590
0.254258 0.255701 0.255853
0.115762 0.115927 0.116294
0.244168 0.245052 0.243359
0.233124 0.233621 0.233300
0.192845 0.193236 0.193474
0.059742 0.059730 0.059770
0.247183 0.245410 0.242298
0.046248 0.046382 0.046685
0.154895 0.155401 0.156798
0.243610 0.241851 0.240655
0.270465 0.271139 0.271225
0.146414 0.146484 0.147022
0.255258 0.255259 0.254328
0.129879 0.129423 0.129049
0.174476 0.173629 0.173309
0.243375 0.244889 0.245059
0.153613 0.153395 0.153227
0.317577 0.317788 0.319621
0.041568 0.041384 0.041447
0.112895 0.112814 0.112666
0.233559 0.233615 0.233961
0.240955 0.243818 0.248913
0.212892 0.213250 0.214661
0.152208 0.151249 0.149407
0.225365 0.226163 0.227073
0.048960 0.048654 0.048784
0.170704 0.170702 0.169849
0.148464 0.160751 0.160249
0.119244 0.119656 0.119930
0.054140 0.053763 0.053851
0.215596 0.218572 0.218716
0.244335 0.243461 0.243329
0.217714 0.223316 0.221351
0.153054 0.152890 0.152676
0.260481 0.260306 0.260182
0.181803 0.180997 0.181139
0.116942 0.117003 0.117957
0.134870 0.134538 0.134770
0.244686 0.242917 0.249186
0.262597 0.262720 0.267790
0.253481 0.252222 0.246175
0.138164 0.136323 0.137994
0.255373 0.255469 0.255983
0.221493 0.221513 0.221351
0.229192 0.229147 0.229360
0.161944 0.162274 0.167174
0.165057 0.165093 0.166048
0.161897 0.161633 0.158617
0.188176 0.187386 0.188117
0.186736 0.187724 0.188338
0.296272 0.297420 0.298094
0.275820 0.270540 0.268828
0.139911 0.139264 0.138481
0.135901 0.135879 0.135826
0.200884 0.201299 0.200523
0.317502 0.312671 0.312753
0.226737 0.232040 0.232764
0.097260 0.097279 0.097667
0.128598 0.134308 0.135618
0.112832 0.113504 0.114049
0.150383 0.150139 0.149797
0.145037 0.144908 0.145589
0.246060 0.241626 0.238734
0.246769 0.248754 0.248772
0.265881 0.266146 0.266859
0.168571 0.168040 0.167808
0.209939 0.211381 0.211455
0.245608 0.244169 0.245486
0.114110 0.117835 0.118080
0.219178 0.214717 0.214012
0.138483 0.138387 0.137895
0.175163 0.176872 0.177332
0.048948 0.049792 0.059658
