0.108751 0.108845 0.109915
0.558226 0.552866 0.539510
0.133231 0.132833 0.132195
0.427816 0.393008 0.390479
0.114943 0.113830 0.113870
0.164541 0.164518 0.164729
0.071816 0.071821 0.071802
0.139534 0.138638 0.137929
0.165852 0.165064 0.164517
0.197329 0.197367 0.195355
0.072183 0.072123 0.072434
0.120860 0.119056 0.120142
0.165915 0.166449 0.167240
0.124679 0.124424 0.124499
0.122203 0.123013 0.123192
0.126038 0.126368 0.126527
0.246468 0.246642 0.246632
0.695250 0.695403 0.695526
0.282864 0.282917 0.283417
0.101142 0.101783 0.101875
0.077809 0.077987 0.078083
0.187912 0.190660 0.191157
0.111983 0.112191 0.112827
0.190644 0.192696 0.192567
0.115859 0.114056 0.114622
0.178589 0.178049 0.176813
0.120186 0.120161 0.120109
0.090952 0.089721 0.090696
0.150659 0.150126 0.149833
0.121078 0.121303 0.122748
0.138742 0.142185 0.141708
0.164936 0.164636 0.167382
0.139338 0.136152 0.137681
0.810145 0.811002 0.812042
0.207244 0.208853 0.208862
0.206852 0.208417 0.208410
0.201079 0.201503 0.204814
0.118104 0.119140 0.120099
0.177595 0.177442 0.175104
0.137734 0.136264 0.134356
0.138124 0.138942 0.139373
0.122920 0.123932 0.127207
0.121462 0.121709 0.122021
0.205429 0.204175 0.204185
0.136589 0.136654 0.136667
0.119360 0.120905 0.122185
0.178885 0.179424 0.179819
0.132535 0.132539 0.132532
0.100940 0.100592 0.099535
0.157304 0.157263 0.157548
0.140506 0.141147 0.140461
0.126652 0.126696 0.125784
0.100443 0.100543 0.099613
0.104917 0.104269 0.103869
0.153630 0.151902 0.151766
0.411063 0.417101 0.417299
0.169643 0.166455 0.162878
0.138722 0.137831 0.137913
0.191843 0.187254 0.205418
0.190169 0.194135 0.194927
0.217087 0.216357 0.215962
0.202289 0.193801 0.190446
0.100971 0.103176 0.103683
0.116435 0.117453 0.116572
0.089006 0.089403 0.089478
0.145815 0.147759 0.147500
0.186033 0.182872 0.179132
0.158298 0.156971 0.154161
0.115576 0.115456 0.115655
0.163628 0.160603 0.159369
0.125348 0.125813 0.125592
0.120700 0.121398 0.120984
0.158230 0.158039 0.157477
0.244697 0.242199 0.236219
0.163572 0.163736 0.164390
0.108971 0.108762 0.109818
0.074783 0.073631 0.072472
0.167138 0.167537 0.168294
0.127769 0.126528 0.128589
0.115258 0.114980 0.116712
0.133971 0.131768 0.130662
0.162686 0.164235 0.165160
0.176955 0.176025 0.175872
0.166622 0.165781 0.164743
0.128756 0.128995 0.129880
0.690395 0.690483 0.690556
0.183658 0.184408 0.183880
0.185733 0.185799 0.183508
0.191141 0.192649 0.191629
0.181378 0.181508 0.181137
0.167576 0.168418 0.171005
0.172763 0.172842 0.172861
0.130601 0.130335 0.130372
0.195403 0.194085 0.192663
0.168275 0.168254 0.166244
0.173545 0.172144 0.171618
0.064276 0.064560 0.064676
0.168710 0.168523 0.168845
0.075596 0.075047 0.075176
0.191588 0.189406 0.187584
0.177917 0.179866 0.179731
0.152506 0.153537 0.155337
0.160132 0.159583 0.158850
0.171874 0.170627 0.170461
0.117015 0.115262 0.115450
0.071051 0.071361 0.071290
0.163223 0.162270 0.164526
0.162728 0.163000 0.162901
0.154778 0.154261 0.153943
0.074655 0.070403 0.069593
0.181033 0.183820 0.185710
0.139261 0.139575 0.140196
0.196697 0.197331 0.199836
0.209265 0.213777 0.214437
0.070732 0.070774 0.070757
0.116126 0.116287 0.116095
0.131775 0.130392 0.133208
0.163172 0.162809 0.161357
0.122020 0.124708 0.124884
0.093494 0.093611 0.092754
0.164637 0.165216 0.165049
0.093794 0.093837 0.093494
0.155876 0.156370 0.156314
0.997257 0.997321 0.997798
0.123550 0.122978 0.121942
0.142499 0.142320 0.147843
0.187298 0.188912 0.198882
0.185067 0.185818 0.187969
0.192444 0.192949 0.192869
0.135044 0.134569 0.134127
0.178864 0.178837 0.182502
0.107309 0.105347 0.104989
0.115477 0.116044 0.117168
0.136975 0.137085 0.137329
0.171711 0.172094 0.173564
0.162905 0.162892 0.161805
0.134619 0.134766 0.135351
0.127899 0.124882 0.124414
0.157864 0.158221 0.158082
0.150582 0.151382 0.150917
0.105435 0.105025 0.104703
0.158955 0.159577 0.159155
0.115849 0.118262 0.112162
0.125594 0.127005 0.128580
0.150329 0.151335 0.151371
0.168898 0.169697 0.163440
0.224194 0.226430 0.227749
0.199060 0.201061 0.201166
0.156331 0.155649 0.154933
0.191548 0.188339 0.188580
0.104849 0.108984 0.109209
0.143421 0.143681 0.143665
0.786585 0.762968 0.760428
0.205318 0.204189 0.204741
0.198562 0.198809 0.198333
0.211690 0.212641 0.211274
0.162476 0.164906 0.166648
0.118375 0.118204 0.111505
0.203496 0.203120 0.202024
0.110698 0.111087 0.111716
0.171302 0.171923 0.171625
0.179559 0.179359 0.179804
0.177111 0.176764 0.176655
0.070626 0.071532 0.071812
0.121174 0.123265 0.123917
0.183111 0.182056 0.182261
0.104684 0.105529 0.105711
0.191189 0.189313 0.194619
0.161742 0.161350 0.160511
0.124892 0.124280 0.123937
0.209867 0.209522 0.209330
0.117190 0.116699 0.117060
0.204665 0.204926 0.204479
0.071957 0.072021 0.072378
0.136361 0.131520 0.133943
0.134385 0.135768 0.135454
0.878035 0.878864 0.879553
0.101718 0.102033 0.102081
0.096103 0.095799 0.094803
0.211220 0.211564 0.212070
0.165803 0.165762 0.164009
0.149451 0.149090 0.150680
0.178969 0.177735 0.176588
0.129427 0.129531 0.129487
0.102377 0.103542 0.103933
0.070159 0.070566 0.070537
0.270478 0.270412 0.270379
0.088663 0.088738 0.089024
0.148435 0.148329 0.147639
0.073641 0.072541 0.071086
0.196088 0.191777 0.190652
0.112376 0.115238 0.115278
0.123161 0.123181 0.122751
0.184070 0.180872 0.181769
0.126421 0.127187 0.129438
0.203411 0.203449 0.202117
0.881417 0.881624 0.880305
0.159672 0.164463 0.166264
0.124244 0.124526 0.126731
0.205398 0.204150 0.204587
0.617923 0.618144 0.618067
0.158569 0.159128 0.159412
0.175496 0.174974 0.174178
0.127747 0.127713 0.128039
0.695600 0.696303 0.696608
0.115646 0.114865 0.114673
0.137560 0.137660 0.136967
0.190410 0.193052 0.193890
0.173913 0.174121 0.174024
0.163249 0.161932 0.160659
0.199666 0.201177 0.201628
0.129564 0.129541 0.129606
0.189390 0.187155 0.199228
0.201002 0.201019 0.201940
0.129449 0.126277 0.127886
0.172381 0.170542 0.170649
0.212316 0.215588 0.217644
0.190368 0.190256 0.192159
0.218945 0.236011 0.244504
0.177914 0.178316 0.180571
0.200115 0.200009 0.199718
0.181386 0.181749 0.181239
0.088324 0.088187 0.088105
0.180074 0.180697 0.181523
0.164414 0.162726 0.161878
0.069686 0.069351 0.069846
0.796742 0.799631 0.801030
0.151340 0.150641 0.150629
0.177853 0.183279 0.174701
0.135796 0.136521 0.136663
0.135261 0.136236 0.136467
0.123013 0.123192 0.121906
0.160546 0.167583 0.167784
0.115537 0.118276 0.118419
0.119472 0.116424 0.114979
0.219688 0.219228 0.219491
0.418510 0.419066 0.419067
0.181266 0.182143 0.181354
0.120478 0.120877 0.121154
0.201672 0.202224 0.203367
0.180729 0.181267 0.182503
0.130823 0.132799 0.137724
0.131693 0.131867 0.132039
0.122178 0.124692 0.124857
0.147059 0.147165 0.147290
0.218592 0.219446 0.217923
0.157399 0.158102 0.158473
0.124010 0.124300 0.123551
0.170159 0.169608 0.166239
0.099836 0.101550 0.102205
0.152303 0.152510 0.152781
0.172591 0.172224 0.175371
0.159772 0.160929 0.161176
0.125708 0.125809 0.125716
0.698556 0.699049 0.700397
0.075898 0.109524 0.112200
0.864079 0.871545 0.873804
0.119415 0.119625 0.119753
0.205969 0.205260 0.205411
0.106559 0.106014 0.106206
0.138506 0.138901 0.139262
0.198809 0.198333 0.189639
0.081086 0.081059 0.080822
0.121624 0.121358 0.121298
0.698392 0.680275 0.665331
0.154726 0.155500 0.155751
0.332055 0.211716 0.199663
0.161168 0.161193 0.160775
0.112346 0.112187 0.112084
0.103502 0.108115 0.101374
0.170694 0.176137 0.178074
0.097027 0.097149 0.097327
0.141280 0.143837 0.154494
0.165368 0.165737 0.166063
0.163155 0.162593 0.163699
0.159724 0.156771 0.157200
0.192003 0.191864 0.199300
0.207097 0.207475 0.208232
0.170463 0.169750 0.163196
0.163446 0.163214 0.163201
0.204207 0.203645 0.203326
0.123569 0.123539 0.123114
0.156221 0.156174 0.155474
0.167042 0.166085 0.165123
0.184238 0.177608 0.177165
0.119836 0.119269 0.118172
0.066085 0.066841 0.067760
0.100203 0.099836 0.101550
0.174063 0.175309 0.176239
0.109437 0.108928 0.106641
0.170237 0.163723 0.164675
0.413142 0.413998 0.414545
0.113151 0.114414 0.115010
0.207942 0.208979 0.209642
0.074235 0.073483 0.073028
0.125052 0.125168 0.127425
0.089443 0.089290 0.089088
0.192965 0.195541 0.197339
0.143204 0.142013 0.141438
0.174590 0.175410 0.174369
0.125095 0.122553 0.121391
0.139397 0.140448 0.140571
0.116319 0.117663 0.118203
0.104297 0.104679 0.104968
0.138764 0.138640 0.138521
0.100171 0.099709 0.099512
0.114997 0.114870 0.113838
0.128961 0.128739 0.128036
0.129589 0.131506 0.133470
0.117548 0.117301 0.117496
0.159404 0.159329 0.163958
0.162290 0.161469 0.159216
0.130881 0.129634 0.129053
0.110772 0.110974 0.110255
0.208260 0.219088 0.217048
0.117152 0.117120 0.117073
0.131548 0.131451 0.131722
0.178550 0.183903 0.183108
0.117943 0.117942 0.117313
0.147118 0.146946 0.141198
0.181568 0.177969 0.175760
0.187801 0.187476 0.187699
0.130427 0.133107 0.133111
0.158742 0.158667 0.158539
0.154353 0.153755 0.152423
0.141671 0.142056 0.144045
0.200249 0.198217 0.198291
0.121946 0.122928 0.123756
0.418290 0.418263 0.418358
0.192500 0.192353 0.192291
0.123328 0.122745 0.123533
0.120948 0.121362 0.121357
0.226041 0.221493 0.221376
0.145277 0.144593 0.143504
0.106309 0.106576 0.106871
0.073336 0.073972 0.074767
0.143063 0.142688 0.143534
0.148590 0.148771 0.149039
0.122759 0.122409 0.121130
0.183678 0.183478 0.183046
0.128314 0.128195 0.128870
0.528214 0.551279 0.552334
0.197254 0.197657 0.200174
0.145223 0.145794 0.145335
0.123449 0.123440 0.122984
0.191934 0.195432 0.196513
0.123553 0.123706 0.123418
0.070742 0.071422 0.072062
0.181349 0.181487 0.180861
0.177385 0.180237 0.181905
0.125420 0.124618 0.125506
0.186501 0.185546 0.186169
0.189331 0.189167 0.187764
0.164551 0.164501 0.164193
0.112827 0.112979 0.115195
0.792249 0.794642 0.796462
0.254062 0.255006 0.254648
0.172203 0.170914 0.168309
0.160142 0.160390 0.159519
0.166338 0.165659 0.164419
0.137660 0.140506 0.141147
0.623761 0.623594 0.623226
0.118111 0.118412 0.120227
0.140648 0.140365 0.142487
0.172939 0.171313 0.161086
0.105312 0.105413 0.105639
0.119527 0.119875 0.120128
0.100405 0.100465 0.100853
0.624293 0.691916 0.703338
0.192895 0.192319 0.191453
0.067389 0.067377 0.066583
0.172726 0.172857 0.172729
0.164175 0.163606 0.166129
0.114747 0.114825 0.115272
0.125611 0.126665 0.125545
0.113321 0.112238 0.112772
0.186588 0.187586 0.187952
0.183536 0.182992 0.182750
0.116972 0.117355 0.117782
0.187212 0.187176 0.187281
0.097984 0.098142 0.098116
0.311234 0.311189 0.310565
0.108289 0.108265 0.104552
0.116135 0.116091 0.119733
0.204449 0.201271 0.205437
0.193136 0.192976 0.193218
0.167551 0.167593 0.167895
0.167187 0.168591 0.171467
0.168478 0.169719 0.170654
0.121904 0.120920 0.120716
0.115846 0.117724 0.118798
0.106527 0.106450 0.106360
0.127866 0.128480 0.126724
0.125094 0.125612 0.125547
0.164970 0.168614 0.169268
0.185421 0.189898 0.193210
0.162829 0.162989 0.164653
0.753826 0.793991 0.796060
0.196782 0.196809 0.197844
0.200453 0.201223 0.205513
0.147851 0.151028 0.150761
0.165000 0.164262 0.164736
0.119296 0.115987 0.114726
0.155000 0.154492 0.153551
0.131863 0.130348 0.133293
0.199176 0.200041 0.199921
0.102904 0.102264 0.102045
0.109014 0.109061 0.109158
0.108961 0.108580 0.109175
0.179431 0.179443 0.180526
0.071447 0.071543 0.071658
0.104905 0.108720 0.108579
0.169855 0.169902 0.169745
0.135036 0.135165 0.135166
0.217360 0.217144 0.216315
0.118679 0.118470 0.118056
0.192661 0.191598 0.189917
0.072953 0.072868 0.073076
0.126044 0.125911 0.125901
0.140364 0.141671 0.142969
0.187695 0.187759 0.187411
0.198025 0.196835 0.198657
0.156423 0.160255 0.160472
0.166315 0.167202 0.168320
0.125201 0.125981 0.126029
0.155857 0.156754 0.164941
0.175465 0.175170 0.175363
0.104557 0.104576 0.106573
0.108928 0.109869 0.110419
0.103890 0.103796 0.103667
0.105467 0.105606 0.105450
0.115793 0.115279 0.114436
0.114425 0.114607 0.114999
0.174812 0.168623 0.168043
0.109480 0.109564 0.109559
0.171617 0.172209 0.171932
0.173515 0.173808 0.174236
0.128853 0.126334 0.126037
0.153921 0.153582 0.152981
0.155004 0.155738 0.157800
0.123792 0.123341 0.123370
0.073547 0.073552 0.073632
0.100355 0.100752 0.100821
0.142587 0.142484 0.142821
0.147603 0.148777 0.150810
0.176246 0.177132 0.182623
0.103319 0.103684 0.103558
0.126804 0.129731 0.129725
0.227014 0.226840 0.226248
0.179264 0.178981 0.178781
0.164665 0.164465 0.163757
0.100865 0.101336 0.101594
0.119945 0.123645 0.124524
0.166339 0.166292 0.167901
0.104484 0.106015 0.106999
0.123045 0.122419 0.122355
0.841173 0.793570 0.791055
0.107856 0.106559 0.106014
0.148132 0.148209 0.148245
0.881561 0.881782 0.881417
0.874546 0.874648 0.874872
0.101552 0.102849 0.102712
0.131727 0.132615 0.130192
0.121438 0.119887 0.119756
0.127951 0.127740 0.127248
0.156486 0.156451 0.155899
0.283008 0.283180 0.282994
0.152752 0.153412 0.153848
0.157234 0.157429 0.156994
0.199984 0.197324 0.196751
0.600701 0.609689 0.612029
0.179680 0.178207 0.178188
0.209333 0.209395 0.209391
0.118988 0.119432 0.121923
0.069821 0.070297 0.070076
0.099388 0.098982 0.099116
0.098773 0.099706 0.099612
0.152865 0.152327 0.152979
0.159060 0.159264 0.164134
0.189423 0.187219 0.187050
0.113167 0.114551 0.115430
0.107077 0.107426 0.107895
0.153069 0.153439 0.152250
0.187641 0.192841 0.199522
0.100503 0.100689 0.100986
0.105717 0.106568 0.106455
0.167853 0.155245 0.153926
0.181072 0.183422 0.184361
0.197996 0.210882 0.244246
0.191205 0.196408 0.197863
0.165794 0.167853 0.169963
0.145752 0.145177 0.145657
0.101048 0.100799 0.099523
0.187335 0.188386 0.190166
0.172125 0.171036 0.169609
0.177510 0.177357 0.176522
0.137168 0.138214 0.138190
0.117313 0.117549 0.119936
0.174690 0.176226 0.177959
0.183433 0.183133 0.182387
0.282082 0.273738 0.271569
0.141569 0.141417 0.141270
0.112784 0.112619 0.112444
0.115010 0.115870 0.116864
0.142560 0.142625 0.142992
0.125244 0.127225 0.127979
0.279174 0.280170 0.280858
0.166876 0.166552 0.163821
0.178727 0.179402 0.179745
0.106882 0.107699 0.107754
0.128601 0.128834 0.128229
0.163727 0.158524 0.159248
0.808802 0.809334 0.810052
0.215408 0.215476 0.216431
0.165440 0.165728 0.165888
0.136591 0.136575 0.137023
0.106460 0.106982 0.107375
0.183300 0.183583 0.183086
0.169714 0.169612 0.169914
0.141398 0.141125 0.140850
0.150513 0.147771 0.147005
0.179046 0.177641 0.175495
0.168616 0.168387 0.171563
0.145569 0.146114 0.147615
0.199135 0.197950 0.197311
0.159228 0.159988 0.158565
0.146258 0.145128 0.144743
0.135381 0.152035 0.152467
0.116356 0.117122 0.118721
0.416582 0.416585 0.416281
0.155914 0.156010 0.157203
0.155153 0.153263 0.151659
0.189541 0.189511 0.189767
0.153797 0.152579 0.151892
0.070399 0.070285 0.070667
0.165679 0.163428 0.165468
0.164761 0.164572 0.166369
0.178306 0.179303 0.179159
0.123700 0.123679 0.123819
0.174683 0.169979 0.170689
0.165649 0.166373 0.166076
0.125709 0.122865 0.121037
0.071575 0.073787 0.073711
0.206141 0.205575 0.206777
0.165085 0.164761 0.164572
0.121202 0.120246 0.119452
0.168268 0.168309 0.168307
0.174763 0.164389 0.164727
0.158579 0.163415 0.165292
0.127804 0.127704 0.127478
0.199211 0.198622 0.197708
0.199240 0.197882 0.200102
0.200690 0.201712 0.202185
0.164897 0.164201 0.163722
0.188357 0.189596 0.190535
0.130899 0.130593 0.129212
0.166204 0.167907 0.167773
0.288198 0.287432 0.287914
0.183178 0.183465 0.186677
0.133536 0.133638 0.133525
0.215342 0.215431 0.214854
0.188359 0.188772 0.189984
0.139647 0.140153 0.141936
0.848714 0.847774 0.842740
0.104357 0.104445 0.105044
0.168671 0.168874 0.168800
0.175142 0.175843 0.175578
0.098801 0.099157 0.099404
0.193440 0.193872 0.193543
0.146535 0.153834 0.159324
0.106907 0.106428 0.106640
0.198570 0.198544 0.199639
0.121579 0.121989 0.121159
0.160725 0.159017 0.159079
0.874641 0.874722 0.875019
0.206107 0.206957 0.207183
0.187496 0.183853 0.180934
0.150504 0.150526 0.149939
0.189890 0.190069 0.190383
0.166420 0.166633 0.166868
0.179364 0.179671 0.172546
0.802342 0.802441 0.802801
0.157699 0.155724 0.157799
0.207750 0.208238 0.210941
0.177029 0.172345 0.170972
0.133802 0.133704 0.134540
0.159396 0.159575 0.159664
0.119645 0.119639 0.119720
0.098462 0.098490 0.097864
0.137929 0.138202 0.138746
0.267154 0.280768 0.286199
0.125202 0.125257 0.125295
0.123503 0.123294 0.123620
0.117038 0.117211 0.117413
0.806419 0.807273 0.808539
0.206713 0.203034 0.200236
0.117399 0.117579 0.120313
0.149847 0.149743 0.149339
0.155984 0.156268 0.157854
0.172525 0.172339 0.174854
0.070718 0.071027 0.070867
0.141444 0.142128 0.144658
0.182119 0.182440 0.182996
0.157353 0.158363 0.159844
0.072485 0.073153 0.073222
0.163783 0.165218 0.165123
0.154839 0.155203 0.155826
0.115296 0.116392 0.116340
0.150935 0.152871 0.156420
0.145494 0.145467 0.145353
0.115838 0.115545 0.109824
0.155092 0.154661 0.155035
0.193979 0.194099 0.194166
0.128824 0.125678 0.123634
0.171841 0.174824 0.177188
0.202920 0.204128 0.205229
0.160513 0.161312 0.161683
0.177516 0.178517 0.181847
0.098733 0.099142 0.098406
0.125943 0.125794 0.126080
0.117621 0.119628 0.119645
0.159571 0.159407 0.159494
0.616696 0.615850 0.616192
0.169183 0.169464 0.170024
0.214221 0.213720 0.215397
0.180065 0.180466 0.181491
0.141780 0.142137 0.142756
0.116011 0.116172 0.115683
0.156504 0.155504 0.155910
0.178220 0.178617 0.178936
0.170998 0.171033 0.171449
0.157986 0.158118 0.157371
0.177536 0.176322 0.170612
0.189398 0.187981 0.188140
0.261580 0.265972 0.267221
0.160184 0.159691 0.158967
0.149884 0.153302 0.153649
0.075093 0.075511 0.075671
0.160824 0.163307 0.163909
0.190576 0.190383 0.190789
0.183318 0.183320 0.183487
0.171148 0.170718 0.171222
0.124116 0.123537 0.123127
0.097757 0.099010 0.102476
0.155401 0.154924 0.156503
0.089434 0.089426 0.089200
0.156138 0.156288 0.156798
0.208233 0.208155 0.208075
0.158742 0.160054 0.159109
0.190840 0.195744 0.197685
0.103739 0.103349 0.102628
0.176403 0.175419 0.175023
0.204250 0.205384 0.205765
0.286694 0.284303 0.283567
0.174219 0.175824 0.176242
0.194022 0.193754 0.193825
0.191667 0.192576 0.195261
0.138818 0.140379 0.141278
0.147769 0.147925 0.148924
0.176237 0.177149 0.176999
0.163002 0.165282 0.163387
0.072611 0.073322 0.073035
0.166464 0.166379 0.167806
0.999881 0.999900 0.999711
0.199756 0.198536 0.192701
0.186629 0.187645 0.188141
0.072105 0.072342 0.072410
0.141708 0.141817 0.145011
0.201094 0.201553 0.200317
0.130901 0.131540 0.132351
0.130973 0.130743 0.130779
0.287051 0.286563 0.284918
0.186730 0.187166 0.187414
0.124864 0.127335 0.127679
0.167615 0.165751 0.165869
0.408844 0.408828 0.408584
0.171250 0.171797 0.172230
0.145653 0.144951 0.145015
0.183183 0.182963 0.183995
0.177064 0.176820 0.176674
0.211521 0.211416 0.209948
0.109495 0.107453 0.107061
0.197957 0.197474 0.195339
0.155589 0.157167 0.157970
0.187589 0.187260 0.188027
0.151313 0.153075 0.153969
0.071955 0.072443 0.072355
0.119614 0.118411 0.119633
0.155130 0.157787 0.159858
0.178580 0.180524 0.181044
0.140019 0.137079 0.136289
0.124088 0.123903 0.123809
0.109104 0.109696 0.109698
0.315862 0.255587 0.203153
0.131756 0.131380 0.131270
0.179739 0.179299 0.179048
0.160837 0.160103 0.159803
0.099558 0.099086 0.098904
0.157701 0.155995 0.165399
0.155458 0.156621 0.159032
0.197587 0.197135 0.198979
0.190478 0.190288 0.191230
0.070897 0.071205 0.071711
0.202420 0.201685 0.201718
0.168623 0.168043 0.168233
0.075766 0.076056 0.076368
0.067374 0.066920 0.066526
0.181272 0.181307 0.180073
0.106417 0.105197 0.104239
0.160530 0.160906 0.160741
0.170147 0.170080 0.169304
0.118221 0.118131 0.118107
0.121320 0.120032 0.118088
0.202408 0.202481 0.200806
0.088187 0.088105 0.088498
0.172112 0.171698 0.171788
0.100965 0.100975 0.100941
0.088666 0.088428 0.088196
0.189320 0.189816 0.194634
0.202709 0.203105 0.201273
0.164893 0.164596 0.164740
0.197865 0.199463 0.200670
0.200041 0.199921 0.199705
0.124122 0.123417 0.122861
0.071613 0.071452 0.070924
0.100605 0.100850 0.101750
0.127928 0.131142 0.137211
0.106029 0.105961 0.105867
0.128609 0.128129 0.128073
0.172401 0.173882 0.175399
0.173792 0.173132 0.171839
0.123181 0.122751 0.120997
0.878422 0.878466 0.878540
0.108855 0.108985 0.108881
0.168044 0.167967 0.168079
0.141448 0.140220 0.139331
0.123526 0.123533 0.122991
0.122136 0.121509 0.119651
0.126353 0.126249 0.125854
0.070720 0.070689 0.071388
0.266399 0.265432 0.265256
0.110844 0.110923 0.110901
0.166781 0.164571 0.164393
0.195509 0.192339 0.193424
0.176682 0.176050 0.176188
0.222328 0.225919 0.228141
0.159651 0.159562 0.159791
0.188219 0.190178 0.190437
0.181918 0.179733 0.179494
0.213209 0.214350 0.216653
0.212147 0.211343 0.208858
0.178308 0.178424 0.176662
0.182933 0.183773 0.184608
0.116425 0.117295 0.117190
0.157314 0.159982 0.160991
0.212787 0.209835 0.209904
0.103533 0.106984 0.107220
0.877805 0.877780 0.877711
0.164464 0.163186 0.166590
0.105618 0.105375 0.105007
0.140149 0.145791 0.147962
0.166008 0.164522 0.163188
0.997297 0.997691 0.998149
0.194174 0.193717 0.193101
0.166698 0.167683 0.167490
0.129667 0.127955 0.121659
0.158035 0.158161 0.158298
0.187230 0.195636 0.195276
0.176636 0.177576 0.178154
0.181477 0.180572 0.178233
0.881624 0.880305 0.879760
0.179495 0.180224 0.180998
0.192531 0.195129 0.196972
0.994193 0.997170 0.997297
0.067973 0.068133 0.068072
0.183458 0.184110 0.181843
0.182665 0.181335 0.180406
0.100146 0.099457 0.098890
0.160437 0.161274 0.161461
0.174131 0.174029 0.174172
0.124289 0.124339 0.124369
0.191226 0.191490 0.191180
0.121991 0.122370 0.122491
0.110012 0.110128 0.110244
0.193378 0.192302 0.191573
0.121227 0.121449 0.121740
0.133183 0.133131 0.132798
0.148454 0.148730 0.148946
0.159481 0.158961 0.159362
0.128094 0.127619 0.126015
0.217536 0.218679 0.218898
0.119149 0.118281 0.118087
0.117652 0.118724 0.118261
0.142656 0.143573 0.144091
0.078119 0.077772 0.077986
0.066631 0.067004 0.066891
0.182306 0.181325 0.174949
0.158767 0.160553 0.162226
0.123843 0.123915 0.123097
0.160710 0.160715 0.160863
0.149289 0.149756 0.150956
0.156994 0.157116 0.156848
0.141054 0.140811 0.143432
0.078781 0.079164 0.079290
0.160792 0.160425 0.165143
0.107021 0.106531 0.106056
0.206935 0.207373 0.204901
0.122527 0.120735 0.120578
0.122272 0.122016 0.121592
0.197283 0.198005 0.199385
0.100748 0.100910 0.101475
0.274920 0.276153 0.276620
0.075282 0.075220 0.075350
0.160678 0.161144 0.164662
0.106744 0.106859 0.106768
0.186952 0.186298 0.188669
0.205725 0.205844 0.207073
0.114693 0.115855 0.116934
0.130120 0.128542 0.126724
0.117664 0.114677 0.114016
0.118951 0.119115 0.119267
0.194907 0.198365 0.198523
0.104866 0.102779 0.100942
0.162778 0.163236 0.162728
0.151102 0.153743 0.154441
0.136225 0.136208 0.136395
0.133558 0.132149 0.131775
0.091338 0.091240 0.091025
0.164413 0.164645 0.163751
0.181840 0.181481 0.178346
0.165287 0.166832 0.168225
0.125046 0.126020 0.125643
0.332192 0.327777 0.207882
0.190041 0.189825 0.190423
0.165676 0.167159 0.168945
0.154230 0.154369 0.154615
0.118517 0.118294 0.118045
0.156799 0.156479 0.154595
0.121869 0.144144 0.213970
0.164948 0.167291 0.169170
0.120864 0.119836 0.119269
0.174101 0.174279 0.174866
0.067300 0.067415 0.067849
0.107424 0.107400 0.107404
0.130289 0.129947 0.129291
0.113144 0.113101 0.114365
0.099361 0.098775 0.099068
0.173212 0.173174 0.173159
0.179577 0.177446 0.174624
0.127164 0.126414 0.126046
0.209727 0.210974 0.211008
0.183647 0.183742 0.181924
0.073102 0.073159 0.072967
0.123012 0.124529 0.124939
0.149096 0.150424 0.150011
0.106725 0.106526 0.107028
0.090704 0.090634 0.090463
0.162718 0.167246 0.165930
0.105615 0.104916 0.107523
0.112998 0.113506 0.113320
0.178994 0.179470 0.180581
0.112284 0.112284 0.106935
0.209179 0.209332 0.209583
0.722849 0.735385 0.739512
0.202162 0.201628 0.201554
0.129723 0.131515 0.136904
0.101812 0.101766 0.101817
0.141787 0.141524 0.140619
0.184286 0.183776 0.180763
0.200310 0.201715 0.202358
0.198035 0.198014 0.197526
0.153181 0.153139 0.155006
0.207184 0.206482 0.205592
0.140301 0.137462 0.134895
0.162372 0.162706 0.163407
0.200377 0.206978 0.207293
0.168359 0.167472 0.166183
0.185801 0.185644 0.183553
0.123816 0.123681 0.123495
0.168663 0.169695 0.173592
0.272574 0.272066 0.272121
0.172158 0.174105 0.169985
0.120208 0.119994 0.119112
0.203154 0.202627 0.194071
0.162439 0.162837 0.162835
0.164476 0.163144 0.166396
0.110162 0.109898 0.109414
0.114679 0.115756 0.116170
0.148924 0.148101 0.148072
0.180704 0.179870 0.179407
0.099169 0.098996 0.106449
0.153647 0.152721 0.153996
0.073076 0.073330 0.073405
0.144392 0.142205 0.142719
0.217967 0.218818 0.219626
0.135359 0.135767 0.135606
0.189846 0.190259 0.193035
0.176323 0.177903 0.176472
0.099741 0.099808 0.099762
0.157471 0.157729 0.157495
0.112102 0.112304 0.112355
0.124776 0.124718 0.124926
0.177148 0.178920 0.179150
0.172258 0.158500 0.155883
0.880141 0.879804 0.878853
0.163673 0.163707 0.163357
0.164800 0.164599 0.164772
0.114745 0.114865 0.115168
0.206180 0.207077 0.206638
0.137393 0.136154 0.134901
0.118905 0.119017 0.118681
0.273494 0.272403 0.272044
0.167701 0.166584 0.166690
0.163979 0.160703 0.159596
0.110124 0.110272 0.109942
0.106332 0.106223 0.106454
0.195010 0.195677 0.195137
0.413479 0.414536 0.414660
0.180971 0.179770 0.180601
0.164697 0.165451 0.157857
0.119364 0.116660 0.113808
0.123587 0.123396 0.123251
0.071727 0.071953 0.072041
0.164851 0.164750 0.164541
0.077097 0.077063 0.076679
0.121035 0.119296 0.118920
0.151980 0.153749 0.152539
0.136965 0.137103 0.137333
0.188428 0.188219 0.190178
0.141402 0.141164 0.141177
0.195895 0.202441 0.202290
0.161130 0.161224 0.160803
0.147134 0.146185 0.145915
0.150912 0.152762 0.151154
0.171828 0.171516 0.172006
0.206608 0.206341 0.206205
0.197324 0.196751 0.197451
0.160626 0.158730 0.157964
0.121958 0.121854 0.122032
0.205351 0.204714 0.205085
0.305854 0.307771 0.309731
0.283072 0.282816 0.282752
0.160954 0.161532 0.161315
0.070428 0.070323 0.070519
0.115661 0.110034 0.108069
0.159955 0.160940 0.161496
0.215297 0.215112 0.212978
0.159585 0.160513 0.161312
0.998503 0.998555 0.998753
0.111378 0.111192 0.114623
0.189746 0.188245 0.186968
0.120422 0.120112 0.119014
0.066828 0.066560 0.066533
0.114480 0.113329 0.112673
0.208067 0.207632 0.207530
0.148076 0.151452 0.152910
0.223385 0.223974 0.226566
0.201601 0.201315 0.200080
0.189199 0.187632 0.187624
0.176793 0.175553 0.174133
0.164746 0.164849 0.164845
0.141844 0.143197 0.143405
0.166688 0.165106 0.165077
0.108246 0.107652 0.106569
0.163753 0.164820 0.165219
0.089433 0.089240 0.088943
0.075838 0.080558 0.082929
0.071530 0.070948 0.070205
0.205606 0.205552 0.205984
0.659687 0.659216 0.656168
0.088175 0.088636 0.088216
0.195639 0.201727 0.198812
0.140577 0.140422 0.139971
0.102033 0.102253 0.102969
0.122724 0.122972 0.122722
0.112961 0.112715 0.113286
0.101346 0.101517 0.102051
0.118139 0.118750 0.119150
0.190677 0.190001 0.189673
0.402945 0.402484 0.401489
0.197708 0.198888 0.198524
0.130843 0.131262 0.131815
0.166680 0.167007 0.156512
0.147921 0.147666 0.144838
0.188436 0.188687 0.188348
0.107674 0.107641 0.107441
0.164103 0.163627 0.163092
0.159405 0.160072 0.160608
0.132293 0.132923 0.133536
0.192390 0.191842 0.194398
0.160789 0.161427 0.161923
0.203561 0.203353 0.203207
0.185681 0.185924 0.186430
0.173734 0.174219 0.175824
0.163529 0.163642 0.163812
0.145145 0.145025 0.145133
0.180865 0.180316 0.180165
0.201380 0.202074 0.202807
0.124242 0.124087 0.123829
0.071088 0.071414 0.070182
