0.060534 0.060558 0.060476
0.141503 0.141531 0.141300
0.052115 0.052222 0.051996
0.055995 0.056021 0.056258
0.056620 0.056835 0.055650
0.110872 0.110569 0.110611
0.123218 0.125830 0.126110
0.053703 0.053764 0.053761
0.056008 0.056312 0.057084
0.118431 0.118465 0.118458
0.111235 0.110068 0.108891
0.046143 0.046681 0.046832
0.129949 0.130624 0.130732
0.102441 0.101429 0.101552
0.062019 0.061958 0.062050
0.044991 0.044890 0.044909
0.048930 0.048758 0.051258
0.045073 0.045042 0.044852
0.055590 0.055108 0.055767
0.056847 0.056772 0.056644
0.113824 0.113959 0.113959
0.044920 0.045043 0.045037
0.046638 0.046551 0.046650
0.086917 0.085824 0.085880
0.113426 0.113437 0.113399
0.046169 0.046205 0.045966
0.125763 0.127613 0.127681
0.112291 0.111041 0.111085
0.116340 0.116233 0.116208
0.120986 0.121009 0.121040
0.044091 0.044443 0.044501
0.061105 0.060827 0.060383
0.060660 0.060792 0.059970
0.112603 0.112090 0.112109
0.102627 0.102840 0.103058
0.082345 0.083377 0.083445
0.048504 0.048532 0.048375
0.111606 0.107870 0.110074
0.049472 0.049622 0.049220
0.122322 0.123162 0.123199
0.068926 0.068863 0.068986
0.044087 0.044532 0.044442
0.179728 0.180641 0.180747
0.128446 0.127424 0.119009
0.043661 0.044059 0.044119
0.054329 0.054217 0.054206
0.051773 0.052023 0.051788
0.046906 0.046705 0.048060
0.148784 0.148812 0.148380
0.076714 0.075498 0.075272
0.044417 0.044543 0.044237
0.048590 0.048474 0.048420
0.056769 0.056932 0.056590
0.100028 0.100036 0.099873
0.125225 0.125375 0.125394
0.121887 0.122786 0.123112
0.046606 0.046279 0.046489
0.133079 0.132426 0.132143
0.115475 0.117803 0.116999
0.118314 0.117765 0.117787
0.100446 0.100497 0.100443
0.093045 0.092959 0.092575
0.052704 0.052632 0.052993
0.075355 0.076390 0.076276
0.146904 0.146972 0.147067
0.119187 0.119066 0.118719
0.054497 0.054469 0.054845
0.103813 0.101223 0.100571
0.042435 0.041985 0.042269
0.068764 0.070964 0.072197
0.139055 0.140368 0.141199
0.114290 0.108274 0.107434
0.101056 0.100299 0.097413
0.137893 0.139182 0.138854
0.056900 0.055937 0.056085
0.114713 0.107719 0.106655
0.115788 0.115394 0.115481
0.113727 0.113184 0.113739
0.094392 0.094469 0.094402
0.048121 0.047724 0.048138
0.119407 0.119445 0.120411
0.151841 0.129209 0.123175
0.114241 0.118669 0.119237
0.066475 0.066920 0.066854
0.046511 0.046340 0.046666
0.134556 0.135236 0.137165
0.074525 0.074706 0.074571
0.127838 0.127878 0.127624
0.110744 0.111754 0.111828
0.137553 0.137758 0.137926
0.052994 0.053125 0.053121
0.053184 0.054819 0.058583
0.129252 0.128782 0.128950
0.125342 0.129681 0.132880
0.117389 0.118096 0.124308
0.062257 0.062171 0.061964
0.096578 0.096093 0.095723
0.112114 0.110442 0.109877
0.048857 0.048877 0.048880
0.096394 0.097473 0.097433
0.052095 0.051723 0.052020
0.055497 0.055442 0.055874
0.047598 0.047490 0.047426
0.051306 0.051302 0.051080
0.063922 0.064684 0.064842
0.060167 0.060408 0.060820
0.145984 0.141654 0.141447
0.108470 0.108338 0.109087
0.088461 0.087227 0.084985
0.075255 0.075234 0.074813
0.140290 0.140298 0.140219
0.117263 0.113691 0.109369
0.098780 0.095672 0.095283
0.111492 0.111207 0.110872
0.088985 0.089115 0.090769
0.050295 0.049510 0.049353
0.061918 0.061745 0.061851
0.132853 0.132789 0.137352
0.060263 0.060123 0.060113
0.050344 0.051273 0.051241
0.054668 0.054561 0.053819
0.053501 0.053775 0.054158
0.060333 0.060406 0.060701
0.062747 0.062942 0.062885
0.047669 0.047712 0.047692
0.103144 0.103292 0.103414
0.046904 0.046870 0.046442
0.074771 0.074337 0.074276
0.046315 0.046238 0.045968
0.127081 0.127022 0.127074
0.059408 0.059981 0.059648
0.128799 0.128379 0.120625
0.059802 0.059416 0.059168
0.048611 0.048481 0.048477
0.089738 0.089710 0.090755
0.136451 0.136417 0.135952
0.056028 0.055797 0.055465
0.046259 0.046327 0.046161
0.130721 0.130218 0.130278
0.055526 0.055159 0.055208
0.118611 0.120787 0.125260
0.048341 0.048346 0.048472
0.129986 0.131653 0.131914
0.073722 0.074362 0.074939
0.080366 0.079141 0.078859
0.144996 0.145073 0.145077
0.046263 0.046429 0.046319
0.102134 0.101937 0.101845
0.068834 0.070140 0.070263
0.056194 0.056372 0.055059
0.047849 0.048000 0.047912
0.096276 0.097877 0.097762
0.055582 0.055637 0.055428
0.043776 0.043589 0.043456
0.055294 0.054784 0.054536
0.047666 0.047428 0.047470
0.120534 0.118587 0.117573
0.100983 0.100872 0.101388
0.053008 0.052556 0.052399
0.056303 0.056123 0.056054
0.050000 0.050000 0.049785
0.083950 0.083769 0.083569
0.046184 0.046428 0.048053
0.065515 0.065947 0.065354
0.053695 0.053679 0.053509
0.113811 0.112764 0.112011
0.106044 0.106339 0.106405
0.053840 0.053777 0.053916
0.086298 0.085942 0.085124
0.052444 0.052326 0.052495
0.081580 0.081616 0.082767
0.056919 0.057648 0.058091
0.128326 0.128276 0.128270
0.097172 0.096991 0.096854
0.045117 0.044958 0.044881
0.113156 0.113233 0.113240
0.073947 0.074014 0.073796
0.107994 0.108163 0.111960
0.049123 0.048927 0.048966
0.048160 0.047940 0.048156
0.052045 0.052729 0.052585
0.044832 0.044202 0.044358
0.136632 0.128192 0.126545
0.055179 0.055174 0.055036
0.048542 0.048515 0.048261
0.118602 0.126744 0.128480
0.182438 0.182286 0.182198
0.144935 0.140205 0.140703
0.051038 0.051663 0.051623
0.055336 0.055535 0.055790
0.182343 0.182316 0.182336
0.123577 0.122458 0.121327
0.100093 0.100054 0.099995
0.121331 0.121392 0.121292
0.102416 0.102226 0.101966
0.048950 0.048363 0.048334
0.058201 0.058824 0.058918
0.052750 0.052706 0.052512
0.077908 0.077684 0.077263
0.088426 0.088717 0.088586
0.184582 0.184607 0.184717
0.048297 0.048174 0.048111
0.123667 0.119912 0.119509
0.132494 0.132926 0.133352
0.101412 0.101100 0.100956
0.047274 0.046661 0.046481
0.142981 0.141579 0.141249
0.075751 0.075957 0.076154
0.055341 0.055574 0.055398
0.047759 0.047889 0.047829
0.046956 0.047080 0.047156
0.148744 0.147909 0.147652
0.115297 0.114291 0.114108
0.132104 0.131974 0.131637
0.049927 0.049964 0.050005
0.102278 0.105818 0.105304
0.051286 0.051297 0.050676
0.045024 0.045837 0.045988
0.068661 0.068690 0.068786
0.076027 0.076134 0.076413
0.112503 0.112489 0.112163
0.126797 0.126581 0.126275
0.054622 0.054764 0.054554
0.047700 0.047878 0.048005
0.122301 0.122274 0.122328
0.051106 0.051256 0.051026
0.088571 0.087185 0.086581
0.111798 0.112112 0.114048
0.065501 0.065860 0.066244
0.188026 0.187673 0.187783
0.132511 0.132948 0.133027
0.123465 0.122987 0.122985
0.061083 0.060996 0.060723
0.131454 0.131716 0.132966
0.050870 0.050753 0.050760
0.044215 0.044580 0.044645
0.131842 0.132065 0.132002
0.055866 0.055604 0.055902
0.143340 0.140574 0.128900
0.060110 0.059811 0.059892
0.054902 0.054736 0.054708
0.051974 0.052030 0.051654
0.056817 0.056930 0.056969
0.072811 0.072910 0.073557
0.045973 0.045612 0.045402
0.100192 0.100497 0.100409
0.048559 0.048696 0.048387
0.112690 0.112269 0.111056
0.142569 0.141752 0.141835
0.107167 0.107204 0.106718
0.057154 0.057354 0.057287
0.082020 0.082095 0.082306
0.110576 0.110683 0.110873
0.049525 0.049347 0.048955
0.141017 0.140356 0.140270
0.113355 0.113409 0.114137
0.081135 0.081037 0.080845
0.045796 0.046339 0.046578
0.111951 0.110389 0.109917
0.077365 0.077670 0.076941
0.090950 0.090785 0.090630
0.120563 0.119726 0.117469
0.044921 0.044537 0.044481
0.138897 0.139403 0.139860
0.047537 0.047467 0.047560
0.046349 0.046362 0.046226
0.103924 0.103904 0.102459
0.117436 0.117723 0.118658
0.053705 0.053795 0.053607
0.046229 0.046050 0.045680
0.083217 0.082513 0.082156
0.151223 0.151155 0.151080
0.048522 0.048980 0.049456
0.053319 0.053370 0.053347
0.049218 0.049700 0.049813
0.042204 0.042222 0.042101
0.049821 0.049712 0.049811
0.141986 0.141846 0.141866
0.054929 0.054606 0.054307
0.123068 0.124868 0.126100
0.046684 0.046603 0.046657
0.120996 0.120819 0.121448
0.049262 0.049758 0.049947
0.057965 0.057514 0.057728
0.049054 0.049971 0.051535
0.066680 0.070718 0.080200
0.130463 0.129830 0.130476
0.112922 0.112793 0.112737
0.078915 0.078700 0.078642
0.103713 0.105265 0.104705
0.045661 0.045709 0.045666
0.045770 0.045704 0.045422
0.094752 0.094758 0.094777
0.096436 0.096755 0.099400
0.140233 0.137483 0.137456
0.084805 0.088447 0.088887
0.088745 0.089268 0.089397
0.085900 0.085912 0.085792
0.094289 0.094507 0.094453
0.056248 0.056012 0.056124
0.132156 0.132452 0.133174
0.083455 0.083561 0.084339
0.050384 0.050344 0.050428
0.054438 0.055010 0.054745
0.126067 0.124508 0.125029
0.045556 0.045588 0.045714
0.048720 0.048510 0.048349
0.138071 0.137387 0.136855
0.062159 0.062408 0.062430
0.134720 0.133263 0.132576
0.052678 0.052949 0.052898
0.130262 0.130441 0.130621
0.048522 0.048421 0.047949
0.046388 0.046546 0.046498
0.131343 0.131493 0.131217
0.047860 0.047372 0.047075
0.141006 0.140998 0.141205
0.047429 0.047595 0.047666
0.112415 0.112276 0.112212
0.103078 0.103044 0.102988
0.052916 0.052897 0.053363
0.112467 0.109361 0.108658
0.062623 0.062257 0.062171
0.050130 0.049768 0.049468
0.045790 0.045569 0.045500
0.043765 0.043850 0.043808
0.047896 0.047208 0.046659
0.041661 0.041509 0.040989
0.133176 0.134415 0.134339
0.103847 0.107367 0.107561
0.063609 0.063791 0.064693
0.099789 0.100273 0.101183
0.058513 0.058635 0.058837
0.119702 0.119625 0.120299
0.047492 0.047435 0.047323
0.055237 0.055173 0.055001
0.120741 0.121274 0.120624
0.109063 0.108960 0.108980
0.047938 0.048539 0.048933
0.131763 0.131521 0.131790
0.052405 0.052532 0.052335
0.048850 0.049132 0.049362
0.050344 0.050428 0.050339
0.046028 0.045968 0.046031
0.048596 0.048909 0.048827
0.115600 0.115593 0.115020
0.058855 0.059175 0.059416
0.054235 0.054363 0.054274
0.145955 0.146687 0.152507
0.136261 0.134737 0.134695
0.056484 0.055934 0.056021
0.114275 0.114040 0.113231
0.105635 0.103576 0.103356
0.137986 0.134037 0.133912
0.149055 0.149238 0.149137
0.047641 0.047518 0.047120
0.082312 0.082120 0.082034
0.116262 0.116087 0.116446
0.054919 0.054371 0.054297
0.053457 0.053568 0.053466
0.053963 0.053826 0.053864
0.051111 0.050849 0.050481
0.121563 0.122039 0.119795
0.114241 0.114155 0.114142
0.046985 0.047565 0.047623
0.049451 0.049408 0.048296
0.094042 0.094220 0.093853
0.084791 0.084514 0.084350
0.133870 0.134247 0.134623
0.107985 0.108252 0.108368
0.064045 0.064379 0.064347
0.134832 0.133507 0.131964
0.048358 0.048538 0.048715
0.062799 0.062756 0.061827
0.051771 0.051957 0.052310
0.061083 0.059144 0.059038
0.070093 0.069416 0.069422
0.048481 0.048477 0.048552
0.047056 0.047320 0.047255
0.090626 0.090870 0.090620
0.057767 0.057648 0.057730
0.058094 0.058895 0.059137
0.110843 0.111088 0.111812
0.127671 0.128050 0.127667
0.094407 0.094289 0.093694
0.046428 0.048053 0.048504
0.117293 0.117495 0.117425
0.074764 0.074114 0.073642
0.108818 0.109268 0.114523
0.107561 0.112296 0.112959
0.109390 0.110971 0.114345
0.119563 0.118619 0.118835
0.048108 0.048381 0.048433
0.128767 0.128918 0.127536
0.056614 0.056995 0.056941
0.151034 0.151283 0.152260
0.050769 0.050585 0.050582
0.048845 0.049254 0.048771
0.046600 0.046342 0.046349
0.112323 0.111795 0.112193
0.045984 0.046341 0.046545
0.049566 0.048889 0.048507
0.088470 0.088375 0.088633
0.143694 0.144136 0.146770
0.117234 0.117425 0.117694
0.123142 0.121372 0.114473
0.045644 0.045339 0.045321
0.106638 0.106773 0.107945
0.086358 0.092973 0.092915
0.048016 0.048013 0.047974
0.045502 0.045683 0.045287
0.060328 0.060683 0.061519
0.057916 0.058261 0.058909
0.046347 0.046303 0.046425
0.048877 0.048880 0.048825
0.049483 0.049474 0.050831
0.044894 0.044259 0.044237
0.141047 0.141770 0.141771
0.048692 0.048712 0.048258
0.051978 0.051655 0.052272
0.044134 0.044269 0.044482
0.136794 0.134622 0.133490
0.076857 0.077754 0.077625
0.051594 0.051792 0.051732
0.130023 0.130858 0.131121
0.111732 0.107294 0.106665
0.090809 0.090869 0.089134
0.054326 0.054332 0.054433
0.048967 0.048601 0.048508
0.051515 0.051440 0.051337
0.143005 0.142797 0.140178
0.054948 0.055069 0.055107
0.058811 0.059573 0.059620
0.094121 0.094426 0.094755
0.141117 0.134298 0.137929
0.112300 0.112042 0.111926
0.110937 0.108920 0.108524
0.130267 0.135197 0.137158
0.055044 0.054767 0.054337
0.106748 0.106678 0.105639
0.082645 0.086064 0.086387
0.133302 0.132435 0.133015
0.122409 0.122614 0.129380
0.050898 0.050686 0.050977
0.092624 0.092519 0.092533
0.067295 0.067601 0.068099
0.057017 0.057506 0.057272
0.133521 0.133527 0.133327
0.059638 0.060699 0.060838
0.047741 0.047725 0.048345
0.054309 0.054361 0.055113
0.045542 0.045692 0.045176
0.115065 0.115018 0.114744
0.125101 0.125217 0.125284
0.134057 0.134362 0.135106
0.132929 0.133295 0.133758
0.055842 0.056108 0.056185
0.115100 0.114727 0.113998
0.077983 0.078124 0.077457
0.092200 0.092422 0.092638
0.110798 0.111565 0.112039
0.182305 0.182378 0.182444
0.106713 0.107333 0.105669
0.102171 0.102530 0.102559
0.141205 0.141134 0.141671
0.139939 0.140137 0.140093
0.046063 0.046043 0.045905
0.046649 0.046700 0.046336
0.080318 0.080278 0.080207
0.117468 0.117372 0.117537
0.048741 0.048502 0.048703
0.092642 0.092589 0.092565
0.055607 0.054781 0.054661
0.109290 0.109172 0.109140
0.045588 0.045457 0.045728
0.119795 0.119894 0.120007
0.049672 0.049498 0.049599
0.060480 0.060241 0.062371
0.135579 0.137620 0.141349
0.053005 0.052913 0.052615
0.055716 0.055834 0.054727
0.137480 0.136650 0.135310
0.044795 0.044738 0.043871
0.048573 0.048542 0.048648
0.051455 0.051505 0.051914
0.056296 0.056826 0.056883
0.110759 0.110109 0.109791
0.050565 0.050537 0.050907
0.111167 0.113795 0.113727
0.082760 0.082509 0.082542
0.065484 0.063987 0.063933
0.184089 0.184047 0.183930
0.086035 0.085881 0.085720
0.126431 0.128417 0.128350
0.087967 0.089468 0.089594
0.043971 0.043258 0.043075
0.048349 0.048589 0.048621
0.049319 0.049312 0.049019
0.054848 0.054989 0.054801
0.133039 0.136752 0.136736
0.053553 0.053640 0.053356
0.092638 0.095450 0.096118
0.110880 0.111176 0.112031
0.053523 0.052697 0.052340
0.063940 0.063779 0.063429
0.053365 0.052805 0.052876
0.184749 0.184223 0.182683
0.048362 0.048216 0.048283
0.115721 0.114270 0.114485
0.106297 0.107067 0.108049
0.047670 0.047754 0.047312
0.115749 0.115679 0.115423
0.094958 0.094972 0.094432
0.061538 0.061267 0.060060
0.044911 0.044368 0.044016
0.126114 0.125363 0.125682
0.062772 0.062745 0.061961
0.046099 0.046300 0.046205
0.180839 0.180825 0.180832
0.143522 0.143578 0.143757
0.137659 0.137683 0.138118
0.143984 0.143980 0.143839
0.065898 0.066084 0.065855
0.048274 0.048654 0.048722
0.068091 0.068095 0.067631
0.130288 0.130132 0.130023
0.118112 0.118716 0.119690
0.052690 0.052489 0.052163
0.053305 0.053137 0.052414
0.044544 0.044470 0.044177
0.052105 0.052141 0.051893
0.046630 0.046723 0.046491
0.103539 0.105911 0.106328
0.063454 0.064197 0.062803
0.051681 0.051564 0.051550
0.082236 0.082025 0.081713
0.047418 0.047246 0.048957
0.139203 0.139939 0.140137
0.133055 0.133322 0.133919
0.137869 0.140345 0.140567
0.119878 0.119468 0.116963
0.053013 0.053235 0.053854
0.052195 0.052178 0.051993
0.046742 0.046770 0.047648
0.119597 0.122459 0.123115
0.063964 0.064480 0.064335
0.085915 0.086201 0.086673
0.103937 0.104701 0.105194
0.058925 0.058739 0.058914
0.060785 0.060487 0.060455
0.049328 0.049620 0.051046
0.121791 0.118549 0.116299
0.056506 0.056516 0.057017
0.060994 0.061961 0.061974
0.114579 0.114465 0.114434
0.110894 0.109719 0.109583
0.122804 0.119707 0.117926
0.189251 0.181555 0.180689
0.118576 0.120823 0.120967
0.122220 0.121714 0.122285
0.060869 0.060533 0.060378
0.116976 0.117264 0.117733
0.072116 0.072089 0.071925
0.084779 0.083762 0.083952
0.061734 0.061995 0.063863
0.113813 0.114242 0.114340
0.095864 0.095301 0.094651
0.134655 0.135130 0.135271
0.049796 0.049913 0.050077
0.061679 0.061546 0.061183
0.116897 0.111186 0.109896
0.089369 0.089927 0.090146
0.048312 0.048011 0.048385
0.120179 0.119964 0.120070
0.093370 0.093517 0.093345
0.090259 0.090284 0.090443
0.058657 0.058972 0.059500
0.116526 0.117304 0.117848
0.046794 0.046811 0.046478
0.125857 0.126337 0.127466
0.050765 0.050860 0.050769
0.102249 0.102088 0.102361
0.047568 0.047596 0.047664
0.045932 0.046132 0.046588
0.084359 0.084342 0.084896
0.053324 0.053036 0.052621
0.044824 0.045241 0.045299
0.081340 0.080452 0.080228
0.107233 0.105796 0.099715
0.070782 0.065158 0.064948
0.113057 0.112597 0.112243
0.048760 0.048910 0.048777
0.128270 0.128047 0.128029
0.105824 0.105677 0.105485
0.087641 0.087899 0.087878
0.106978 0.107289 0.107237
0.054693 0.054540 0.054067
0.117226 0.116060 0.122775
0.053505 0.052909 0.053516
0.118606 0.120606 0.120925
0.182716 0.182630 0.182317
0.043942 0.043939 0.043882
0.045501 0.045434 0.045332
0.121994 0.112165 0.111123
0.124145 0.122929 0.120366
0.055245 0.055164 0.054932
0.148073 0.149898 0.161363
0.058285 0.058335 0.058232
0.115759 0.115702 0.113601
0.051157 0.051756 0.051575
0.101462 0.102736 0.102762
0.114264 0.115006 0.114779
0.086331 0.085965 0.085324
0.044942 0.044619 0.044249
0.113164 0.113074 0.113046
0.050753 0.050647 0.050799
0.058917 0.059334 0.059114
0.108362 0.107935 0.110756
0.076669 0.076039 0.076114
0.048657 0.048095 0.047483
0.046162 0.045847 0.046094
0.094530 0.094692 0.094775
0.061168 0.060852 0.061006
0.070110 0.070338 0.069805
0.062432 0.062375 0.062481
0.062072 0.061794 0.061716
0.126316 0.126212 0.126080
0.052572 0.052667 0.052653
0.130304 0.130195 0.130078
0.107687 0.108138 0.109708
0.062928 0.063165 0.063251
0.072134 0.072603 0.072915
0.042191 0.043041 0.043108
0.121526 0.121787 0.122562
0.127881 0.127627 0.127670
0.048220 0.047916 0.048141
0.071393 0.070212 0.069724
0.053040 0.053110 0.053140
0.078640 0.079325 0.079226
0.104581 0.104584 0.105169
0.092530 0.086730 0.086441
0.065515 0.064816 0.064478
0.070391 0.070743 0.071314
0.065247 0.065357 0.065225
0.142036 0.141961 0.141543
0.061697 0.061745 0.062381
0.093552 0.095133 0.097826
0.109236 0.109464 0.109604
0.047482 0.047342 0.047120
0.049461 0.049498 0.049901
0.140406 0.140728 0.142033
0.129909 0.131249 0.133038
0.084321 0.084825 0.091827
0.124659 0.124507 0.124026
0.045663 0.045689 0.045783
0.065504 0.065850 0.065827
0.117442 0.112287 0.116357
0.059735 0.059769 0.060257
0.048547 0.048527 0.048440
0.057245 0.057232 0.057254
0.047282 0.047062 0.047010
0.082655 0.088040 0.088637
0.100085 0.099864 0.098518
0.051432 0.051302 0.051489
0.045463 0.045136 0.045370
0.055703 0.054738 0.056936
0.121235 0.108577 0.105280
0.048398 0.048203 0.047684
0.061755 0.062175 0.064235
0.075398 0.075741 0.077152
0.065766 0.065753 0.067028
0.118217 0.118418 0.117604
0.138581 0.137822 0.135488
0.045316 0.045351 0.045317
0.114578 0.115154 0.116276
0.059469 0.059709 0.059685
0.046403 0.046622 0.046818
0.049796 0.049816 0.049897
0.043788 0.043511 0.043407
0.049143 0.048900 0.049222
0.064303 0.064141 0.063874
0.120364 0.120423 0.120401
0.050628 0.050275 0.049992
0.049108 0.049062 0.048950
0.137885 0.136935 0.136550
0.124279 0.124749 0.125155
0.090284 0.090443 0.090730
0.051127 0.051216 0.051017
0.092512 0.092416 0.092423
0.047807 0.048019 0.047670
0.047640 0.047611 0.047838
0.074975 0.074821 0.074282
0.094482 0.094526 0.094426
0.046578 0.046528 0.046406
0.049074 0.049003 0.048877
0.182486 0.182592 0.182531
0.124636 0.124664 0.124561
0.046402 0.046689 0.046541
0.091835 0.091620 0.091832
0.088606 0.088190 0.088037
0.068366 0.068288 0.068357
0.059209 0.059259 0.059108
0.183407 0.183463 0.183698
0.176958 0.176973 0.177023
0.047047 0.046804 0.046817
0.103862 0.104763 0.105290
0.057894 0.055430 0.055118
0.085877 0.085581 0.085253
0.117704 0.115856 0.114788
0.058979 0.057211 0.056791
0.126342 0.125017 0.124917
0.113350 0.113322 0.113878
0.045491 0.045292 0.045880
0.047080 0.047156 0.047398
0.132387 0.132123 0.132149
0.108390 0.110181 0.112224
0.184056 0.184120 0.184035
0.060165 0.060644 0.061440
0.050346 0.050418 0.050460
0.059857 0.060099 0.060012
0.105020 0.103440 0.103141
0.054511 0.054505 0.054521
0.060973 0.060653 0.059219
0.054912 0.054752 0.054778
0.056800 0.056776 0.056388
0.119025 0.119664 0.119954
0.093203 0.092775 0.092476
0.140164 0.140091 0.140187
0.055367 0.055197 0.054941
0.102016 0.102060 0.102042
0.060418 0.060421 0.060538
0.053418 0.053314 0.053379
0.121145 0.121364 0.122540
0.115601 0.115716 0.114472
0.076290 0.077413 0.078237
0.124345 0.124977 0.124805
0.173528 0.175849 0.176730
0.144796 0.143952 0.143891
0.111967 0.111327 0.111092
0.044007 0.044190 0.044713
0.096573 0.096044 0.095679
0.113720 0.113848 0.113497
0.069199 0.068879 0.068764
0.113658 0.113703 0.113702
0.094613 0.095782 0.095869
0.104333 0.107519 0.105874
0.048063 0.047767 0.047669
0.116204 0.116435 0.117259
0.120534 0.121344 0.121084
0.056933 0.056709 0.056574
0.053842 0.053712 0.053764
0.059654 0.059581 0.059529
0.103399 0.103407 0.103615
0.043696 0.043531 0.043759
0.146955 0.147622 0.149245
0.094382 0.094554 0.094876
0.045679 0.045497 0.046012
0.117571 0.114060 0.114523
0.049971 0.051535 0.052149
0.156548 0.156067 0.155099
0.047918 0.047929 0.047765
0.094518 0.094237 0.094083
0.098852 0.095498 0.095263
0.056790 0.056792 0.056717
0.146083 0.143491 0.141139
0.048872 0.049161 0.049143
0.073556 0.072612 0.072349
0.044093 0.044506 0.044481
0.105565 0.105245 0.104262
0.108536 0.108411 0.108028
0.087521 0.086726 0.085848
0.100479 0.100338 0.100472
0.114455 0.117449 0.117364
0.131909 0.131951 0.132047
0.112786 0.113281 0.113105
0.138057 0.141633 0.142290
0.177386 0.178300 0.176803
0.063290 0.063873 0.064390
0.096856 0.093702 0.093457
0.146010 0.145803 0.146013
0.130183 0.130356 0.129844
0.090433 0.090193 0.090220
0.058298 0.055598 0.055124
0.051283 0.051053 0.051108
0.117980 0.118760 0.119678
0.046133 0.046292 0.046560
0.112229 0.111645 0.114358
0.122331 0.122316 0.122299
0.053691 0.053618 0.053692
0.052438 0.052283 0.052303
0.131877 0.131294 0.130296
0.139945 0.142820 0.142018
0.044233 0.044070 0.044831
0.132114 0.132037 0.132076
0.056742 0.056280 0.056562
0.118823 0.117729 0.117440
0.048824 0.048739 0.048304
0.041664 0.041780 0.041805
0.094821 0.092416 0.092440
0.048450 0.048699 0.048798
0.119173 0.118705 0.118116
0.064645 0.065649 0.065939
0.056884 0.056902 0.057396
0.115616 0.115470 0.115805
0.047222 0.048419 0.049011
0.092205 0.091159 0.091511
0.055223 0.055871 0.055888
0.143257 0.143324 0.142829
0.140853 0.140527 0.139139
0.127505 0.127820 0.127592
0.049308 0.049252 0.049121
0.047649 0.047507 0.047373
0.097422 0.096489 0.095830
0.085957 0.086239 0.086349
0.066042 0.066154 0.065739
0.050007 0.049738 0.049030
0.045299 0.045136 0.045180
0.095418 0.093711 0.093903
0.080101 0.080041 0.082253
0.118856 0.113113 0.112607
0.061499 0.056161 0.055323
0.094922 0.094680 0.095548
0.045593 0.045838 0.045486
0.050383 0.050313 0.050267
0.130693 0.130707 0.130163
0.074348 0.075140 0.075070
0.103634 0.103872 0.105234
0.051885 0.051615 0.051627
0.048994 0.049055 0.049044
0.097827 0.097755 0.098240
0.056490 0.056365 0.056306
0.131095 0.132954 0.135191
0.142028 0.141784 0.141563
0.096668 0.097686 0.097453
0.131988 0.131405 0.117652
0.048988 0.049050 0.049042
0.043167 0.043486 0.043357
0.050657 0.051370 0.051349
0.046366 0.046656 0.046956
0.104901 0.105173 0.105029
0.049364 0.048999 0.049156
0.058746 0.059488 0.058988
0.103263 0.091516 0.086357
0.134318 0.136796 0.137107
0.048712 0.048661 0.049050
0.109593 0.109037 0.109097
0.131376 0.135186 0.135578
0.081974 0.082052 0.082016
0.052266 0.052263 0.052119
0.126911 0.127618 0.128726
0.076322 0.076506 0.076577
0.054930 0.054199 0.054066
0.131423 0.130499 0.130350
0.136927 0.137155 0.130700
0.127647 0.127283 0.126948
0.109641 0.110380 0.112270
0.103101 0.103036 0.103051
0.099300 0.099355 0.099511
0.139076 0.138893 0.139008
0.054229 0.054302 0.054369
0.122854 0.122697 0.123259
0.044377 0.044218 0.044104
0.095648 0.113168 0.113325
0.100073 0.100067 0.100066
0.043495 0.043449 0.043242
0.114968 0.115186 0.115117
0.092985 0.093650 0.092821
0.056813 0.056584 0.056182
0.087489 0.087009 0.086035
0.054796 0.054600 0.054787
0.130940 0.131421 0.131725
0.093277 0.093225 0.093395
0.059589 0.060101 0.060412
0.049654 0.049561 0.049248
0.180825 0.180832 0.181297
0.077263 0.077183 0.076910
0.061703 0.061512 0.061029
0.073813 0.073635 0.073618
0.049398 0.049030 0.048703
0.093491 0.094468 0.096262
0.110591 0.111617 0.113887
0.048599 0.048926 0.049014
0.146779 0.150852 0.151409
0.046277 0.046236 0.045813
0.056809 0.056703 0.056796
0.085530 0.085419 0.085443
0.130427 0.130433 0.130274
0.103119 0.103061 0.102923
0.053566 0.053630 0.053482
0.061035 0.061033 0.060914
0.113176 0.113291 0.112808
0.048657 0.048772 0.049068
0.110857 0.110628 0.109542
0.112308 0.112480 0.112398
0.080038 0.079881 0.080212
0.078542 0.078583 0.078867
0.120789 0.120220 0.121550
0.048092 0.048160 0.048538
0.064145 0.064559 0.065266
0.058216 0.058778 0.058756
0.125469 0.125354 0.124928
0.054387 0.053946 0.054177
0.150934 0.150677 0.150854
0.068878 0.067887 0.067036
0.132848 0.136943 0.137799
0.047480 0.047449 0.047259
0.086499 0.086476 0.086501
0.130700 0.129348 0.127890
0.061267 0.060060 0.059945
0.123469 0.122081 0.122006
0.054193 0.054177 0.053892
0.051345 0.050970 0.051102
0.052921 0.052992 0.052741
0.088940 0.088873 0.087990
0.113980 0.113898 0.114065
0.068293 0.068468 0.068336
0.057119 0.057075 0.057251
0.048778 0.049145 0.049150
0.045689 0.045674 0.045584
0.133106 0.132468 0.132183
0.117664 0.117500 0.119823
0.061402 0.061309 0.061308
0.045954 0.046200 0.046172
0.112845 0.109493 0.106389
0.046983 0.046803 0.047151
0.063481 0.064005 0.064175
0.126397 0.125739 0.124763
0.068956 0.068447 0.068161
0.111030 0.108191 0.108352
0.110770 0.110326 0.109606
0.047154 0.047234 0.047396
0.048489 0.048386 0.048393
0.045319 0.045264 0.045307
0.089202 0.081945 0.078139
0.116083 0.116179 0.116347
0.069029 0.068517 0.068148
0.113465 0.113617 0.113885
0.055561 0.055330 0.055239
0.044076 0.044088 0.044327
0.099627 0.099576 0.099499
0.109274 0.109023 0.109319
0.122914 0.116711 0.118463
0.122681 0.123159 0.122660
0.070764 0.070819 0.070824
0.104262 0.110240 0.111410
0.141563 0.135126 0.137902
0.122098 0.123255 0.125471
0.100667 0.100556 0.100457
0.126807 0.126959 0.127025
0.132453 0.132223 0.131503
0.061288 0.061006 0.060648
0.050395 0.051023 0.052037
0.049000 0.049140 0.049065
0.060533 0.060378 0.060258
0.120026 0.120277 0.120693
0.063684 0.064029 0.064401
0.121455 0.121159 0.122698
0.137795 0.138687 0.140425
0.051283 0.051260 0.051352
0.139223 0.125420 0.123876
0.124088 0.125321 0.126367
0.061363 0.060886 0.060881
0.042182 0.043008 0.043038
0.097363 0.097165 0.097239
0.044301 0.043982 0.044032
0.093895 0.093991 0.094582
0.059189 0.059388 0.059372
0.107945 0.105733 0.105499
0.049103 0.049032 0.049082
0.067905 0.068178 0.068505
0.057432 0.057711 0.057964
0.114773 0.114657 0.116097
0.047269 0.047557 0.048099
0.051033 0.050975 0.050897
0.114657 0.114386 0.108234
0.051942 0.051835 0.051837
0.082265 0.082161 0.082184
0.054249 0.054316 0.054315
0.113783 0.113647 0.113702
0.089253 0.093162 0.093796
0.119715 0.119724 0.120364
0.085924 0.084751 0.083069
0.109564 0.109727 0.109641
0.116929 0.116976 0.117264
0.101233 0.101282 0.101284
0.077112 0.074862 0.074373
0.115033 0.115143 0.115056
0.113789 0.113510 0.113607
0.116710 0.116676 0.117169
0.094928 0.095160 0.096450
0.115853 0.115357 0.114225
0.124467 0.124609 0.126329
0.109507 0.114467 0.114695
0.119735 0.119526 0.119676
0.057659 0.057860 0.057435
0.057441 0.057123 0.056861
0.104048 0.104122 0.104581
0.108580 0.108408 0.108048
0.056627 0.056604 0.056790
0.142945 0.142671 0.138807
