0.073700 0.079494 0.079541
0.231458 0.230986 0.227154
0.173789 0.174132 0.172703
0.094894 0.095995 0.097009
0.125282 0.125257 0.122410
0.171014 0.167899 0.167591
0.097729 0.100699 0.101470
0.232399 0.230720 0.229146
0.098000 0.097764 0.097888
0.172637 0.171965 0.170536
0.075118 0.074918 0.075876
0.101092 0.101899 0.102118
0.084348 0.084531 0.084440
0.219739 0.219911 0.220673
0.291366 0.292544 0.292521
0.121424 0.123315 0.124458
0.137953 0.138322 0.138198
0.171611 0.169821 0.162448
0.161616 0.164100 0.165298
0.250711 0.251860 0.252677
0.199799 0.199589 0.199052
0.143602 0.143046 0.143059
0.139020 0.139003 0.139198
0.131451 0.130957 0.129640
0.193708 0.198020 0.198935
0.106004 0.106216 0.105868
0.209226 0.207794 0.202339
0.220403 0.221964 0.218140
0.290451 0.289938 0.287456
0.222652 0.230198 0.228510
0.252045 0.252850 0.249600
0.256377 0.255502 0.256543
0.132517 0.141494 0.145849
0.199505 0.199649 0.200291
0.202863 0.202396 0.199345
0.248364 0.250330 0.250160
0.133530 0.133349 0.133726
0.206693 0.207908 0.196022
0.149504 0.149336 0.147103
0.134212 0.133825 0.129231
0.164556 0.165373 0.165654
0.115389 0.111947 0.108754
0.195717 0.158831 0.156747
0.146346 0.145906 0.145831
0.160545 0.160654 0.160920
0.134229 0.134733 0.134291
0.155159 0.155059 0.155308
0.291182 0.289850 0.286268
0.097845 0.097521 0.097339
0.253536 0.259457 0.261185
0.125792 0.124795 0.125306
0.167582 0.169074 0.170261
0.106216 0.105868 0.105276
0.093427 0.092707 0.091775
0.299813 0.295264 0.287206
0.156362 0.156511 0.157312
0.089992 0.090722 0.090011
0.089608 0.089508 0.089549
0.201851 0.201540 0.200304
0.224671 0.225627 0.229053
0.236559 0.237440 0.237363
0.289819 0.289666 0.285709
0.142660 0.142357 0.142268
0.261912 0.259058 0.259143
0.155957 0.156271 0.156389
0.289466 0.292902 0.294792
0.893604 0.893755 0.893545
0.260244 0.260166 0.260543
0.129972 0.130860 0.130877
0.120029 0.122571 0.123511
0.220752 0.220081 0.221400
0.152640 0.152936 0.152512
0.245312 0.245173 0.245106
0.164196 0.166210 0.167192
0.177540 0.176845 0.170403
0.205628 0.204792 0.204444
0.301692 0.302970 0.302699
0.330632 0.332296 0.335382
0.171729 0.165658 0.165063
0.154910 0.154098 0.153802
0.158556 0.158330 0.156694
0.152060 0.152458 0.149795
0.229406 0.230778 0.231425
0.211564 0.210623 0.210935
0.137496 0.138044 0.145923
0.181719 0.181690 0.182051
0.120791 0.121251 0.121190
0.145228 0.145089 0.144844
0.163214 0.165720 0.165916
0.209346 0.206704 0.206395
0.243280 0.243065 0.241849
0.176345 0.176236 0.174502
0.113886 0.124474 0.125458
0.092873 0.093431 0.092474
0.125251 0.124607 0.123698
0.229318 0.229493 0.229959
0.240316 0.242879 0.242895
0.162554 0.162296 0.161801
0.209657 0.208054 0.209871
0.252558 0.252198 0.253785
0.211466 0.212134 0.210020
0.132842 0.133112 0.131663
0.122094 0.122432 0.122399
0.244800 0.256636 0.256840
0.128947 0.135431 0.141659
0.307396 0.308142 0.306110
0.155508 0.156554 0.156823
0.148988 0.148863 0.149029
0.270345 0.270590 0.272196
0.153012 0.152547 0.152089
0.084983 0.085482 0.086724
0.180988 0.182158 0.194391
0.261517 0.262604 0.263552
0.125968 0.115398 0.115675
0.127664 0.127048 0.120418
0.206848 0.209175 0.210108
0.181085 0.180762 0.179429
0.263841 0.264170 0.264233
0.152593 0.151957 0.151127
0.173608 0.175462 0.173300
0.102958 0.103302 0.103267
0.141666 0.141153 0.140908
0.248746 0.251270 0.251606
0.234258 0.240040 0.239754
0.107967 0.108692 0.108393
0.111650 0.112133 0.115797
0.247157 0.245802 0.244555
0.183740 0.183501 0.183024
0.237467 0.240994 0.240170
0.170950 0.170364 0.170328
0.218215 0.218569 0.217117
0.163891 0.163170 0.153758
0.231352 0.231565 0.232664
0.134085 0.134392 0.134535
0.067468 0.067501 0.067569
0.220842 0.220517 0.212086
0.251403 0.253575 0.253587
0.097109 0.097059 0.097249
0.152385 0.152250 0.152425
0.134798 0.134963 0.135048
0.092484 0.092333 0.092608
0.166328 0.164652 0.163483
0.131385 0.131596 0.131915
0.248394 0.248523 0.248547
0.218109 0.213949 0.213858
0.159703 0.159825 0.160863
0.277382 0.277887 0.276997
0.197730 0.196605 0.193065
0.129061 0.127531 0.127359
0.124756 0.125773 0.126166
0.179858 0.180510 0.180889
0.191798 0.192204 0.192505
0.249967 0.249140 0.247283
0.214866 0.208798 0.209571
0.208778 0.207623 0.207595
0.078936 0.078989 0.079493
0.179191 0.177663 0.177437
0.203700 0.201383 0.201406
0.239033 0.239829 0.241374
0.207518 0.209915 0.211088
0.166096 0.167535 0.166108
0.228012 0.222341 0.220999
0.163963 0.164150 0.164685
0.188573 0.180813 0.177790
0.113944 0.113976 0.114268
0.132181 0.133221 0.133099
0.206947 0.207260 0.213158
0.124604 0.119690 0.118337
0.228960 0.228863 0.228652
0.239926 0.241552 0.241684
0.215759 0.215660 0.215909
0.209894 0.209561 0.229639
0.097712 0.100426 0.101264
0.257859 0.259966 0.260812
0.118676 0.118679 0.119315
0.126926 0.127288 0.127047
0.144092 0.142315 0.140920
0.253787 0.253666 0.257948
0.103368 0.104213 0.104108
0.142763 0.143337 0.141977
0.172173 0.173709 0.174315
0.186636 0.186732 0.187078
0.277321 0.276508 0.275721
0.121290 0.126591 0.131687
0.197277 0.199334 0.199648
0.219512 0.222177 0.221748
0.138610 0.139455 0.141448
0.181923 0.183693 0.184621
0.109536 0.110592 0.109989
0.177914 0.181083 0.181034
0.121058 0.121477 0.121821
0.140030 0.139908 0.139008
0.161339 0.161366 0.162905
0.230520 0.226710 0.225965
0.171965 0.170536 0.162526
0.101914 0.102293 0.103816
0.259201 0.260917 0.258853
0.279259 0.279877 0.278487
0.139579 0.141063 0.141340
0.147592 0.146605 0.152219
0.170496 0.167754 0.166529
0.122998 0.124847 0.125156
0.090953 0.091201 0.091042
0.110475 0.109848 0.109641
0.179259 0.177599 0.176899
0.117817 0.115472 0.115013
0.098880 0.089476 0.089478
0.223422 0.224226 0.222984
0.185423 0.183478 0.183595
0.239774 0.239677 0.243435
0.256382 0.257668 0.258488
0.169680 0.174115 0.180080
0.124946 0.125373 0.125000
0.150847 0.149063 0.149474
0.114268 0.117511 0.118164
0.222867 0.218254 0.216459
0.140457 0.140528 0.140401
0.216608 0.215796 0.215182
0.125736 0.124541 0.124254
0.232865 0.239003 0.239374
0.098946 0.097940 0.097797
0.142006 0.143116 0.142748
0.147659 0.144855 0.144935
0.195221 0.198022 0.197640
0.219130 0.219671 0.219844
0.127613 0.127091 0.127098
0.113552 0.114221 0.111825
0.154471 0.153747 0.152347
0.160143 0.161018 0.161263
0.108131 0.108101 0.108163
0.078854 0.079601 0.081343
0.105861 0.106934 0.107922
0.093305 0.094279 0.094336
0.085556 0.084582 0.084714
0.135452 0.136154 0.136404
0.183067 0.183143 0.183757
0.119011 0.117488 0.117144
0.133769 0.133310 0.133200
0.156057 0.156066 0.156446
0.270956 0.270254 0.269355
0.131577 0.131416 0.130861
0.157779 0.158120 0.158182
0.189562 0.189503 0.189999
0.260821 0.255820 0.263208
0.172662 0.173436 0.175956
0.126311 0.126562 0.126067
0.245425 0.248229 0.248764
0.279480 0.278661 0.279825
0.095307 0.094903 0.096154
0.241812 0.241995 0.235958
0.091970 0.091899 0.091944
0.185682 0.185652 0.185211
0.208481 0.209226 0.207794
0.156679 0.156772 0.158457
0.231031 0.230633 0.230213
0.077132 0.078787 0.080308
0.228046 0.228591 0.229151
0.196610 0.202835 0.205021
0.267811 0.269748 0.270670
0.178304 0.180189 0.180268
0.229830 0.232541 0.233503
0.220081 0.221400 0.218259
0.154748 0.154438 0.153656
0.113575 0.113722 0.113735
0.231365 0.231140 0.227520
0.082351 0.082705 0.082246
0.256108 0.256703 0.256239
0.254269 0.264361 0.265472
0.225509 0.224842 0.224204
0.289393 0.290977 0.292119
0.189111 0.188984 0.184242
0.161839 0.161096 0.155723
0.171364 0.171305 0.171635
0.258908 0.254525 0.263087
0.217309 0.214548 0.214359
0.145653 0.145216 0.145148
0.143602 0.143714 0.147181
0.142994 0.143040 0.143728
0.205764 0.206941 0.208316
0.126372 0.127417 0.128185
0.160445 0.161213 0.161141
0.223733 0.223485 0.223649
0.126571 0.125753 0.126954
0.227967 0.227501 0.226141
0.140322 0.141185 0.141312
0.174820 0.175379 0.174665
0.134195 0.134631 0.134655
0.132742 0.131388 0.130225
0.257466 0.255267 0.255743
0.182619 0.183457 0.183347
0.205635 0.203286 0.203039
0.204148 0.203890 0.202980
0.133425 0.133844 0.133750
0.168302 0.170045 0.171204
0.212231 0.212676 0.215110
0.076248 0.076895 0.077041
0.229967 0.230004 0.229390
0.154438 0.153802 0.152225
0.157020 0.156679 0.156772
0.168122 0.159315 0.154516
0.248102 0.240783 0.240590
0.142428 0.143614 0.142576
0.276961 0.275984 0.276565
0.187702 0.190625 0.206421
0.297797 0.298806 0.297416
0.158128 0.156762 0.156327
0.215666 0.216233 0.219188
0.141094 0.141063 0.140948
0.167759 0.166202 0.162893
0.201150 0.200485 0.199477
0.153841 0.154242 0.154694
0.131812 0.131563 0.131898
0.137288 0.139063 0.139488
0.089625 0.089635 0.089540
0.126493 0.124449 0.124334
0.100835 0.100688 0.096079
0.333549 0.333811 0.335718
0.119947 0.122031 0.122388
0.138331 0.138824 0.140355
0.232053 0.232590 0.234247
0.152755 0.151248 0.151009
0.203210 0.203996 0.203904
0.075203 0.076048 0.078416
0.084634 0.084969 0.085243
0.232773 0.232646 0.231403
0.262589 0.261325 0.260633
0.205561 0.206183 0.207468
0.266281 0.264922 0.260951
0.249178 0.246902 0.254956
0.164255 0.164083 0.163058
0.268791 0.268687 0.265712
0.227118 0.226082 0.220858
0.144422 0.143856 0.143753
0.134375 0.134361 0.134243
0.149107 0.151340 0.151568
0.165606 0.165173 0.164252
0.236655 0.238174 0.238865
0.171147 0.171939 0.173770
0.159095 0.156274 0.155653
0.185415 0.183057 0.183696
0.216342 0.217229 0.217192
0.131492 0.131107 0.127780
0.124030 0.124489 0.124640
0.158461 0.158108 0.158164
0.201555 0.203588 0.203370
0.108347 0.108124 0.108118
0.097108 0.096760 0.096062
0.141428 0.138260 0.136765
0.130161 0.131524 0.132285
0.137810 0.137076 0.134582
0.203444 0.204306 0.204778
0.243877 0.243164 0.238588
0.209934 0.208296 0.210410
0.259955 0.261452 0.261758
0.100073 0.098880 0.089476
0.141936 0.141930 0.141278
0.210264 0.209347 0.208943
0.131452 0.131092 0.130655
0.256085 0.255600 0.255799
0.249436 0.255571 0.255429
0.270052 0.268723 0.268361
0.135595 0.136278 0.138210
0.201294 0.201021 0.200784
0.165547 0.165323 0.165707
0.325539 0.325371 0.326946
0.271463 0.270735 0.270000
0.187761 0.188254 0.187214
0.139469 0.141195 0.143639
0.228650 0.229016 0.229392
0.139511 0.132731 0.133200
0.131941 0.132517 0.141494
0.190683 0.191210 0.191478
0.175844 0.176723 0.177331
0.264964 0.261317 0.261371
0.301048 0.299692 0.297091
0.151070 0.152188 0.152806
0.119307 0.118598 0.118366
0.145087 0.144957 0.144912
0.320105 0.317752 0.314557
0.222415 0.219459 0.220198
0.331867 0.335115 0.335857
0.165173 0.164252 0.164192
0.231831 0.231293 0.233235
0.186952 0.187396 0.187195
0.160396 0.155254 0.155342
0.243372 0.243475 0.248520
0.073339 0.079134 0.079864
0.170111 0.166868 0.166685
0.148255 0.149784 0.154464
0.205567 0.203484 0.204634
0.233819 0.234123 0.234594
0.159059 0.145893 0.145041
0.149450 0.148823 0.147595
0.123808 0.124730 0.123407
0.168076 0.170530 0.170827
0.157644 0.157776 0.158982
0.159441 0.158935 0.147556
0.136935 0.137384 0.137592
0.155259 0.154892 0.154685
0.084857 0.085828 0.091473
0.175824 0.177048 0.177671
0.164365 0.165170 0.165197
0.243968 0.243820 0.243660
0.076677 0.077938 0.078406
0.284429 0.284066 0.281082
0.273342 0.275192 0.276420
0.125983 0.129870 0.128580
0.264407 0.262576 0.262370
0.090417 0.090167 0.089739
0.096874 0.096616 0.097712
0.073663 0.074223 0.074600
0.134228 0.133865 0.134526
0.198947 0.198275 0.197107
0.249706 0.249040 0.250586
0.075535 0.076238 0.076767
0.106780 0.107398 0.108639
0.147240 0.145277 0.144940
0.131942 0.132795 0.133161
0.268687 0.265712 0.265976
0.145839 0.146806 0.147369
0.140272 0.140362 0.140035
0.143541 0.143156 0.142718
0.074579 0.074818 0.075927
0.237987 0.236539 0.235977
0.093149 0.093105 0.091889
0.144670 0.144457 0.144315
0.108227 0.108355 0.110670
0.264076 0.265376 0.268429
0.270119 0.271964 0.271980
0.095884 0.094818 0.094776
0.175851 0.174936 0.169195
0.256421 0.256721 0.254943
0.181734 0.182114 0.181937
0.192227 0.195628 0.195915
0.255440 0.258893 0.253797
0.064144 0.064366 0.064306
0.102350 0.101735 0.100779
0.139086 0.134786 0.133280
0.203635 0.202417 0.201842
0.200367 0.199196 0.202632
0.254250 0.254684 0.255113
0.109730 0.109577 0.109634
0.212740 0.211533 0.206743
0.076713 0.075210 0.075432
0.138571 0.138543 0.138854
0.217318 0.224149 0.223940
0.127223 0.127118 0.125968
0.174911 0.174577 0.172701
0.124255 0.123062 0.122817
0.134603 0.134895 0.133919
0.091238 0.091970 0.091899
0.243375 0.243011 0.241851
0.068019 0.067616 0.067610
0.244395 0.243037 0.244744
0.094709 0.092463 0.091353
0.094776 0.094705 0.094434
0.219502 0.221091 0.222104
0.136083 0.135957 0.136501
0.261776 0.261186 0.260372
0.060974 0.061723 0.061711
0.233173 0.240446 0.244344
0.203228 0.203739 0.204809
0.115727 0.115883 0.116140
0.143710 0.143893 0.144704
0.138247 0.138311 0.138097
0.213674 0.206155 0.205818
0.276341 0.280073 0.280589
0.110582 0.110420 0.109707
0.146444 0.149168 0.150629
0.096796 0.097275 0.098150
0.144755 0.144676 0.144682
0.128731 0.128552 0.127922
0.131359 0.132838 0.133317
0.264260 0.264001 0.264054
0.157735 0.156625 0.154428
0.200416 0.199907 0.200082
0.108101 0.106158 0.105439
0.291020 0.291136 0.289130
0.169342 0.172515 0.172549
0.875853 0.875425 0.874129
0.175009 0.175745 0.176934
0.123708 0.124164 0.125168
0.147343 0.147998 0.147918
0.230405 0.232326 0.237418
0.128982 0.129585 0.127770
0.233295 0.232047 0.231117
0.197071 0.195841 0.195044
0.152141 0.150248 0.149488
0.230629 0.230813 0.230569
0.202195 0.201372 0.200950
0.115078 0.114835 0.114866
0.130393 0.130372 0.130238
0.259485 0.259712 0.259947
0.172785 0.171377 0.171366
0.225887 0.222988 0.221782
0.235046 0.238361 0.241023
0.157573 0.158066 0.170187
0.256349 0.255109 0.252702
0.132779 0.132042 0.132060
0.157603 0.157666 0.158750
0.266243 0.267926 0.279138
0.251499 0.253103 0.250199
0.062251 0.062169 0.061620
0.288233 0.288377 0.288858
0.226505 0.226472 0.226322
0.224958 0.223279 0.222025
0.226479 0.228480 0.228666
0.239772 0.230697 0.229794
0.217759 0.218733 0.218660
0.230106 0.228940 0.228718
0.239067 0.237599 0.238013
0.276292 0.275660 0.275812
0.165638 0.165877 0.165977
0.079646 0.079965 0.082179
0.189998 0.183531 0.177131
0.291345 0.282281 0.281922
0.098333 0.095827 0.094891
0.204654 0.203390 0.202130
0.215039 0.214807 0.213911
0.097844 0.097417 0.097204
0.165040 0.166033 0.166262
0.231255 0.235538 0.237998
0.133262 0.132411 0.129287
0.070858 0.068728 0.067578
0.138005 0.137761 0.137810
0.124111 0.120985 0.124181
0.097054 0.097109 0.097765
0.257624 0.257636 0.257162
0.106036 0.104796 0.105347
0.133113 0.133065 0.133904
0.173538 0.169468 0.169449
0.143433 0.142899 0.139738
0.261126 0.260634 0.256349
0.250976 0.250482 0.250674
0.336638 0.334473 0.330021
0.070954 0.071868 0.071847
0.296724 0.295424 0.296479
0.239318 0.240270 0.242429
0.194930 0.195336 0.194955
0.227539 0.228442 0.228271
0.210995 0.212187 0.210569
0.270014 0.266341 0.266642
0.225828 0.220503 0.217178
0.156634 0.155912 0.155565
0.226751 0.227241 0.227541
0.105869 0.110888 0.125826
0.121238 0.120526 0.120062
0.266300 0.267081 0.267899
0.156706 0.155378 0.155604
0.211919 0.211736 0.211772
0.152786 0.152753 0.152805
0.262604 0.262075 0.261031
0.302733 0.300655 0.299090
0.161305 0.159034 0.158979
0.286480 0.287369 0.288190
0.131124 0.132845 0.132346
0.125213 0.125211 0.125840
0.128545 0.127338 0.127045
0.238279 0.245921 0.246883
0.198472 0.193981 0.191931
0.113438 0.114131 0.124379
0.111191 0.110861 0.110478
0.205472 0.205458 0.203129
0.302918 0.302795 0.305119
0.158257 0.158356 0.158097
0.123561 0.123740 0.123588
0.075612 0.076406 0.077252
0.136030 0.136531 0.136750
0.127811 0.128077 0.127879
0.126848 0.119897 0.116623
0.256484 0.259184 0.259081
0.146770 0.146308 0.145522
0.241448 0.241394 0.241681
0.273252 0.273858 0.278524
0.179276 0.179748 0.179241
0.234752 0.235280 0.235487
0.265218 0.284475 0.286414
0.281470 0.282413 0.279860
0.125938 0.125426 0.124189
0.235725 0.237225 0.245696
0.124130 0.125219 0.125826
0.128013 0.128263 0.129598
0.228902 0.229471 0.231158
0.207618 0.206254 0.213189
0.356933 0.354049 0.355335
0.111328 0.110149 0.110434
0.188321 0.186276 0.184628
0.201761 0.202587 0.203444
0.135109 0.134566 0.134939
0.139226 0.139282 0.139286
0.233850 0.234213 0.233117
0.098953 0.097822 0.095605
0.187546 0.187066 0.187070
0.338259 0.338135 0.337088
0.216284 0.217650 0.225736
0.201463 0.201614 0.203865
0.253027 0.254255 0.264305
0.280513 0.280975 0.280418
0.315693 0.318422 0.324548
0.202053 0.201939 0.202615
0.146172 0.146213 0.146137
0.113185 0.111734 0.111800
0.202832 0.203840 0.209569
0.160715 0.159405 0.155267
0.203014 0.203606 0.204114
0.124718 0.125415 0.125790
0.144835 0.143911 0.143602
0.143017 0.143342 0.145122
0.151204 0.151784 0.151977
0.185236 0.185942 0.185740
0.151340 0.151568 0.151717
0.193893 0.192458 0.190214
0.181083 0.180112 0.178275
0.217413 0.218042 0.217919
0.147504 0.151380 0.151917
0.091019 0.090321 0.089407
0.203410 0.203546 0.201219
0.111660 0.112090 0.111328
0.117097 0.116685 0.118177
0.124947 0.122515 0.122517
0.311620 0.312726 0.314230
0.311165 0.311292 0.311681
0.204938 0.203901 0.203336
0.103099 0.103167 0.102911
0.126036 0.125804 0.125109
0.127064 0.126743 0.123455
0.221351 0.218352 0.218809
0.274334 0.275137 0.281548
0.087688 0.087906 0.088236
0.136230 0.136799 0.137015
0.220679 0.220283 0.221351
0.251903 0.251023 0.249985
0.276504 0.276738 0.277820
0.101655 0.101236 0.100930
0.156599 0.156088 0.155682
0.161004 0.161103 0.161008
0.206646 0.205846 0.205645
0.105669 0.105889 0.105751
0.228254 0.229251 0.232882
0.092461 0.092940 0.093224
0.241051 0.240791 0.240992
0.123979 0.123464 0.122006
0.294796 0.293951 0.294080
0.245620 0.246940 0.252103
0.151502 0.151523 0.147158
0.094807 0.094601 0.094843
0.173921 0.173388 0.173156
0.138715 0.133033 0.126927
0.254458 0.249808 0.248433
0.141080 0.139881 0.139411
0.237488 0.245385 0.246592
0.125743 0.126046 0.124073
0.205342 0.205444 0.205566
0.209368 0.208941 0.209111
0.156480 0.156472 0.156616
0.271846 0.272628 0.272248
0.151329 0.152223 0.152291
0.152530 0.152316 0.151364
0.189894 0.189726 0.189721
0.211948 0.211469 0.210601
0.297114 0.295604 0.295477
0.125016 0.123326 0.122616
0.286347 0.280986 0.278640
0.177400 0.177408 0.177164
0.169465 0.170568 0.170611
0.151568 0.151717 0.152024
0.263160 0.261974 0.263498
0.132034 0.132302 0.132701
0.184769 0.178017 0.177821
0.122692 0.125911 0.126236
0.138842 0.140281 0.139542
0.199041 0.195811 0.195137
0.153585 0.156456 0.157581
0.147747 0.148949 0.147316
0.186225 0.186117 0.186088
0.060035 0.060065 0.060757
0.091003 0.090326 0.089402
0.229016 0.229392 0.229203
0.154706 0.153090 0.152799
0.304960 0.301033 0.298970
0.277847 0.281092 0.282676
0.143719 0.143360 0.141050
0.237356 0.236581 0.235148
0.141147 0.140533 0.138122
0.125506 0.126137 0.129098
0.263367 0.265651 0.264846
0.209056 0.208648 0.208119
0.089083 0.088924 0.087557
0.300652 0.299074 0.288751
0.243915 0.249467 0.251239
0.197892 0.196866 0.195851
0.125092 0.124935 0.126812
0.260410 0.259028 0.258702
0.892649 0.892820 0.892909
0.171198 0.172970 0.175103
0.216478 0.215132 0.213525
0.183417 0.183942 0.183870
0.154254 0.153794 0.152041
0.129811 0.128541 0.128409
0.202268 0.214065 0.215932
0.121711 0.123298 0.124216
0.233619 0.233409 0.231114
0.222991 0.222858 0.222273
0.847835 0.845521 0.843807
0.167623 0.167294 0.166307
0.207098 0.208210 0.209347
0.098587 0.098822 0.098789
0.212357 0.209140 0.209427
0.225227 0.225842 0.230476
0.207312 0.208097 0.208354
0.199973 0.195353 0.196275
0.273931 0.267849 0.265090
0.267610 0.279089 0.282218
0.155054 0.153580 0.152533
0.117799 0.117704 0.118591
0.281819 0.282717 0.282462
0.205948 0.205759 0.207683
0.211671 0.210297 0.210116
0.104872 0.105964 0.107294
0.169995 0.169991 0.170311
0.173044 0.171102 0.171199
0.283350 0.280052 0.280229
0.134329 0.133983 0.134127
0.262765 0.263169 0.263839
0.330853 0.327854 0.333378
0.162349 0.163724 0.163814
0.225217 0.218877 0.217668
0.118695 0.119402 0.118413
0.260484 0.260151 0.260667
0.216188 0.216344 0.218495
0.150916 0.150014 0.146630
0.254012 0.256609 0.256484
0.198009 0.190204 0.185959
0.206955 0.206633 0.205179
0.224035 0.225197 0.229986
0.165513 0.164995 0.164655
0.148273 0.150634 0.150246
0.120136 0.120254 0.120898
0.282478 0.277711 0.277779
0.281016 0.280820 0.283968
0.079870 0.079419 0.077639
0.172065 0.170703 0.162289
0.135848 0.136557 0.138841
0.082488 0.085688 0.083780
0.157445 0.157683 0.158141
0.211269 0.209961 0.208802
0.076532 0.076381 0.076624
0.115868 0.116487 0.116672
0.186088 0.186114 0.185891
0.221122 0.219163 0.216486
0.205222 0.204981 0.198237
0.248999 0.250869 0.253066
0.307243 0.305963 0.304407
0.143817 0.144864 0.143214
0.229434 0.229318 0.229493
0.267589 0.268271 0.268587
0.161527 0.160055 0.159660
0.219893 0.219318 0.218271
0.066989 0.067271 0.067894
0.149779 0.149752 0.151273
0.124684 0.124816 0.125076
0.159417 0.159121 0.159196
0.166454 0.166963 0.171301
0.207045 0.207699 0.208652
0.165237 0.166721 0.167137
0.149039 0.149456 0.149850
0.153426 0.151648 0.149597
0.100944 0.100255 0.095554
0.208203 0.207993 0.210190
0.218141 0.211381 0.210463
0.207080 0.209311 0.206687
0.189292 0.189111 0.188984
0.217494 0.218309 0.219699
0.265245 0.265899 0.264510
0.276701 0.273618 0.269120
0.146323 0.145121 0.144363
0.159725 0.159510 0.160071
0.191403 0.191709 0.194300
0.106353 0.106165 0.105899
0.189960 0.190246 0.202130
0.890408 0.891251 0.892173
0.111104 0.110681 0.109658
0.149725 0.149814 0.149617
0.170300 0.170025 0.169112
0.098529 0.100683 0.103471
0.134733 0.134291 0.134585
0.145514 0.143198 0.141480
0.168583 0.169680 0.174115
0.158354 0.158629 0.159288
0.195772 0.194247 0.187020
0.076681 0.079231 0.079574
0.134020 0.134917 0.139515
0.132012 0.131506 0.132960
0.160277 0.157000 0.148375
0.261638 0.262208 0.265330
0.252249 0.255044 0.254247
0.110159 0.110803 0.110503
0.244542 0.243877 0.243164
0.089910 0.090056 0.090153
0.124707 0.125061 0.125407
0.088721 0.088556 0.089595
0.100975 0.095813 0.095286
0.163963 0.164481 0.164354
0.153204 0.147918 0.147326
0.203339 0.202237 0.201920
0.157591 0.161848 0.161675
0.142101 0.142024 0.142050
0.209469 0.216342 0.217211
0.280203 0.279972 0.279764
0.303088 0.303595 0.297005
0.127528 0.128164 0.128173
0.209688 0.209835 0.207526
0.169874 0.169260 0.168542
0.197633 0.198335 0.199243
0.258212 0.258852 0.259064
0.204071 0.216446 0.216918
0.141467 0.141243 0.140911
0.159771 0.159863 0.160858
0.088757 0.088764 0.089492
0.268966 0.269042 0.268963
0.226918 0.226067 0.224982
0.286403 0.286874 0.285922
0.089660 0.090096 0.090106
0.214372 0.213694 0.212340
0.246695 0.248421 0.250545
0.251988 0.254219 0.254251
0.214122 0.215233 0.213894
0.103177 0.103119 0.103210
0.205276 0.204702 0.204409
0.276392 0.278553 0.278243
0.083318 0.083370 0.083109
0.089144 0.082730 0.080144
0.226428 0.226882 0.227046
0.134018 0.133296 0.132862
0.271422 0.271053 0.269924
0.125485 0.124686 0.123373
0.179599 0.179899 0.180989
0.231822 0.232958 0.228896
0.203283 0.203560 0.204233
0.223334 0.220076 0.219679
0.143719 0.143612 0.143335
0.081698 0.080559 0.077537
0.272290 0.272677 0.271913
0.086422 0.086905 0.087581
0.256324 0.259197 0.259737
0.123537 0.122100 0.119313
0.337130 0.336549 0.334151
0.289734 0.284514 0.284713
0.133738 0.133726 0.131960
0.094426 0.097685 0.103888
0.095135 0.093766 0.092854
0.221703 0.221305 0.220532
0.242046 0.236403 0.235609
0.137418 0.136942 0.136351
0.201918 0.201018 0.201865
0.144481 0.146334 0.146259
0.145742 0.144285 0.142024
0.228761 0.228635 0.225589
0.153847 0.149286 0.148432
0.111414 0.111439 0.110159
0.123623 0.124375 0.125246
0.120508 0.120523 0.120334
0.176991 0.177875 0.178470
0.084843 0.086649 0.087643
0.188215 0.186357 0.187854
0.251028 0.247467 0.245782
0.221723 0.223694 0.223662
0.136482 0.136278 0.136579
0.230094 0.228939 0.228690
0.182003 0.181868 0.181848
0.201286 0.199320 0.197315
0.142038 0.142980 0.141773
0.115165 0.114858 0.114994
0.276532 0.276139 0.276175
0.067650 0.067521 0.067295
0.224247 0.224704 0.223202
0.251851 0.252661 0.250801
0.165598 0.165279 0.167743
0.116218 0.118316 0.122790
0.294220 0.293704 0.295996
0.120341 0.120388 0.121137
0.141936 0.140307 0.140587
0.173704 0.173314 0.173093
0.093607 0.095783 0.098577
0.280687 0.284969 0.284443
0.200228 0.199032 0.200577
0.199410 0.207245 0.207283
0.134563 0.134181 0.133663
0.133521 0.132975 0.133940
0.268902 0.271172 0.271171
0.116228 0.114756 0.113763
0.150821 0.144429 0.144300
0.256100 0.256184 0.267499
0.074660 0.075612 0.075774
0.197871 0.197131 0.196439
0.170081 0.170978 0.170927
0.160290 0.159725 0.159510
0.117663 0.117752 0.118016
0.223677 0.223134 0.222094
0.091679 0.091110 0.091340
0.228139 0.228323 0.228473
0.248160 0.250155 0.246070
0.266246 0.275340 0.277693
0.129911 0.130141 0.131941
0.174314 0.173713 0.170504
0.129259 0.131347 0.131316
0.288793 0.292007 0.292718
0.231102 0.226665 0.228032
0.131826 0.132959 0.133428
0.234491 0.237889 0.237641
0.207038 0.205867 0.205556
0.187121 0.186403 0.193400
0.226518 0.225489 0.224743
0.140534 0.140471 0.140378
0.254239 0.255020 0.254543
0.141902 0.142439 0.150107
0.213688 0.208088 0.208714
0.218726 0.219160 0.219788
0.325534 0.325323 0.325895
0.241684 0.241611 0.242340
0.120635 0.116514 0.115144
0.229053 0.229178 0.228710
0.134767 0.133868 0.134304
0.077669 0.078119 0.078127
0.126855 0.126872 0.126768
0.132532 0.134479 0.139167
0.255465 0.256682 0.256717
0.297029 0.295646 0.299567
0.149663 0.149949 0.155321
0.173412 0.172192 0.171345
0.185877 0.185831 0.185927
0.261564 0.259707 0.259454
0.285981 0.286403 0.286874
0.149168 0.150629 0.150938
0.170005 0.169628 0.167768
0.151394 0.151170 0.150990
0.119692 0.119541 0.119776
0.135756 0.134807 0.133843
0.184381 0.183430 0.182736
0.280047 0.281992 0.283203
0.247532 0.248082 0.247914
0.134733 0.133369 0.132342
0.218338 0.218426 0.218134
0.217376 0.218614 0.218531
0.142485 0.141265 0.141144
0.119363 0.119532 0.120856
0.174224 0.173582 0.172486
0.106613 0.105907 0.103857
0.231823 0.233250 0.231366
0.057734 0.057881 0.058243
0.141550 0.141921 0.142230
0.179970 0.179396 0.179913
0.123864 0.124848 0.128194
0.169304 0.166155 0.164368
0.138347 0.136549 0.135729
0.131089 0.128646 0.127998
0.162807 0.164056 0.162232
0.200293 0.200380 0.200422
0.255723 0.257285 0.257100
0.097968 0.097907 0.097845
0.110503 0.110899 0.111174
0.143118 0.143597 0.143822
0.186123 0.186873 0.187899
0.239387 0.240552 0.243120
0.337032 0.313183 0.310736
0.248949 0.249554 0.249606
0.097680 0.097898 0.098840
0.102244 0.102894 0.103916
0.147131 0.144839 0.143703
0.251898 0.258732 0.258784
0.158146 0.160979 0.162027
0.282452 0.281426 0.278851
0.140379 0.141049 0.141303
0.192042 0.191458 0.191260
0.233429 0.233143 0.230870
0.184156 0.182663 0.180961
0.213556 0.206004 0.204714
0.128280 0.130590 0.138319
0.240892 0.240360 0.239041
0.118842 0.117498 0.110772
0.150250 0.150278 0.150419
0.098616 0.098904 0.098906
0.261702 0.261452 0.261122
0.146542 0.146738 0.147546
0.137395 0.140331 0.140370
0.253708 0.254086 0.254328
0.215147 0.214270 0.208718
0.215407 0.217887 0.217853
0.260989 0.260681 0.259804
0.319858 0.320712 0.321812
0.215911 0.215856 0.217292
0.165914 0.167057 0.167361
0.168904 0.168068 0.164712
0.231822 0.238620 0.238933
0.278764 0.284386 0.287655
0.235438 0.235154 0.234976
0.162432 0.162719 0.162033
0.233023 0.232466 0.226518
0.173936 0.173966 0.173941
0.130435 0.129740 0.130815
