0.077378 0.077067 0.077038
0.148095 0.149333 0.151921
0.118266 0.119530 0.119778
0.126838 0.126190 0.125717
0.134464 0.134377 0.134171
0.077669 0.077597 0.077730
0.143118 0.143093 0.142896
0.136137 0.136637 0.136412
0.119950 0.119862 0.118364
0.097396 0.097902 0.097403
0.108406 0.105595 0.104858
0.117466 0.116308 0.115007
0.071064 0.071183 0.070504
0.134842 0.138857 0.137544
0.072213 0.072479 0.072682
0.158942 0.158829 0.158519
0.112636 0.112438 0.112674
0.137881 0.138731 0.139037
0.077746 0.078066 0.076843
0.145899 0.145855 0.145314
0.127396 0.127479 0.127178
0.116751 0.114819 0.114910
0.133122 0.134258 0.135197
0.140022 0.144408 0.144419
0.148924 0.146191 0.145556
0.097374 0.097404 0.097534
0.187728 0.186612 0.184451
0.099049 0.100478 0.100117
0.057505 0.057558 0.058191
0.071845 0.071620 0.071662
0.138001 0.133559 0.133502
0.099593 0.099573 0.099383
0.079406 0.079143 0.078734
0.124301 0.125283 0.124833
0.123859 0.124991 0.128671
0.076098 0.075883 0.075926
0.105381 0.105542 0.105773
0.140064 0.141159 0.141599
0.127043 0.127271 0.125374
0.149720 0.150715 0.151820
0.082016 0.081941 0.081954
0.079056 0.079210 0.079432
0.112914 0.112843 0.111305
0.076189 0.076094 0.076025
0.070644 0.069927 0.069743
0.087216 0.087139 0.088101
0.088495 0.087565 0.087578
0.122610 0.122766 0.122305
0.142131 0.143397 0.143415
0.127007 0.126670 0.123889
0.159790 0.162912 0.163790
0.170167 0.170912 0.173784
0.069708 0.069909 0.069159
0.088207 0.088309 0.088333
0.128355 0.128305 0.126348
0.113396 0.113201 0.114727
0.141289 0.140530 0.140248
0.121225 0.120755 0.120761
0.059702 0.059553 0.059413
0.188237 0.188666 0.189065
0.182550 0.182002 0.181276
0.119387 0.119550 0.119255
0.193403 0.193161 0.192868
0.133100 0.132792 0.132708
0.118039 0.117371 0.116200
0.101959 0.103042 0.103603
0.078903 0.079056 0.079233
0.085652 0.085585 0.086068
0.119839 0.119557 0.119256
0.118955 0.118424 0.118930
0.134809 0.135171 0.135423
0.074149 0.074602 0.075319
0.075939 0.075265 0.075564
0.083429 0.084116 0.084350
0.125514 0.125183 0.125787
0.066635 0.066763 0.067085
0.075026 0.074888 0.074923
0.078985 0.079057 0.078695
0.125699 0.126519 0.126814
0.098776 0.097361 0.089694
0.174454 0.173734 0.175468
0.079874 0.079809 0.080002
0.137434 0.137412 0.138606
0.086531 0.086355 0.086502
0.149936 0.150007 0.149243
0.100733 0.101284 0.101791
0.082282 0.082420 0.082711
0.068315 0.068225 0.067784
0.067375 0.067699 0.067195
0.073718 0.073357 0.073260
0.149821 0.149178 0.145936
0.126503 0.125847 0.125235
0.065852 0.066978 0.067022
0.124515 0.124888 0.125254
0.100097 0.099720 0.099664
0.118662 0.122293 0.123311
0.104648 0.104607 0.104702
0.147443 0.148101 0.149645
0.107683 0.105890 0.105629
0.147270 0.147441 0.147422
0.068451 0.068703 0.069180
0.143399 0.144017 0.143445
0.074413 0.074572 0.074916
0.182532 0.182861 0.183579
0.117804 0.117551 0.117798
0.074004 0.073856 0.073825
0.086355 0.086502 0.086956
0.077230 0.077362 0.077480
0.111307 0.111189 0.110302
0.075601 0.075781 0.075808
0.075126 0.074702 0.074540
0.088556 0.088383 0.088218
0.102848 0.102308 0.101716
0.089180 0.088025 0.087953
0.070684 0.070866 0.070847
0.078058 0.078217 0.078100
0.068244 0.068059 0.067985
0.081529 0.082088 0.080436
0.088157 0.088757 0.088642
0.082794 0.081959 0.081742
0.122951 0.123933 0.130091
0.128596 0.128317 0.128037
0.146927 0.147128 0.147395
0.071834 0.071871 0.072024
0.071705 0.070890 0.070619
0.106618 0.106631 0.106417
0.063955 0.064206 0.064565
0.125981 0.124580 0.124020
0.141146 0.141519 0.141781
0.070290 0.070109 0.070298
0.077894 0.077926 0.077966
0.082814 0.082756 0.082182
0.167774 0.167034 0.167124
0.071084 0.071453 0.071391
0.086862 0.087212 0.084862
0.075043 0.074514 0.074582
0.165297 0.165566 0.165969
0.090858 0.091589 0.091696
0.090363 0.090394 0.090357
0.143286 0.142974 0.142512
0.076334 0.076405 0.077162
0.190063 0.190282 0.191324
0.071957 0.072581 0.072529
0.076937 0.076633 0.076986
0.082156 0.083187 0.083328
0.076310 0.076322 0.075926
0.117472 0.118097 0.118130
0.144820 0.145441 0.144840
0.082547 0.082850 0.082493
0.136113 0.135424 0.135751
0.067625 0.068089 0.067808
0.134803 0.135120 0.133594
0.121302 0.119035 0.119449
0.097983 0.098602 0.098564
0.131180 0.130798 0.130902
0.121644 0.122263 0.122352
0.169978 0.165187 0.164541
0.146583 0.145849 0.144679
0.127287 0.127250 0.127108
0.167507 0.167464 0.166887
0.128394 0.129073 0.128763
0.116474 0.115568 0.115109
0.091777 0.091465 0.092047
0.137620 0.137657 0.137128
0.081169 0.081437 0.082073
0.121966 0.124651 0.126544
0.126569 0.126570 0.126567
0.079302 0.079124 0.077907
0.133767 0.132520 0.132135
0.075741 0.075972 0.075704
0.148559 0.143405 0.143208
0.130835 0.130664 0.130272
0.092391 0.091226 0.090116
0.102270 0.102321 0.102168
0.104237 0.103967 0.104409
0.086167 0.086648 0.087116
0.070653 0.070021 0.069143
0.118812 0.118487 0.118688
0.082089 0.082536 0.082128
0.100277 0.100336 0.099929
0.207861 0.208862 0.209607
0.077784 0.077465 0.076334
0.131450 0.131715 0.131331
0.070730 0.070717 0.070884
0.088408 0.088230 0.088509
0.130379 0.129697 0.129700
0.074562 0.076070 0.076029
0.122092 0.121949 0.120354
0.074761 0.074476 0.074663
0.206761 0.206589 0.206192
0.060098 0.060121 0.060299
0.129692 0.129095 0.129142
0.187671 0.188521 0.191095
0.130171 0.129746 0.129890
0.159872 0.160254 0.160403
0.123399 0.121669 0.119981
0.085580 0.085684 0.085545
0.078490 0.083694 0.083784
0.069666 0.069153 0.069039
0.128634 0.128181 0.127846
0.171995 0.170306 0.165374
0.123599 0.122696 0.122975
0.095627 0.095635 0.095769
0.168811 0.167658 0.165485
0.075162 0.075293 0.075171
0.134518 0.135175 0.134941
0.075072 0.075283 0.075192
0.108031 0.107845 0.108516
0.068492 0.069164 0.070905
0.072459 0.072582 0.072829
0.074315 0.076063 0.076763
0.071179 0.071742 0.072771
0.128967 0.128606 0.128595
0.131689 0.131137 0.129970
0.072128 0.072474 0.071691
0.118130 0.118346 0.118197
0.130684 0.130923 0.128799
0.081705 0.082401 0.082825
0.081507 0.081377 0.081420
0.079271 0.079347 0.078945
0.064560 0.064503 0.064752
0.120884 0.122190 0.122071
0.103407 0.103322 0.102617
0.187362 0.184443 0.181761
0.119111 0.118307 0.119220
0.078452 0.078197 0.077322
0.076855 0.077533 0.077854
0.094419 0.094568 0.094547
0.081734 0.082164 0.082289
0.136150 0.136103 0.135743
0.076346 0.077870 0.079218
0.171667 0.172209 0.172998
0.106556 0.106726 0.105917
0.102308 0.101716 0.102179
0.071336 0.072695 0.070923
0.090378 0.090345 0.090321
0.204611 0.204106 0.203541
0.070689 0.070766 0.070469
0.160372 0.163182 0.164085
0.137530 0.137643 0.138177
0.082747 0.082628 0.081465
0.071454 0.071695 0.071256
0.100660 0.100961 0.100991
0.171334 0.171293 0.171183
0.135258 0.136360 0.139203
0.143397 0.143093 0.142905
0.101146 0.099302 0.097212
0.120534 0.120409 0.120131
0.148270 0.148376 0.148143
0.062767 0.062636 0.062602
0.083062 0.082752 0.081633
0.123339 0.124111 0.123548
0.075216 0.074591 0.074366
0.089400 0.091176 0.091450
0.075977 0.075883 0.075178
0.061212 0.061428 0.061354
0.173368 0.173752 0.175163
0.070538 0.070818 0.070923
0.081163 0.084123 0.084480
0.128550 0.127322 0.126761
0.154438 0.155150 0.147988
0.081860 0.081798 0.081641
0.181424 0.182201 0.182245
0.088998 0.088495 0.087565
0.088655 0.089446 0.090333
0.140505 0.141135 0.141628
0.078260 0.078180 0.078412
0.076542 0.076753 0.076865
0.137388 0.137899 0.139452
0.077556 0.078128 0.078494
0.132579 0.134996 0.137375
0.153496 0.152715 0.152668
0.121092 0.120636 0.120357
0.078846 0.078888 0.077725
0.152154 0.150846 0.148513
0.153337 0.153825 0.154818
0.091358 0.090778 0.090604
0.136429 0.135880 0.135552
0.071952 0.072179 0.070997
0.093203 0.093137 0.092782
0.081417 0.081609 0.081312
0.183355 0.182122 0.182424
0.192515 0.190851 0.175103
0.067027 0.065407 0.065368
0.154023 0.153593 0.154001
0.104905 0.105150 0.105622
0.127603 0.127830 0.127942
0.118010 0.129225 0.131368
0.133092 0.133689 0.134779
0.062699 0.063933 0.066069
0.076323 0.074821 0.074859
0.061732 0.061755 0.062163
0.093043 0.093069 0.093218
0.134817 0.135072 0.135402
0.094294 0.093443 0.093731
0.072085 0.071837 0.072190
0.135108 0.133807 0.131337
0.126744 0.126631 0.128295
0.127600 0.127049 0.126065
0.141286 0.138564 0.138872
0.126810 0.127386 0.127657
0.151510 0.151834 0.150119
0.113669 0.113778 0.113195
0.074964 0.075130 0.075943
0.065345 0.065970 0.066316
0.072659 0.072678 0.072309
0.136841 0.136803 0.137075
0.145027 0.146040 0.149179
0.081015 0.081982 0.086088
0.143567 0.144826 0.146668
0.078009 0.077351 0.076706
0.063252 0.063396 0.063886
0.143410 0.143224 0.145420
0.120794 0.120844 0.121600
0.128249 0.128716 0.129910
0.127794 0.128226 0.128290
0.072376 0.071801 0.071629
0.203342 0.206005 0.206073
0.176022 0.175400 0.174236
0.171267 0.171329 0.170788
0.078843 0.078858 0.078846
0.179037 0.178179 0.174083
0.071010 0.070419 0.069359
0.076397 0.075062 0.073607
0.087598 0.087504 0.087374
0.074663 0.074223 0.073019
0.088029 0.088283 0.088462
0.129331 0.128859 0.128575
0.148564 0.148540 0.148740
0.200804 0.216972 0.217202
0.207956 0.205031 0.204427
0.122350 0.121449 0.122477
0.193062 0.194147 0.195280
0.078775 0.072557 0.071863
0.136898 0.136738 0.136456
0.083538 0.084375 0.083624
0.076332 0.076423 0.076314
0.129979 0.130618 0.130614
0.158045 0.158679 0.159535
0.139832 0.141563 0.146661
0.130774 0.130391 0.130753
0.121007 0.120877 0.120931
0.081361 0.081551 0.081337
0.124894 0.125294 0.125559
0.062409 0.062597 0.062764
0.089055 0.089132 0.089601
0.076497 0.076686 0.076560
0.103595 0.102323 0.102006
0.135582 0.134738 0.134537
0.125410 0.124998 0.122101
0.074543 0.074567 0.073960
0.065282 0.065295 0.064732
0.139478 0.140320 0.141821
0.142912 0.142719 0.142861
0.129470 0.129471 0.129988
0.113087 0.111830 0.111783
0.130553 0.128607 0.128516
0.128129 0.139548 0.141439
0.103492 0.103799 0.103886
0.079429 0.079532 0.079638
0.193213 0.193942 0.194299
0.075632 0.075806 0.075684
0.082296 0.082744 0.083235
0.077033 0.076445 0.075712
0.138810 0.148684 0.150990
0.185121 0.187065 0.187655
0.118788 0.116015 0.112234
0.083283 0.082881 0.082569
0.076623 0.077243 0.080024
0.072300 0.072109 0.072214
0.128280 0.128940 0.130006
0.121353 0.121286 0.119693
0.076140 0.076268 0.076179
0.098616 0.098153 0.097739
0.087502 0.096813 0.103633
0.158931 0.157218 0.156539
0.073071 0.073342 0.073956
0.065513 0.064976 0.064790
0.095946 0.096090 0.096107
0.117465 0.117051 0.116330
0.143537 0.142802 0.141928
0.074025 0.073066 0.072923
0.127754 0.128535 0.127776
0.157925 0.159632 0.159833
0.085373 0.085496 0.085407
0.063067 0.063445 0.064008
0.122312 0.122149 0.121759
0.117966 0.117410 0.117362
0.150695 0.150296 0.149980
0.085386 0.083737 0.082904
0.103087 0.102601 0.101658
0.120123 0.119539 0.119706
0.077086 0.077129 0.077620
0.128236 0.128369 0.127882
0.072590 0.072556 0.072279
0.083943 0.084170 0.084291
0.072523 0.072609 0.072184
0.074540 0.074194 0.074222
0.077877 0.077860 0.077591
0.201200 0.201292 0.201085
0.064798 0.065780 0.065933
0.142732 0.143017 0.142303
0.063227 0.063483 0.064180
0.183298 0.183291 0.183296
0.064705 0.065036 0.064585
0.132311 0.132543 0.134265
0.143008 0.143016 0.142869
0.121043 0.121726 0.121644
0.127762 0.127846 0.128037
0.133421 0.132989 0.132458
0.076796 0.077250 0.077640
0.127462 0.127119 0.126773
0.136817 0.136184 0.135312
0.130777 0.136318 0.139306
0.073062 0.073130 0.073188
0.075581 0.075690 0.076555
0.140601 0.141837 0.141373
0.127044 0.127171 0.127317
0.071798 0.071817 0.074261
0.075767 0.075822 0.075728
0.072259 0.071974 0.071930
0.108013 0.107466 0.107251
0.092080 0.091507 0.090370
0.123471 0.123366 0.123404
0.114771 0.114017 0.113671
0.135811 0.136477 0.137048
0.155116 0.154045 0.153525
0.120570 0.121121 0.120990
0.147454 0.147360 0.147358
0.070397 0.070761 0.070467
0.062899 0.063278 0.063220
0.172671 0.173171 0.173183
0.077159 0.077103 0.077115
0.070727 0.070862 0.070016
0.063397 0.063490 0.063028
0.091543 0.091507 0.091223
0.142774 0.142635 0.142798
0.192948 0.194672 0.195515
0.073690 0.074502 0.074437
0.087309 0.087352 0.087443
0.116768 0.116248 0.115553
0.139187 0.132349 0.129755
0.079393 0.079711 0.079897
0.074868 0.075148 0.075404
0.121682 0.121547 0.123739
0.120451 0.121489 0.121466
0.077129 0.077361 0.077354
0.073086 0.073589 0.073373
0.095423 0.095545 0.095044
0.088015 0.087999 0.087962
0.060703 0.061184 0.060299
0.088400 0.088741 0.089518
0.081307 0.081118 0.080979
0.123816 0.124670 0.125080
0.084818 0.083739 0.084674
0.100147 0.099293 0.099370
0.181343 0.181898 0.182514
0.120410 0.119796 0.119522
0.097978 0.089881 0.088900
0.126007 0.125930 0.125665
0.095062 0.094938 0.094835
0.073067 0.072829 0.072539
0.092978 0.093790 0.094324
0.084713 0.085028 0.084853
0.068695 0.068829 0.069419
0.147333 0.149192 0.150192
0.074437 0.074318 0.074506
0.124555 0.124024 0.124069
0.066205 0.066552 0.067071
0.063206 0.063698 0.063712
0.064732 0.064172 0.063901
0.111060 0.110355 0.109918
0.121711 0.122277 0.124276
0.116090 0.114966 0.111641
0.140342 0.137823 0.137770
0.125294 0.125559 0.126003
0.082869 0.083399 0.084164
0.123541 0.122799 0.123406
0.088615 0.089241 0.089206
0.097175 0.096898 0.096818
0.160034 0.159117 0.159279
0.089061 0.088459 0.089093
0.147703 0.146906 0.146929
0.090428 0.090228 0.089392
0.072246 0.072243 0.073495
0.070914 0.070912 0.071644
0.081090 0.080477 0.079753
0.125133 0.125068 0.124749
0.119626 0.119557 0.117965
0.157999 0.158128 0.158346
0.074500 0.074260 0.073641
0.077464 0.077579 0.077689
0.082457 0.081605 0.081013
0.086323 0.086548 0.091459
0.069073 0.068998 0.068612
0.086564 0.085859 0.085340
0.071601 0.072117 0.072274
0.128953 0.128471 0.126357
0.069098 0.068468 0.067442
0.202878 0.202918 0.203289
0.071858 0.071783 0.071978
0.068817 0.068622 0.068453
0.074268 0.073579 0.074185
0.074610 0.074680 0.074267
0.070992 0.068939 0.069999
0.089286 0.089435 0.089331
0.088815 0.088934 0.089156
0.099579 0.099659 0.099749
0.127378 0.126753 0.126753
0.143283 0.143673 0.143662
0.090941 0.090879 0.090879
0.071094 0.071314 0.071921
0.072560 0.072161 0.071702
0.064497 0.064716 0.064953
0.092085 0.092271 0.094974
0.131239 0.132093 0.131349
0.090275 0.089427 0.088367
0.074673 0.074982 0.075375
0.097858 0.106820 0.115683
0.111771 0.106335 0.105864
0.084367 0.083321 0.083281
0.075510 0.075169 0.075931
0.117668 0.117127 0.116755
0.070881 0.070642 0.070813
0.069892 0.069288 0.069503
0.118897 0.120112 0.120234
0.071239 0.070936 0.071489
0.083042 0.082924 0.083684
0.088065 0.088269 0.088158
0.103487 0.104043 0.103259
0.125776 0.124573 0.126005
0.107740 0.108738 0.109024
0.135081 0.135497 0.135111
0.068655 0.068980 0.068654
0.070394 0.071936 0.071306
0.130904 0.131016 0.130936
0.072060 0.072156 0.072387
0.096091 0.096218 0.094956
0.137087 0.139279 0.138380
0.091638 0.092858 0.093767
0.101773 0.101768 0.101278
0.094767 0.092712 0.087138
0.069744 0.069502 0.069234
0.074296 0.074232 0.074075
0.090756 0.090755 0.090761
0.091303 0.090736 0.090624
0.129175 0.127914 0.127085
0.100281 0.101011 0.100546
0.071938 0.073331 0.073637
0.150721 0.150058 0.149989
0.068585 0.066299 0.063892
0.141139 0.140744 0.140346
0.108671 0.108812 0.107683
0.074559 0.075287 0.076219
0.133971 0.135162 0.135186
0.141626 0.142495 0.142589
0.067718 0.067826 0.068617
0.073930 0.073828 0.073829
0.166058 0.165622 0.165708
0.121625 0.120986 0.120715
0.082194 0.081952 0.082953
0.173578 0.173345 0.172998
0.083445 0.083727 0.084437
0.075339 0.074184 0.073353
0.064192 0.065283 0.065604
0.126728 0.125880 0.125241
0.086035 0.086145 0.086086
0.123317 0.123393 0.123222
0.074819 0.074699 0.074884
0.137487 0.135970 0.134737
0.074658 0.074385 0.074325
0.124318 0.122944 0.121062
0.063866 0.062941 0.063218
0.073531 0.074062 0.074338
0.143869 0.142282 0.142484
0.123418 0.123768 0.125351
0.133130 0.132159 0.129901
0.077208 0.077841 0.077582
0.104848 0.105126 0.105439
0.064302 0.064096 0.063647
0.070606 0.070158 0.069501
0.086391 0.086834 0.087694
0.065943 0.066104 0.065749
0.065366 0.064478 0.064277
0.107911 0.109560 0.108816
0.062717 0.063079 0.063633
0.076292 0.078158 0.078784
0.097242 0.097094 0.097366
0.120030 0.119157 0.118681
0.137233 0.137973 0.139102
0.148490 0.149663 0.151547
0.077040 0.077079 0.077375
0.070312 0.070432 0.070374
0.131635 0.131655 0.131890
0.080944 0.080101 0.079008
0.092901 0.092814 0.092860
0.138560 0.139692 0.138918
0.078626 0.078052 0.078829
0.063105 0.062413 0.061835
0.205858 0.205378 0.203686
0.071413 0.073943 0.074374
0.126841 0.126489 0.126097
0.086325 0.086196 0.086539
0.094502 0.093903 0.089520
0.094485 0.095969 0.098086
0.070091 0.069491 0.069472
0.069995 0.069367 0.069072
0.132982 0.132380 0.130804
0.193161 0.192868 0.192958
0.160738 0.159229 0.157966
0.131826 0.132008 0.132155
0.143662 0.143584 0.142773
0.079341 0.080135 0.079187
0.074539 0.074609 0.074926
0.090688 0.103667 0.105714
0.143144 0.142748 0.143287
0.085646 0.085914 0.085910
0.138921 0.138220 0.137933
0.138574 0.136725 0.137061
0.128893 0.128584 0.128594
0.087512 0.090638 0.091846
0.077434 0.076970 0.077411
0.105801 0.106128 0.106559
0.075074 0.074345 0.074094
0.118566 0.118730 0.118500
0.079783 0.079776 0.079406
0.112141 0.112418 0.112492
0.121539 0.121552 0.121110
0.074416 0.074176 0.072743
0.123012 0.122501 0.122554
0.128717 0.128270 0.124812
0.058938 0.057713 0.057618
0.069350 0.069378 0.069410
0.124616 0.125024 0.125525
0.087174 0.084792 0.084861
0.071592 0.072476 0.072570
0.068227 0.069034 0.069356
0.075390 0.076128 0.075668
0.073396 0.073588 0.073512
0.074315 0.074246 0.074345
0.065516 0.064992 0.064922
0.188123 0.187984 0.187841
0.132755 0.134151 0.133209
0.115246 0.116027 0.116242
0.057543 0.057113 0.056941
0.125603 0.126074 0.125800
0.139047 0.138918 0.139158
0.128877 0.129817 0.130704
0.078519 0.078724 0.078697
0.174950 0.178763 0.179692
0.077401 0.077123 0.077343
0.126342 0.126646 0.126128
0.118294 0.118952 0.119159
0.204623 0.206270 0.207182
0.141118 0.142466 0.142782
0.114594 0.114363 0.114201
0.152017 0.151117 0.150909
0.145901 0.146018 0.145696
0.076042 0.075584 0.075713
0.080490 0.080794 0.080835
0.120304 0.120880 0.120863
0.063915 0.064589 0.064897
0.112630 0.112330 0.112506
0.111400 0.113718 0.117705
0.076071 0.076051 0.075970
0.084588 0.083982 0.083711
0.137938 0.136425 0.135839
0.064997 0.065091 0.064349
0.075683 0.075966 0.076511
0.072330 0.071916 0.071010
0.138723 0.138424 0.137817
0.172282 0.170036 0.169673
0.065455 0.064641 0.064916
0.153298 0.155124 0.157426
0.071374 0.071427 0.071171
0.073590 0.073254 0.073484
0.130701 0.130484 0.130444
0.073571 0.073640 0.073575
0.080338 0.079008 0.076893
0.075844 0.076715 0.076596
0.132803 0.132772 0.132962
0.105548 0.104559 0.104891
0.068269 0.067862 0.067249
0.202937 0.203134 0.203898
0.076144 0.075988 0.075719
0.130558 0.130925 0.131230
0.136787 0.136537 0.136804
0.075628 0.076159 0.076022
0.085628 0.086195 0.086342
0.117212 0.115699 0.114848
0.132775 0.133365 0.134762
0.142795 0.142707 0.142669
0.130898 0.131149 0.131445
0.094813 0.097272 0.099882
0.180111 0.176540 0.173849
0.069585 0.069962 0.069064
0.074031 0.074424 0.074456
0.116946 0.113420 0.112844
0.128371 0.128749 0.129765
0.175232 0.174147 0.171678
0.075561 0.075935 0.075962
0.066823 0.067008 0.066605
0.126777 0.128737 0.129385
0.111469 0.111742 0.112022
0.075310 0.075695 0.075672
0.105879 0.106019 0.105329
0.074686 0.074816 0.075151
0.211752 0.212021 0.212918
0.085778 0.085656 0.085806
0.179942 0.181637 0.183713
0.142263 0.142492 0.142879
0.120649 0.120572 0.120719
0.130493 0.127323 0.127204
0.101639 0.101856 0.102808
0.074639 0.074496 0.074561
0.078452 0.078453 0.079012
0.073485 0.073349 0.073494
0.129910 0.130318 0.130724
0.062367 0.062571 0.062761
0.088372 0.088212 0.088310
0.084131 0.084132 0.084335
0.203819 0.203497 0.203299
0.198143 0.197174 0.196300
0.068089 0.067808 0.068165
0.074987 0.075297 0.075370
0.149292 0.149419 0.149313
0.177978 0.179389 0.179799
0.124026 0.125812 0.125705
0.092730 0.092346 0.090895
0.080550 0.081366 0.080600
0.134415 0.134346 0.132545
0.083960 0.083707 0.083535
0.066978 0.067022 0.067068
0.078527 0.078419 0.077332
0.104019 0.102945 0.102245
0.074358 0.074606 0.075745
0.149766 0.150189 0.149936
0.074423 0.074123 0.073689
0.098199 0.098084 0.098287
0.118450 0.119043 0.119120
0.071708 0.072174 0.072402
0.065621 0.065496 0.065836
0.133396 0.134941 0.136150
0.125672 0.126981 0.123795
0.178760 0.180250 0.183393
0.079021 0.078799 0.079052
0.122426 0.121826 0.121538
0.087810 0.087451 0.087558
0.061618 0.061621 0.061857
0.090820 0.090740 0.091118
0.139783 0.139134 0.138167
0.185543 0.185610 0.186228
0.117698 0.117320 0.117401
0.074856 0.075773 0.075944
0.074437 0.074304 0.074332
0.075342 0.075772 0.076601
0.084170 0.084158 0.085208
0.157172 0.167124 0.168567
0.208116 0.207081 0.207162
0.202152 0.202548 0.201951
0.069367 0.069259 0.069289
0.113932 0.113402 0.111901
0.076136 0.076074 0.074849
0.090429 0.090981 0.091203
0.067784 0.067756 0.070086
0.115959 0.115535 0.116969
0.201931 0.203041 0.204072
0.174318 0.176022 0.175400
0.091900 0.091788 0.090875
0.145989 0.145905 0.145726
0.075178 0.074764 0.074541
0.118557 0.118161 0.118510
0.182306 0.182307 0.182246
0.072367 0.072110 0.072258
0.069465 0.069937 0.069753
0.120303 0.120250 0.117138
0.084497 0.084343 0.084497
0.117067 0.116495 0.117470
0.071491 0.070867 0.068585
0.096761 0.096692 0.096703
0.133430 0.136974 0.137837
0.143489 0.143872 0.141349
0.122174 0.122531 0.123091
0.072622 0.073002 0.072989
0.136831 0.136256 0.136584
0.176195 0.176839 0.177530
0.089252 0.088618 0.088028
0.077224 0.077319 0.076665
0.084172 0.084195 0.083927
0.070135 0.070317 0.069706
0.129925 0.128779 0.127487
0.184766 0.184638 0.184892
0.074414 0.074462 0.075085
0.083347 0.082380 0.082461
0.073989 0.074286 0.074667
0.197424 0.198241 0.198197
0.085084 0.084737 0.084351
0.121834 0.122560 0.122470
0.125517 0.125638 0.128090
0.123289 0.123487 0.123538
0.078398 0.078668 0.077985
0.125274 0.124939 0.124894
0.119867 0.120602 0.119714
0.085118 0.086344 0.087331
0.085940 0.085717 0.085632
0.101329 0.101337 0.100931
0.119467 0.119193 0.118221
0.073971 0.074385 0.074564
0.174914 0.175417 0.176813
0.078677 0.079089 0.079367
0.074377 0.074044 0.073730
0.082854 0.081184 0.081637
0.140997 0.139805 0.139740
0.174314 0.175628 0.175067
0.136361 0.137785 0.137388
0.076559 0.076783 0.077110
0.067549 0.067275 0.067197
0.083186 0.083629 0.083534
0.198173 0.199963 0.201647
0.126982 0.127179 0.128089
0.127815 0.125251 0.121983
0.082732 0.083478 0.083215
0.082662 0.082737 0.082863
0.068046 0.067991 0.067791
0.072606 0.072300 0.072503
0.067507 0.067904 0.067776
0.075934 0.075788 0.075784
0.115325 0.117067 0.116495
0.097000 0.096702 0.096797
0.157769 0.158148 0.158972
0.109789 0.109991 0.110236
0.135171 0.133497 0.133484
0.080120 0.081727 0.081734
0.076421 0.075659 0.075701
0.145946 0.145975 0.145849
0.146173 0.142924 0.138179
0.134892 0.135522 0.135870
0.078124 0.076761 0.077036
0.087346 0.086358 0.086140
0.074023 0.074726 0.074929
0.091738 0.092184 0.092430
0.074196 0.074327 0.074332
0.141320 0.139627 0.139532
0.124851 0.124867 0.124083
0.083123 0.082801 0.083242
0.157875 0.157587 0.159368
0.171213 0.170951 0.171097
0.117721 0.117484 0.117028
0.156163 0.154567 0.154511
0.108344 0.106508 0.105271
0.074191 0.074285 0.074534
0.080951 0.081289 0.081146
0.086941 0.086862 0.085782
0.070175 0.070755 0.070728
0.223775 0.224803 0.227201
0.071558 0.071100 0.070942
0.136988 0.137150 0.137221
0.158813 0.157391 0.157075
0.072563 0.072452 0.072664
0.114505 0.112878 0.112682
0.126223 0.125592 0.125399
0.126756 0.126683 0.127062
0.075027 0.075295 0.076320
0.138336 0.137289 0.137054
0.121342 0.121328 0.122027
0.083615 0.084444 0.085693
0.106675 0.106081 0.107719
0.173586 0.172377 0.169818
0.069158 0.067542 0.067294
0.062808 0.062810 0.062933
0.064462 0.064725 0.064543
0.125055 0.124930 0.125255
0.072114 0.071941 0.072787
0.069261 0.068865 0.067595
0.118524 0.118510 0.118567
0.080243 0.080866 0.081829
0.142464 0.142731 0.141359
0.128628 0.128659 0.128244
0.126322 0.125991 0.125815
0.069917 0.070559 0.070731
0.137391 0.137212 0.137969
0.087100 0.087372 0.086496
0.111130 0.110476 0.110265
0.156905 0.157224 0.157701
0.101527 0.102328 0.102262
0.133439 0.134132 0.135116
0.068084 0.068087 0.067850
0.083399 0.083767 0.084342
0.114959 0.114707 0.114654
0.097370 0.097172 0.097617
0.128729 0.128743 0.128982
0.079446 0.079693 0.079712
0.140176 0.140278 0.139832
0.135052 0.134557 0.134234
0.115393 0.119462 0.122789
0.097725 0.097766 0.097162
0.073759 0.074008 0.074967
0.127956 0.128426 0.126116
0.134816 0.135433 0.135347
0.063427 0.063364 0.063197
0.074365 0.074328 0.074401
0.107053 0.114509 0.126223
0.074517 0.074663 0.075009
0.141802 0.147441 0.149812
0.112705 0.111949 0.111800
0.072719 0.072903 0.073191
0.101452 0.101523 0.101439
0.112857 0.110609 0.109491
0.129048 0.128647 0.128038
0.077223 0.077123 0.077215
0.193090 0.193118 0.193520
0.069582 0.069183 0.069417
0.131890 0.131665 0.131312
0.125068 0.124749 0.124667
0.062623 0.062577 0.062808
0.071218 0.071661 0.071488
0.172795 0.172992 0.171995
0.142853 0.142852 0.143543
0.149540 0.149001 0.147453
0.072291 0.072906 0.073017
0.122097 0.122623 0.122900
0.139168 0.138919 0.139966
0.062626 0.063177 0.063344
0.129062 0.128840 0.128892
0.149010 0.149007 0.148209
0.181360 0.180966 0.179677
0.128260 0.127893 0.126952
0.107584 0.107434 0.107214
0.078881 0.078912 0.079157
0.072128 0.072410 0.072485
0.071101 0.071342 0.070608
0.107812 0.107608 0.108625
0.086325 0.086325 0.086196
0.087896 0.087337 0.087183
0.090229 0.088340 0.088258
0.113651 0.113697 0.113788
0.203476 0.202539 0.201789
0.109989 0.110210 0.109642
0.078560 0.076966 0.077436
0.081783 0.081980 0.081882
0.151585 0.153985 0.154381
0.124612 0.124888 0.124229
0.078547 0.078366 0.077712
0.121250 0.123349 0.123394
0.142669 0.142732 0.144039
0.103746 0.103898 0.104327
0.132663 0.131813 0.132109
0.066854 0.066712 0.066621
0.122000 0.121098 0.120051
0.078813 0.079037 0.078949
0.130306 0.130159 0.130623
0.123807 0.124003 0.125852
0.100102 0.099973 0.099605
0.119059 0.119480 0.118805
0.129237 0.128509 0.126881
0.074705 0.074532 0.074258
0.082444 0.083027 0.082764
0.131995 0.131986 0.131859
0.133285 0.133955 0.135512
0.126601 0.126202 0.126516
0.151871 0.152481 0.160069
0.128934 0.130592 0.130554
0.134828 0.134229 0.134559
0.083730 0.082771 0.082726
0.072433 0.072726 0.072047
0.137791 0.135245 0.134778
0.075183 0.074201 0.074606
0.071618 0.071416 0.071763
0.133965 0.130474 0.128827
0.118656 0.118648 0.118185
0.120630 0.120869 0.121540
0.113789 0.112472 0.111865
0.077970 0.078666 0.079924
0.077488 0.078476 0.078421
0.120970 0.120762 0.120047
0.074372 0.074361 0.074712
0.074199 0.074268 0.074008
0.058826 0.058710 0.058330
0.079334 0.078707 0.078461
0.125848 0.126305 0.125403
0.142487 0.139519 0.139490
0.085515 0.085591 0.085461
0.096235 0.091905 0.090795
0.078180 0.078037 0.077922
0.114353 0.113623 0.113356
0.072333 0.072250 0.072230
0.074137 0.075338 0.075283
0.141136 0.141421 0.141906
0.182483 0.181162 0.178385
0.077496 0.077890 0.078655
0.062873 0.062365 0.061850
0.064548 0.064596 0.064131
0.152408 0.154903 0.155769
0.128667 0.128460 0.129321
0.183519 0.184726 0.187633
0.082178 0.082156 0.083187
0.070957 0.071202 0.070436
0.079681 0.080770 0.081017
0.152340 0.152840 0.153500
0.082120 0.082237 0.082440
