0.251243 0.244178 0.242675
0.158416 0.159846 0.161457
0.187893 0.187640 0.187035
0.216524 0.216952 0.218921
0.251969 0.251811 0.248785
0.177162 0.175906 0.175028
0.168336 0.168799 0.168913
0.198141 0.202081 0.205382
0.187398 0.187175 0.194124
0.237635 0.236196 0.234049
0.202017 0.203070 0.205873
0.218704 0.218882 0.218871
0.231307 0.231290 0.230633
0.202485 0.199578 0.198918
0.275277 0.276555 0.277805
0.224928 0.223793 0.222152
0.161490 0.160697 0.158425
0.195232 0.196325 0.195716
0.160153 0.160043 0.158924
0.186280 0.186562 0.187132
0.185503 0.183245 0.178318
0.182731 0.181785 0.182046
0.231278 0.228936 0.228880
0.186672 0.186670 0.187052
0.231620 0.226867 0.226828
0.218461 0.218405 0.214172
0.140480 0.139332 0.140313
0.054637 0.053741 0.053248
0.203169 0.202718 0.201648
0.237131 0.238298 0.239298
0.231406 0.230860 0.231172
0.212280 0.215149 0.215818
0.205224 0.199698 0.197387
0.235904 0.234752 0.235479
0.269947 0.268780 0.269333
0.224612 0.223896 0.221681
0.182337 0.181136 0.185957
0.182176 0.180375 0.177383
0.189350 0.189485 0.188623
0.219577 0.220535 0.220229
0.111904 0.110939 0.111539
0.255565 0.254220 0.253672
0.176975 0.176843 0.176482
0.240634 0.242003 0.242653
0.218871 0.217793 0.215371
0.259940 0.259369 0.258999
0.236852 0.238347 0.237617
0.167606 0.168065 0.168625
0.229709 0.226657 0.226600
0.176160 0.175985 0.177558
0.165690 0.165397 0.165116
0.172578 0.173240 0.173614
0.144769 0.144730 0.143606
0.217622 0.219538 0.219917
0.202841 0.205329 0.206019
0.156792 0.156889 0.155795
0.191213 0.188898 0.187602
0.236274 0.236085 0.237139
0.200416 0.199194 0.199076
0.181183 0.182370 0.182078
0.217732 0.216857 0.211728
0.223388 0.221012 0.221242
0.206249 0.206505 0.206925
0.179632 0.179929 0.180360
0.177086 0.177010 0.176160
0.174192 0.174180 0.174322
0.231687 0.232804 0.233761
0.236756 0.236188 0.235337
0.222345 0.224019 0.224617
0.236325 0.240160 0.239735
0.159889 0.159950 0.161338
0.240132 0.240542 0.240628
0.223399 0.224085 0.226793
0.167011 0.168009 0.168404
0.208570 0.207932 0.203537
0.238981 0.238734 0.237879
0.214917 0.213800 0.213121
0.217635 0.217022 0.216846
0.205816 0.206777 0.209908
0.195967 0.194660 0.196523
0.208005 0.208533 0.208453
0.159014 0.158038 0.159972
0.192256 0.192954 0.194936
0.191792 0.190672 0.189762
0.217510 0.217067 0.217622
0.186185 0.185674 0.177944
0.171401 0.173561 0.175148
0.185911 0.189329 0.192051
0.235636 0.235644 0.235124
0.161281 0.161986 0.162859
0.184580 0.185073 0.185842
0.183438 0.182851 0.180858
0.214161 0.214652 0.216028
0.246041 0.247853 0.242545
0.191431 0.192836 0.192735
0.203730 0.203541 0.201685
0.301770 0.301951 0.302221
0.212942 0.214937 0.214515
0.247057 0.247898 0.248257
0.113301 0.105450 0.106225
0.148067 0.146925 0.143842
0.161930 0.162168 0.162322
0.214116 0.213305 0.212768
0.161661 0.161669 0.161873
0.203142 0.191097 0.188517
0.212296 0.211999 0.210560
0.144621 0.147162 0.148797
0.184539 0.185715 0.186196
0.185099 0.187327 0.187860
0.211250 0.209889 0.209434
0.154389 0.156816 0.159532
0.248838 0.251491 0.251575
0.180887 0.180565 0.180485
0.122384 0.125640 0.126804
0.179409 0.178558 0.176614
0.216507 0.217430 0.218865
0.221895 0.223104 0.221934
0.203522 0.203612 0.204001
0.218128 0.220008 0.221657
0.169390 0.169478 0.167287
0.253125 0.254557 0.254629
0.235637 0.235305 0.233702
0.264190 0.262815 0.262657
0.224284 0.222539 0.221093
0.207468 0.209286 0.209505
0.216465 0.213221 0.210917
0.247853 0.242545 0.238609
0.219510 0.225022 0.225623
0.205196 0.204811 0.205529
0.243877 0.238113 0.234186
0.143978 0.144203 0.145313
0.198301 0.197061 0.198240
0.189448 0.189137 0.188710
0.215458 0.215825 0.216712
0.243022 0.243533 0.246383
0.214379 0.213075 0.213866
0.236444 0.236652 0.238005
0.232962 0.233159 0.233256
0.218742 0.218537 0.220786
0.204316 0.203906 0.204720
0.207740 0.204650 0.203696
0.195769 0.199037 0.202820
0.203899 0.204719 0.204820
0.219601 0.221034 0.220581
0.258482 0.258169 0.257801
0.187729 0.186532 0.185939
0.209558 0.209956 0.210031
0.199219 0.201943 0.204891
0.207689 0.208186 0.203085
0.206272 0.205220 0.205660
0.243756 0.243369 0.241538
0.165237 0.169247 0.169045
0.207196 0.207148 0.208334
0.214553 0.211642 0.211463
0.246155 0.247211 0.245838
0.185795 0.195160 0.197577
0.209569 0.209832 0.209805
0.225269 0.217539 0.214850
0.217843 0.216884 0.214705
0.180397 0.176476 0.176337
0.165322 0.165148 0.164598
0.149574 0.149870 0.152110
0.181620 0.183152 0.187234
0.220898 0.220654 0.218373
0.194558 0.195097 0.195225
0.171267 0.168432 0.167943
0.189403 0.188357 0.186730
0.287790 0.292055 0.291075
0.170463 0.171180 0.171240
0.231254 0.232999 0.231770
0.174814 0.173663 0.172905
0.252210 0.253333 0.255247
0.220493 0.216437 0.213688
0.217661 0.218359 0.221443
0.228169 0.229587 0.229761
0.222867 0.223542 0.223030
0.166261 0.166350 0.165437
0.189860 0.188585 0.187050
0.244665 0.241918 0.239723
0.229464 0.224642 0.222779
0.211983 0.212909 0.212826
0.231346 0.226705 0.225883
0.244358 0.245591 0.245674
0.141374 0.140328 0.139663
0.207860 0.208009 0.208173
0.184222 0.184202 0.184559
0.161931 0.160606 0.160182
0.271433 0.272396 0.272940
0.341834 0.339405 0.338667
0.243771 0.242140 0.241437
0.207244 0.204822 0.204129
0.135811 0.132642 0.131413
0.115400 0.115865 0.117831
0.153148 0.152951 0.152530
0.236314 0.237180 0.232212
0.216388 0.217426 0.217061
0.219025 0.219258 0.219216
0.233447 0.231629 0.217905
0.242517 0.240465 0.239738
0.191868 0.189489 0.185437
0.196760 0.200608 0.202821
0.249367 0.248879 0.250259
0.188122 0.187945 0.186898
0.155182 0.154884 0.155032
0.184450 0.186089 0.186326
0.178839 0.179596 0.180989
0.152702 0.152348 0.152307
0.176140 0.176626 0.177828
0.140210 0.139777 0.139866
0.253906 0.260217 0.260240
0.250046 0.250929 0.248938
0.176045 0.175170 0.174828
0.223638 0.223141 0.223084
0.224275 0.221639 0.219394
0.241918 0.239723 0.239463
0.214395 0.212575 0.211980
0.190378 0.190490 0.192856
0.216118 0.215526 0.215102
0.162769 0.162539 0.162421
0.264309 0.264079 0.263142
0.180422 0.180376 0.180770
0.216353 0.217760 0.216746
0.213251 0.214008 0.214287
0.217800 0.217926 0.217744
0.224114 0.224120 0.221276
0.164601 0.164959 0.165389
0.208582 0.208345 0.208964
0.114132 0.112316 0.105595
0.165031 0.165190 0.166087
0.180485 0.179115 0.175138
0.232690 0.234243 0.233081
0.176387 0.176736 0.176721
0.215210 0.208206 0.209919
0.180671 0.180699 0.180128
0.142851 0.142771 0.143245
0.202586 0.201562 0.201477
0.214123 0.214225 0.214388
0.196763 0.196893 0.197090
0.192517 0.191883 0.192350
0.168404 0.167462 0.167969
0.215442 0.216362 0.217668
0.189290 0.189612 0.188546
0.243665 0.244061 0.243689
0.185990 0.183750 0.183774
0.198510 0.199578 0.198634
0.237208 0.239480 0.243160
0.213345 0.224434 0.226228
0.237360 0.233677 0.229937
0.184232 0.183509 0.180170
0.249997 0.251223 0.251818
0.172306 0.171972 0.171217
0.217827 0.217372 0.217356
0.196482 0.197112 0.198328
0.159385 0.159429 0.159408
0.119145 0.118593 0.116064
0.198597 0.200710 0.200396
0.214138 0.214585 0.214354
0.224312 0.223209 0.220324
0.288835 0.288168 0.288205
0.323947 0.318000 0.316789
0.145191 0.147161 0.148439
0.239091 0.240129 0.239493
0.173868 0.172487 0.170413
0.223378 0.223555 0.224607
0.275539 0.275580 0.275767
0.150330 0.149133 0.148067
0.201569 0.202415 0.199715
0.062483 0.063612 0.064162
0.141784 0.141502 0.141161
0.179007 0.178681 0.178483
0.211613 0.211817 0.212161
0.200559 0.201132 0.201769
0.386770 0.385445 0.385201
0.234722 0.233932 0.230722
0.200143 0.192914 0.191637
0.190067 0.192476 0.193054
0.168059 0.166641 0.165756
0.225108 0.224744 0.226118
0.193333 0.192279 0.181153
0.190340 0.188374 0.192062
0.248915 0.246974 0.246546
0.217495 0.216024 0.216747
0.139555 0.139220 0.137719
0.170103 0.171373 0.172086
0.216276 0.216873 0.216740
0.201316 0.200027 0.199866
0.171967 0.171303 0.170289
0.164060 0.164775 0.164866
0.089138 0.089901 0.091994
0.164680 0.165015 0.165475
0.119401 0.119010 0.116558
0.216982 0.216944 0.216535
0.256249 0.256835 0.256989
0.201943 0.204891 0.205351
0.151215 0.149510 0.149085
0.306151 0.307212 0.307686
0.221925 0.221745 0.221359
0.222237 0.221681 0.222390
0.159285 0.159015 0.159148
0.137719 0.136760 0.135811
0.115309 0.115995 0.118041
0.222919 0.227627 0.226908
0.315847 0.311839 0.308861
0.206019 0.205177 0.204944
0.212001 0.211947 0.211322
0.257209 0.258281 0.261013
0.245782 0.242661 0.240320
0.228742 0.230368 0.229929
0.210416 0.211352 0.212458
0.229575 0.228334 0.227860
0.213907 0.212260 0.211081
0.251436 0.248457 0.246416
0.216293 0.211659 0.211393
0.240491 0.240559 0.240703
0.226889 0.226154 0.225758
0.158245 0.149198 0.140509
0.163530 0.165469 0.165828
0.251817 0.253545 0.253493
0.204036 0.204158 0.203721
0.187720 0.187632 0.187534
0.195146 0.195698 0.194845
0.199037 0.202820 0.206326
0.230734 0.231687 0.232804
0.224459 0.226336 0.227227
0.202803 0.202653 0.202228
0.229119 0.228582 0.228632
0.144745 0.144309 0.143637
0.217921 0.217941 0.217757
0.192418 0.191213 0.188898
0.155363 0.155510 0.155876
0.182541 0.182731 0.181785
0.161843 0.162125 0.161361
0.206632 0.206577 0.206731
0.152212 0.149958 0.149535
0.228275 0.231883 0.232601
0.207133 0.208804 0.209112
0.218087 0.217325 0.216293
0.199223 0.198988 0.199910
0.205530 0.208091 0.213680
0.210300 0.210465 0.200719
0.177601 0.179308 0.180190
0.229308 0.231557 0.227936
0.198367 0.197708 0.197128
0.218535 0.219318 0.218821
0.177544 0.179824 0.183253
0.245950 0.245155 0.245219
0.186860 0.188436 0.190471
0.141782 0.145412 0.148556
0.218143 0.222620 0.222794
0.198517 0.198521 0.197486
0.324362 0.324548 0.325183
0.212203 0.213721 0.214047
0.217570 0.217602 0.217233
0.206075 0.208371 0.214860
0.173469 0.174304 0.171976
0.162495 0.162367 0.162044
0.208368 0.201912 0.202411
0.162963 0.163850 0.163517
0.226166 0.224881 0.223856
0.228676 0.230056 0.226820
0.370739 0.373288 0.375568
0.216768 0.216548 0.215364
0.203153 0.204691 0.200348
0.173465 0.172691 0.171158
0.248212 0.246574 0.244307
0.188390 0.192475 0.200422
0.275032 0.275348 0.282304
0.185405 0.188125 0.188556
0.175627 0.172314 0.169694
0.223153 0.219279 0.217724
0.187911 0.188842 0.189863
0.191439 0.190655 0.189094
0.218727 0.216746 0.213759
0.187884 0.186719 0.189392
0.287380 0.287777 0.288944
0.070716 0.071075 0.071774
0.206431 0.209382 0.210531
0.180716 0.181338 0.183495
0.216126 0.215706 0.215129
0.227176 0.226733 0.227523
0.160835 0.160806 0.160511
0.201736 0.202006 0.202175
0.244968 0.242790 0.240871
0.176823 0.179472 0.180903
0.283819 0.282480 0.280968
0.198905 0.197811 0.197613
0.386595 0.386949 0.391980
0.223607 0.221816 0.221979
0.185559 0.185324 0.182884
0.213614 0.216338 0.216633
0.181574 0.182752 0.184920
0.230205 0.230148 0.230889
0.182963 0.183693 0.185795
0.279084 0.278491 0.279312
0.211087 0.211237 0.211797
0.232031 0.234340 0.234961
0.140785 0.139247 0.131525
0.160028 0.159494 0.159490
0.203337 0.203836 0.205414
0.190661 0.167833 0.167778
0.290942 0.294338 0.296810
0.224978 0.223978 0.223228
0.205665 0.206008 0.208259
0.219199 0.218529 0.218376
0.197912 0.199362 0.201022
0.186474 0.186890 0.185442
0.311877 0.314140 0.317962
0.239814 0.239522 0.239729
0.219398 0.219802 0.219667
0.222301 0.221562 0.220098
0.171757 0.169510 0.169597
0.218704 0.217541 0.218059
0.163432 0.164897 0.165433
0.143746 0.143632 0.143421
0.206567 0.212725 0.217413
0.221789 0.221651 0.221684
0.146980 0.139422 0.127776
0.294887 0.294977 0.296614
0.151946 0.150697 0.150021
0.167377 0.171380 0.173782
0.192971 0.191044 0.190139
0.165983 0.167625 0.167723
0.233737 0.234454 0.235578
0.206072 0.205362 0.205216
0.207779 0.208786 0.209127
0.198836 0.200548 0.202404
0.168859 0.165096 0.164286
0.197235 0.196390 0.196908
0.202220 0.202144 0.202242
0.157282 0.157540 0.155540
0.194089 0.198521 0.201431
0.233669 0.233447 0.231629
0.258428 0.261013 0.265389
0.192868 0.192575 0.192962
0.292329 0.293977 0.294785
0.243588 0.243481 0.243051
0.200710 0.200396 0.201566
0.199397 0.194347 0.191520
0.198055 0.201840 0.204229
0.209638 0.207663 0.208986
0.173371 0.172504 0.174242
0.255252 0.254384 0.256156
0.226468 0.226503 0.224885
0.233056 0.233536 0.248502
0.230823 0.230943 0.232403
0.168625 0.170243 0.170056
0.237258 0.237121 0.241948
0.227926 0.227496 0.225384
0.237343 0.238151 0.237843
0.142091 0.141289 0.136974
0.244786 0.245276 0.245448
0.219360 0.219905 0.219862
0.142519 0.142849 0.142857
0.248174 0.241857 0.241115
0.204773 0.205425 0.205681
0.186015 0.185373 0.187898
0.198393 0.198326 0.198866
0.253997 0.257202 0.257387
0.244700 0.237643 0.237136
0.223084 0.221613 0.221110
0.123283 0.124827 0.126199
0.228354 0.229460 0.229231
0.216555 0.217450 0.218410
0.201559 0.202045 0.203187
0.207865 0.209123 0.208022
0.209859 0.210438 0.210903
0.168146 0.164723 0.154806
0.215198 0.214842 0.215082
0.193944 0.194114 0.195831
0.166022 0.165781 0.164802
0.150051 0.153121 0.154556
0.254414 0.254511 0.254258
0.287951 0.291129 0.290498
0.299258 0.300656 0.301539
0.154938 0.155421 0.158161
0.176432 0.177119 0.181313
0.231918 0.232416 0.234143
0.259228 0.261772 0.265175
0.217626 0.219441 0.215406
0.210373 0.208261 0.196016
0.205855 0.205134 0.204589
0.217402 0.216806 0.217847
0.202763 0.201387 0.200935
0.213066 0.212470 0.211445
0.208048 0.204583 0.201382
0.201362 0.200335 0.199308
0.219401 0.219950 0.219717
0.241339 0.241525 0.236681
0.221521 0.220186 0.219508
0.219966 0.219933 0.220640
0.288255 0.295621 0.296458
0.173244 0.172576 0.170501
0.187468 0.188251 0.188827
0.145628 0.145223 0.145272
0.166685 0.169028 0.170363
0.171890 0.173033 0.172662
0.220195 0.219701 0.221004
0.184432 0.183295 0.183259
0.182242 0.181201 0.179594
0.221324 0.217371 0.216336
0.227977 0.226122 0.226047
0.185936 0.185921 0.186462
0.211261 0.211942 0.213435
0.223775 0.223104 0.222996
0.224577 0.224387 0.221863
0.231617 0.230257 0.229700
0.190919 0.192032 0.192642
0.188454 0.187447 0.186712
0.245684 0.248948 0.249155
0.210902 0.213021 0.211342
0.219620 0.218731 0.217862
0.208804 0.208818 0.208562
0.211538 0.211315 0.211006
0.221586 0.221150 0.220932
0.238516 0.238753 0.238997
0.187783 0.188246 0.190710
0.184268 0.184103 0.183659
0.208625 0.206900 0.206602
0.212353 0.213210 0.211989
0.172460 0.172834 0.174378
0.201323 0.201453 0.202061
0.317244 0.317721 0.320018
0.217114 0.216583 0.216790
0.234516 0.234093 0.234058
0.221340 0.221004 0.220168
0.152254 0.151215 0.149510
0.210484 0.210291 0.209877
0.202403 0.204896 0.209266
0.220461 0.220204 0.220230
0.216803 0.216210 0.214694
0.170383 0.170510 0.170902
0.170338 0.171789 0.172910
0.243133 0.245239 0.245454
0.232863 0.233797 0.234908
0.174950 0.174720 0.174255
0.217260 0.217270 0.217801
0.264255 0.268907 0.269035
0.187941 0.187771 0.187227
0.131189 0.130473 0.129983
0.166927 0.169377 0.170579
0.169187 0.169622 0.166119
0.198808 0.193025 0.192032
0.192393 0.192411 0.193247
0.271934 0.265209 0.264155
0.229810 0.230173 0.232029
0.214191 0.205232 0.205317
0.162931 0.164699 0.163989
0.217839 0.218800 0.219124
0.208838 0.210029 0.210866
0.184901 0.185720 0.186817
0.218079 0.215447 0.214007
0.233674 0.233694 0.233236
0.142712 0.141134 0.139221
0.220992 0.218530 0.216593
0.153489 0.157372 0.165906
0.170617 0.170864 0.170023
0.189380 0.188365 0.185815
0.195458 0.195954 0.195805
0.217464 0.217082 0.216753
0.212385 0.213405 0.212176
0.150089 0.149411 0.149341
0.188235 0.187832 0.188953
0.225580 0.225903 0.226767
0.198944 0.196867 0.192546
0.179701 0.179461 0.179220
0.200881 0.200913 0.200943
0.229014 0.227445 0.225870
0.212325 0.211413 0.210333
0.176721 0.176952 0.179360
0.228287 0.228066 0.231490
0.208472 0.209005 0.209193
0.207089 0.208902 0.209360
0.135901 0.136605 0.134941
0.198250 0.194326 0.193798
0.143739 0.143656 0.143055
0.233523 0.229666 0.217811
0.229449 0.229962 0.230319
0.233821 0.231358 0.232261
0.231055 0.230067 0.229178
0.218351 0.219556 0.220304
0.221182 0.220885 0.222312
0.112948 0.114132 0.112316
0.200928 0.200989 0.200154
0.202899 0.202833 0.201074
0.106221 0.111758 0.117522
0.192977 0.192184 0.190919
0.206620 0.207204 0.208570
0.220241 0.223586 0.223573
0.206228 0.208068 0.207926
0.211793 0.212671 0.213902
0.184103 0.183659 0.183729
0.163694 0.163150 0.165037
0.205341 0.199416 0.195426
0.196249 0.195413 0.194959
0.222860 0.223647 0.223065
0.187427 0.187236 0.184603
0.272390 0.274676 0.275919
0.370453 0.370863 0.370205
0.232066 0.231808 0.232062
0.203615 0.205411 0.205679
0.224286 0.221798 0.220898
0.128090 0.120754 0.122102
0.234476 0.233793 0.233977
0.208380 0.208755 0.209533
0.226460 0.225508 0.224504
0.193592 0.194608 0.196170
0.186324 0.186811 0.187536
0.198337 0.198477 0.197796
0.275461 0.275686 0.274368
0.250449 0.252097 0.254535
0.226876 0.225960 0.225793
0.292005 0.292260 0.289995
0.163202 0.165186 0.169537
0.190816 0.189074 0.188016
0.151855 0.152200 0.151874
0.254492 0.253157 0.254183
0.285867 0.284374 0.285261
0.160715 0.160354 0.158401
0.181338 0.181496 0.181641
0.221846 0.219388 0.218814
0.140141 0.139925 0.140619
0.160748 0.160894 0.161376
0.191627 0.191267 0.192418
0.244567 0.241359 0.240448
0.177575 0.178411 0.177531
0.205974 0.206249 0.206505
0.238800 0.236880 0.236875
0.232702 0.232448 0.237860
0.155108 0.153837 0.152784
0.217618 0.216257 0.216106
0.229019 0.229056 0.228435
0.166545 0.166523 0.166740
0.187563 0.188090 0.187927
0.196328 0.201829 0.203922
0.216920 0.218829 0.217951
0.146904 0.147772 0.148309
0.207802 0.215564 0.212271
0.201121 0.206104 0.206864
0.177886 0.178054 0.178966
0.202846 0.203394 0.203677
0.202699 0.203561 0.203977
0.230775 0.231451 0.232327
0.172498 0.173209 0.175951
0.215582 0.215187 0.216337
0.217555 0.217797 0.215222
0.130669 0.129968 0.128757
0.161174 0.161345 0.161583
0.224393 0.223691 0.223519
0.215085 0.213749 0.214854
0.175858 0.176653 0.176867
0.228460 0.231615 0.232402
0.206538 0.207487 0.207600
0.165412 0.165952 0.166193
0.189958 0.190548 0.191236
0.203666 0.204908 0.205295
0.180516 0.180745 0.182714
0.165319 0.165290 0.164725
0.195462 0.195768 0.196145
0.231843 0.233530 0.231559
0.206054 0.212993 0.215753
0.214977 0.214660 0.213979
0.182334 0.182020 0.181658
0.230319 0.233059 0.232552
0.293702 0.293662 0.294041
0.228294 0.229358 0.230138
0.220110 0.220246 0.218931
0.187798 0.188554 0.188759
0.161937 0.161964 0.162303
0.142155 0.142543 0.142329
0.210400 0.210664 0.210646
0.207515 0.217351 0.222030
0.176880 0.177099 0.177760
0.254750 0.253480 0.251910
0.143770 0.130687 0.114195
0.190811 0.191792 0.190672
0.227575 0.228085 0.223320
0.193054 0.193828 0.194823
0.242084 0.242489 0.236134
0.179087 0.176084 0.172383
0.215502 0.216720 0.216037
0.207296 0.206683 0.205342
0.221191 0.221327 0.221922
0.244865 0.245357 0.245857
0.190373 0.191105 0.191903
0.199548 0.200742 0.199229
0.072717 0.072385 0.071750
0.195019 0.196150 0.194808
0.136750 0.135571 0.132197
0.235385 0.236868 0.236275
0.196331 0.194972 0.195776
0.221478 0.221026 0.217416
0.224836 0.224888 0.225421
0.227628 0.227686 0.227455
0.227318 0.227591 0.227401
0.171959 0.171616 0.172503
0.212479 0.209081 0.208448
0.236024 0.232025 0.229368
0.219317 0.220519 0.221230
0.166840 0.167635 0.165037
0.201058 0.198799 0.197583
0.223014 0.223478 0.225330
0.213371 0.213076 0.212024
0.186049 0.186293 0.184400
0.220017 0.220943 0.220979
0.143739 0.143586 0.143069
0.208401 0.208861 0.211721
0.212356 0.212677 0.211827
0.177648 0.178394 0.178926
0.167626 0.167595 0.169038
0.169311 0.169353 0.169139
0.150988 0.150119 0.148596
0.195543 0.195134 0.193426
0.199351 0.199097 0.198275
0.188257 0.187063 0.186272
0.185242 0.185525 0.189656
0.160244 0.159317 0.158239
0.158357 0.160066 0.159774
0.267681 0.266345 0.262400
0.229934 0.230414 0.230925
0.202921 0.203539 0.205127
0.259265 0.258225 0.258480
0.304254 0.305016 0.306496
0.184695 0.191169 0.195288
0.308985 0.310067 0.311434
0.199783 0.199524 0.199869
0.194948 0.195081 0.194283
0.166580 0.166616 0.166366
0.222116 0.223110 0.221925
0.220658 0.221476 0.220617
0.230790 0.231940 0.232312
0.189903 0.188441 0.188090
0.296614 0.297437 0.298224
0.212340 0.212546 0.213035
0.189189 0.191243 0.193759
0.192536 0.191121 0.191027
0.166078 0.166250 0.166515
0.152565 0.152483 0.150046
0.214312 0.211217 0.207992
0.190662 0.189007 0.186440
0.153203 0.153114 0.152624
0.202280 0.196119 0.193642
0.153039 0.152448 0.152485
0.180697 0.181381 0.181147
0.223030 0.223388 0.221012
0.139958 0.141940 0.142415
0.229725 0.230283 0.230009
0.215506 0.215252 0.218548
0.358584 0.357439 0.351178
0.201968 0.201824 0.202633
0.231273 0.232351 0.234521
0.221573 0.221524 0.222159
0.215788 0.215878 0.216459
0.219912 0.221000 0.223731
0.167168 0.165319 0.165290
0.225873 0.225959 0.229212
0.188218 0.188840 0.195279
0.202597 0.202908 0.202578
0.159419 0.159474 0.159406
0.229647 0.229753 0.229064
0.184396 0.184458 0.184011
0.211141 0.212392 0.213452
0.214043 0.213372 0.213562
0.357864 0.358597 0.356822
0.206094 0.206485 0.208177
0.283019 0.283622 0.282412
0.180229 0.183948 0.184477
0.185423 0.178254 0.177741
0.254365 0.254191 0.254411
0.187175 0.194124 0.206233
0.214123 0.214276 0.214687
0.206861 0.212544 0.211158
0.203502 0.205787 0.205434
0.143234 0.145780 0.145567
0.216950 0.218735 0.218087
0.192955 0.192707 0.193041
0.215586 0.217749 0.219126
0.217732 0.216383 0.216679
0.230857 0.231561 0.232328
0.225339 0.220046 0.220961
0.172979 0.170451 0.170017
0.236450 0.236744 0.235967
0.220617 0.220327 0.219157
0.200100 0.199996 0.201255
0.153909 0.153163 0.150913
0.162441 0.166306 0.166532
0.189909 0.189128 0.187776
0.170871 0.173037 0.173779
0.206539 0.206318 0.206743
0.210040 0.210363 0.211587
0.202985 0.206671 0.203012
0.216259 0.218732 0.219046
0.287795 0.286724 0.286663
0.218490 0.219476 0.220268
0.190867 0.198606 0.198765
0.178292 0.178714 0.179199
0.235651 0.235637 0.235305
0.175092 0.176387 0.177031
0.259129 0.258260 0.258230
0.193388 0.195082 0.195459
0.216529 0.213590 0.212846
0.144223 0.144789 0.145543
0.239480 0.243160 0.244050
0.201586 0.203360 0.202425
0.208804 0.213974 0.218572
0.178607 0.176783 0.175822
0.244138 0.243105 0.244597
0.160265 0.159189 0.159448
0.217418 0.217194 0.214428
0.194536 0.194492 0.194315
0.212863 0.212067 0.212145
0.194520 0.191290 0.189213
0.208859 0.208983 0.208696
0.239104 0.238989 0.238403
0.211024 0.210814 0.210593
0.206370 0.205691 0.205858
0.179804 0.182154 0.182570
0.204409 0.203102 0.197566
0.213536 0.212653 0.210170
0.145482 0.142583 0.141356
0.271964 0.270691 0.269660
0.306182 0.305473 0.302354
0.207978 0.210508 0.208432
0.199801 0.200195 0.201124
0.196023 0.197421 0.196925
0.184421 0.180473 0.176193
0.221801 0.221680 0.221360
0.223097 0.223505 0.225465
0.202375 0.203218 0.202822
0.176364 0.176108 0.176903
0.235272 0.237885 0.237976
0.175740 0.174960 0.175504
0.187815 0.186890 0.185533
0.199091 0.197559 0.197008
0.160215 0.160042 0.158940
0.210912 0.209859 0.210065
0.173075 0.173244 0.172576
0.163750 0.161988 0.161690
0.220105 0.220765 0.222654
0.188765 0.188941 0.189906
0.214672 0.212666 0.212886
0.162492 0.162788 0.159292
0.207341 0.207540 0.208701
0.211222 0.208475 0.205472
0.245748 0.246084 0.246995
0.211006 0.210085 0.210816
0.195998 0.192346 0.190777
0.163405 0.163499 0.164096
0.216154 0.216734 0.217196
0.180400 0.180752 0.180697
0.272819 0.273150 0.273668
0.163990 0.162319 0.162290
0.187473 0.186680 0.186879
0.227499 0.224663 0.223622
0.196746 0.197431 0.196937
0.244488 0.245327 0.244940
0.180230 0.180332 0.179837
0.165254 0.166984 0.164984
0.228339 0.228649 0.229897
0.225841 0.225624 0.225900
0.210646 0.210001 0.211196
0.194322 0.196019 0.195733
0.238439 0.238475 0.238527
0.210420 0.211452 0.211144
0.208846 0.208602 0.208775
0.223216 0.220715 0.218553
0.237139 0.232592 0.232140
0.197777 0.199548 0.203410
0.204248 0.204124 0.203758
0.130850 0.129967 0.129570
0.168590 0.170521 0.172233
0.207729 0.205089 0.204208
0.167053 0.169872 0.170170
0.174856 0.174377 0.174040
0.091536 0.093638 0.097391
0.240700 0.240725 0.240479
0.194419 0.197663 0.199250
0.203432 0.202861 0.202308
0.190920 0.190832 0.188546
0.164198 0.164516 0.162261
0.245144 0.248893 0.249645
0.202623 0.198325 0.199210
0.204930 0.206146 0.205257
0.058532 0.062067 0.063155
0.347383 0.350323 0.351473
0.204722 0.204770 0.204441
0.250176 0.251086 0.252922
0.184693 0.184633 0.183988
0.220369 0.221361 0.220875
0.272800 0.268745 0.266655
0.233191 0.232245 0.216811
0.214274 0.213842 0.213258
0.236788 0.235977 0.235873
0.199525 0.200902 0.203563
0.193426 0.193463 0.194713
0.219077 0.219108 0.218839
0.171258 0.170114 0.170700
0.205695 0.206795 0.206548
0.161556 0.162760 0.163173
0.167283 0.167677 0.167322
0.223912 0.222812 0.223378
0.276436 0.283843 0.285207
0.158925 0.155477 0.155964
0.182759 0.181016 0.180588
0.224311 0.225955 0.228384
0.222485 0.219385 0.217413
0.175367 0.175067 0.175554
0.306498 0.306536 0.307377
0.184416 0.179780 0.176257
0.240542 0.240628 0.240727
0.225968 0.226739 0.227310
0.152993 0.152111 0.151418
0.399340 0.391008 0.390224
0.214764 0.214672 0.212666
0.236672 0.236760 0.235582
0.172089 0.172645 0.172266
0.206046 0.206430 0.206812
0.202631 0.202745 0.202768
0.257693 0.259034 0.261289
0.204281 0.203428 0.201590
0.149818 0.151006 0.150955
0.248540 0.244564 0.243899
0.153889 0.153858 0.155164
0.211439 0.210484 0.210291
0.302985 0.302987 0.303117
0.208670 0.208710 0.208814
0.208054 0.207230 0.209440
0.214204 0.211720 0.204982
0.217834 0.216276 0.216873
0.218530 0.216593 0.216396
0.198387 0.196273 0.194414
0.181312 0.180842 0.181373
0.216308 0.217602 0.216366
0.208298 0.207978 0.210508
0.404699 0.409652 0.409631
0.181089 0.180836 0.181581
0.195929 0.197254 0.197999
0.202012 0.201220 0.201829
0.133639 0.131621 0.130121
0.169491 0.168741 0.168004
0.208610 0.207848 0.205975
0.168738 0.167314 0.166869
0.210718 0.210637 0.210244
0.140002 0.141948 0.143624
0.262738 0.261292 0.259663
0.199892 0.200515 0.200433
0.177711 0.172901 0.174808
0.205724 0.205394 0.203205
0.268776 0.266456 0.265688
0.227155 0.226800 0.225996
0.153222 0.152046 0.151256
0.164083 0.164788 0.165080
0.138847 0.140162 0.143978
0.205928 0.206306 0.206397
0.241725 0.242733 0.244447
0.211830 0.208512 0.209248
0.210356 0.216565 0.219784
0.203557 0.203692 0.203688
0.122467 0.135741 0.137775
0.193923 0.187064 0.187537
0.400566 0.398879 0.399287
0.177263 0.177557 0.179061
0.233609 0.229937 0.229417
0.154037 0.153936 0.153596
0.225643 0.226535 0.227694
0.220277 0.220439 0.219935
0.239847 0.244932 0.243387
0.228672 0.231094 0.231409
0.204704 0.204716 0.204859
0.167038 0.166521 0.165480
0.233370 0.234227 0.234081
0.223035 0.220429 0.219570
0.174596 0.175101 0.177143
0.233605 0.235793 0.235673
0.192581 0.192434 0.191501
0.201430 0.202200 0.203896
0.212340 0.212376 0.212588
0.201049 0.201664 0.202204
0.247908 0.247573 0.246086
0.186794 0.186756 0.186554
0.190071 0.188911 0.189550
0.244892 0.245350 0.248123
0.234683 0.235566 0.235918
0.213972 0.213659 0.213485
0.227211 0.227701 0.230651
0.159830 0.160856 0.161497
0.227408 0.225786 0.224317
0.199204 0.195025 0.196619
0.171119 0.171728 0.171390
0.168736 0.168059 0.166641
0.162103 0.162023 0.163750
0.200767 0.203705 0.205212
0.178799 0.179787 0.180325
0.237431 0.238909 0.238640
0.162072 0.162006 0.160866
0.221196 0.222687 0.223575
0.237206 0.237614 0.237776
0.356522 0.349480 0.345857
0.227642 0.230590 0.229381
0.310803 0.310168 0.308926
0.182471 0.184893 0.183833
