0.092619 0.092465 0.092920
0.118419 0.116884 0.116255
0.034606 0.034627 0.034631
0.065873 0.066002 0.066383
0.112897 0.112350 0.112280
0.087385 0.088072 0.088893
0.063099 0.063115 0.063149
0.133128 0.132556 0.132688
0.105866 0.102194 0.101100
0.035636 0.035663 0.035608
0.100017 0.098685 0.092006
0.019972 0.020151 0.021542
0.106768 0.108394 0.106838
0.027630 0.027603 0.027646
0.032480 0.032953 0.034233
0.082349 0.082523 0.082384
0.092010 0.091812 0.093511
0.105644 0.103359 0.102584
0.088194 0.087445 0.087588
0.030837 0.030944 0.031138
0.085807 0.085551 0.086136
0.111117 0.110883 0.110448
0.069761 0.070749 0.070223
0.068377 0.067876 0.066481
0.041733 0.041719 0.041683
0.090010 0.090570 0.092502
0.088358 0.088411 0.088868
0.041650 0.040385 0.040861
0.125712 0.126275 0.125438
0.098212 0.097867 0.097831
0.040456 0.040452 0.040555
0.087191 0.087488 0.087847
0.074422 0.075209 0.074893
0.133225 0.133197 0.132859
0.095245 0.095464 0.094668
0.096377 0.095116 0.094192
0.040747 0.040708 0.040798
0.131084 0.132110 0.132390
0.055748 0.056149 0.056035
0.063513 0.064292 0.064617
0.154740 0.154106 0.154430
0.051545 0.051566 0.051499
0.029894 0.030249 0.032009
0.082948 0.084622 0.083880
0.144708 0.144494 0.144376
0.127281 0.126722 0.125011
0.045775 0.046697 0.048673
0.035618 0.035869 0.035871
0.087340 0.085147 0.085874
0.042844 0.043038 0.043116
0.100374 0.100600 0.100948
0.123817 0.123637 0.123602
0.085988 0.086128 0.085685
0.072623 0.071738 0.072135
0.093672 0.096696 0.101312
0.043567 0.043733 0.043642
0.117055 0.116754 0.116453
0.060109 0.059594 0.058676
0.130642 0.128323 0.126738
0.144270 0.144143 0.144158
0.092238 0.093649 0.100606
0.036948 0.036427 0.036178
0.139619 0.139278 0.138948
0.059883 0.061768 0.062404
0.038666 0.038328 0.038319
0.094556 0.094813 0.095623
0.147650 0.148737 0.150380
0.035513 0.035346 0.035577
0.035922 0.035846 0.035790
0.042186 0.044385 0.045691
0.075137 0.074590 0.074536
0.043131 0.042444 0.042190
0.065636 0.066381 0.067220
0.028929 0.029328 0.029378
0.120426 0.120191 0.120663
0.027819 0.027825 0.027781
0.109339 0.110150 0.110411
0.062054 0.062070 0.062418
0.045749 0.045356 0.044319
0.114557 0.115334 0.115237
0.039623 0.039592 0.039590
0.070699 0.070959 0.071709
0.143892 0.141070 0.139956
0.078056 0.077960 0.077841
0.033006 0.033134 0.033043
0.127464 0.127586 0.127508
0.096396 0.096384 0.096764
0.041805 0.042275 0.042249
0.132551 0.130292 0.130175
0.092868 0.093000 0.093337
0.064625 0.064896 0.065418
0.129914 0.129967 0.132707
0.138898 0.137065 0.136979
0.094454 0.094470 0.094310
0.106926 0.105922 0.104340
0.081588 0.081821 0.085537
0.089243 0.088848 0.088702
0.108782 0.108541 0.108769
0.051429 0.050834 0.050255
0.048344 0.048404 0.048361
0.032548 0.032841 0.032865
0.081219 0.080426 0.080249
0.100663 0.100288 0.099807
0.038592 0.038524 0.038539
0.038267 0.038550 0.038977
0.081333 0.081491 0.081629
0.022918 0.022797 0.022691
0.094532 0.093782 0.092575
0.114262 0.113335 0.117172
0.148475 0.144900 0.143832
0.151243 0.151903 0.152365
0.063266 0.063914 0.063052
0.103195 0.104068 0.104074
0.073150 0.074038 0.074427
0.086402 0.086319 0.086277
0.043531 0.045077 0.046267
0.068390 0.067821 0.067671
0.125910 0.125596 0.125469
0.094015 0.094194 0.093748
0.161317 0.161362 0.160345
0.039867 0.039837 0.039906
0.036169 0.036169 0.036180
0.140438 0.140886 0.141287
0.026000 0.027284 0.027358
0.060921 0.060939 0.060952
0.133516 0.132542 0.134391
0.138953 0.140424 0.141084
0.104075 0.104474 0.104800
0.038492 0.038396 0.037834
0.063013 0.063232 0.063914
0.138963 0.137191 0.132523
0.078432 0.077180 0.076217
0.065967 0.065950 0.065858
0.139414 0.136973 0.136229
0.068503 0.068185 0.067700
0.129322 0.129167 0.129367
0.086077 0.084362 0.084333
0.040237 0.040515 0.040426
0.153224 0.153291 0.152965
0.102215 0.101079 0.103654
0.088030 0.088981 0.088395
0.098136 0.098706 0.098600
0.133919 0.133787 0.137279
0.134653 0.134954 0.134847
0.125974 0.125428 0.124741
0.108863 0.109246 0.109412
0.092358 0.090466 0.087036
0.041893 0.041746 0.041842
0.078679 0.078906 0.078967
0.041389 0.041273 0.041297
0.095187 0.095131 0.094409
0.147937 0.150573 0.150294
0.080091 0.083024 0.080579
0.036385 0.036482 0.036788
0.059915 0.059329 0.059228
0.112643 0.115334 0.126766
0.071869 0.070653 0.070007
0.041974 0.040958 0.041226
0.039781 0.040819 0.042211
0.037252 0.037178 0.037236
0.052539 0.052534 0.051734
0.110590 0.110569 0.109605
0.034696 0.034740 0.034940
0.070241 0.067953 0.070002
0.114340 0.115248 0.115409
0.036159 0.036240 0.036370
0.101640 0.102062 0.102527
0.102359 0.101555 0.101508
0.056262 0.056107 0.055901
0.098306 0.098379 0.098293
0.153344 0.153253 0.152962
0.077433 0.077127 0.076805
0.072284 0.072119 0.071958
0.089253 0.089281 0.089350
0.039194 0.039471 0.040573
0.033043 0.033034 0.033097
0.126358 0.126576 0.127414
0.138729 0.137808 0.139037
0.085514 0.085584 0.086266
0.089500 0.090199 0.091621
0.070361 0.070505 0.070589
0.148286 0.153718 0.154041
0.036406 0.035486 0.034485
0.043450 0.043383 0.043397
0.065759 0.065898 0.065836
0.038088 0.038086 0.037943
0.088769 0.088431 0.086151
0.032120 0.032359 0.032500
0.126543 0.126564 0.126631
0.041022 0.041606 0.041750
0.133140 0.133864 0.133781
0.045255 0.044884 0.045159
0.117359 0.117704 0.114473
0.036325 0.036177 0.036080
0.074558 0.074861 0.074785
0.074827 0.074915 0.075175
0.058022 0.058722 0.058112
0.033816 0.033659 0.033645
0.049304 0.049470 0.050578
0.099274 0.098653 0.098599
0.071120 0.071344 0.071523
0.144106 0.144061 0.143776
0.092527 0.091335 0.091038
0.088909 0.088720 0.086310
0.098664 0.098971 0.099076
0.065857 0.067567 0.069241
0.073073 0.072513 0.072535
0.111499 0.111151 0.111066
0.122143 0.119241 0.119548
0.089827 0.089674 0.089469
0.077089 0.079344 0.087408
0.040635 0.040899 0.040926
0.084555 0.084455 0.084358
0.034936 0.034968 0.034990
0.100728 0.101053 0.101184
0.096920 0.096747 0.096681
0.027636 0.027728 0.027591
0.099828 0.099915 0.100516
0.034757 0.034817 0.035322
0.038575 0.038335 0.038387
0.150980 0.151224 0.151450
0.071908 0.070891 0.071070
0.069786 0.069700 0.069765
0.063254 0.063259 0.063874
0.091699 0.091775 0.093105
0.078445 0.077773 0.077305
0.100609 0.100620 0.100599
0.058102 0.058204 0.058512
0.033232 0.032730 0.032756
0.107250 0.107368 0.107410
0.072727 0.072227 0.072170
0.083959 0.084634 0.084177
0.062369 0.062539 0.063838
0.086559 0.086924 0.086372
0.078529 0.078638 0.078922
0.105153 0.106450 0.106644
0.049030 0.049504 0.050167
0.116777 0.117436 0.117766
0.112453 0.109776 0.109700
0.039399 0.039200 0.039148
0.039429 0.039617 0.039657
0.098498 0.100326 0.100273
0.065714 0.065323 0.064726
0.064201 0.064179 0.064138
0.072479 0.072133 0.071903
0.037760 0.041139 0.042164
0.041609 0.042006 0.042164
0.097464 0.097115 0.096604
0.036429 0.036628 0.036961
0.048447 0.048208 0.048350
0.037980 0.037946 0.037846
0.131328 0.131972 0.132076
0.091708 0.091877 0.091684
0.106810 0.108013 0.108146
0.097147 0.097104 0.096920
0.057844 0.057606 0.057602
0.097458 0.097154 0.096852
0.148247 0.147599 0.147084
0.089754 0.089854 0.090015
0.126461 0.126562 0.126622
0.064029 0.064229 0.065787
0.025671 0.025778 0.025922
0.061901 0.062091 0.062420
0.045130 0.045129 0.045102
0.145018 0.144856 0.144483
0.040433 0.040249 0.040511
0.071174 0.071066 0.070624
0.112447 0.113059 0.112801
0.042372 0.042510 0.042922
0.111628 0.110957 0.110255
0.037047 0.037163 0.037028
0.074053 0.074725 0.074875
0.108625 0.108191 0.109011
0.091907 0.089578 0.090386
0.040618 0.040689 0.041355
0.089369 0.089503 0.091036
0.146873 0.148340 0.150577
0.063029 0.062577 0.062213
0.108684 0.108561 0.108758
0.045137 0.045153 0.045051
0.141788 0.143774 0.144009
0.114170 0.113558 0.117427
0.084766 0.081552 0.080650
0.038969 0.039036 0.038918
0.105492 0.105509 0.105176
0.148694 0.150602 0.150303
0.113400 0.113092 0.112525
0.070910 0.070018 0.067359
0.074401 0.072991 0.073153
0.088033 0.088762 0.088899
0.103190 0.104605 0.105600
0.089281 0.089350 0.090387
0.116450 0.116199 0.116068
0.035794 0.035725 0.035787
0.062434 0.062359 0.062362
0.153379 0.152916 0.153138
0.104349 0.104696 0.104802
0.131961 0.131817 0.131698
0.112300 0.113083 0.109715
0.042621 0.042553 0.041785
0.038628 0.038715 0.039516
0.110686 0.111579 0.110274
0.160415 0.159922 0.158725
0.079766 0.078927 0.077420
0.067570 0.067066 0.064188
0.133115 0.132515 0.132599
0.041077 0.040050 0.039927
0.035792 0.035842 0.036020
0.124228 0.123968 0.124434
0.056504 0.056705 0.056770
0.071966 0.071229 0.070955
0.034087 0.033695 0.033684
0.094478 0.095582 0.096591
0.095773 0.095088 0.095360
0.080108 0.080098 0.080111
0.149433 0.148885 0.148942
0.098568 0.098830 0.099023
0.043224 0.043683 0.044155
0.038964 0.039063 0.039346
0.114503 0.113290 0.113097
0.057524 0.057475 0.057440
0.074245 0.074154 0.073989
0.092867 0.092528 0.092711
0.034990 0.034996 0.034891
0.063650 0.064356 0.064877
0.110176 0.107783 0.108048
0.037488 0.037459 0.037531
0.035255 0.035650 0.035702
0.086720 0.083626 0.083236
0.123937 0.120734 0.120088
0.074497 0.074573 0.074740
0.098436 0.098070 0.097398
0.040918 0.041180 0.041289
0.146286 0.147611 0.147972
0.141038 0.140674 0.140261
0.040727 0.041047 0.041549
0.073808 0.073717 0.072603
0.042382 0.042331 0.042229
0.039571 0.039378 0.039103
0.063638 0.063743 0.064014
0.075684 0.074572 0.073255
0.101042 0.100789 0.098724
0.087543 0.090053 0.092206
0.090966 0.090948 0.090767
0.042069 0.041993 0.042120
0.076487 0.076599 0.076518
0.071869 0.071682 0.071664
0.082961 0.083134 0.083101
0.029735 0.029409 0.029296
0.044284 0.044640 0.046028
0.134076 0.136525 0.135382
0.081992 0.081945 0.081902
0.034088 0.034174 0.033955
0.097929 0.099565 0.099828
0.045741 0.045875 0.045653
0.039385 0.041637 0.042200
0.096694 0.097859 0.097717
0.088504 0.087596 0.086097
0.048637 0.048485 0.048211
0.072746 0.073377 0.073834
0.110585 0.114577 0.115064
0.039211 0.039340 0.039216
0.113822 0.112522 0.108450
0.132814 0.133027 0.132662
0.039599 0.039646 0.039729
0.113502 0.112309 0.111801
0.113169 0.113163 0.113207
0.151617 0.150555 0.149609
0.137766 0.138022 0.138867
0.023217 0.023394 0.023500
0.035496 0.035591 0.035543
0.041434 0.041368 0.041291
0.114936 0.110436 0.109176
0.037222 0.037307 0.037679
0.036428 0.036233 0.036083
0.028701 0.028769 0.028756
0.077453 0.077014 0.077679
0.069434 0.070593 0.070912
0.040386 0.040346 0.039672
0.052261 0.052310 0.052463
0.038613 0.038659 0.038206
0.037224 0.037165 0.036931
0.104003 0.104183 0.104017
0.128490 0.128515 0.128562
0.038041 0.038031 0.038242
0.112583 0.112633 0.112459
0.095238 0.094185 0.095755
0.124317 0.123994 0.122940
0.087425 0.088172 0.089499
0.060276 0.061454 0.065821
0.065816 0.065775 0.065752
0.148313 0.148307 0.147572
0.050387 0.049433 0.049445
0.062529 0.062378 0.062353
0.071933 0.071679 0.070777
0.147930 0.147978 0.148194
0.083671 0.083997 0.084728
0.115775 0.115733 0.115808
0.114655 0.113629 0.112456
0.072797 0.072831 0.073105
0.151066 0.151038 0.150904
0.071575 0.070927 0.071040
0.115594 0.114786 0.113484
0.077906 0.076672 0.077191
0.072956 0.072962 0.073067
0.060051 0.060563 0.062486
0.077075 0.077527 0.077643
0.086035 0.086763 0.086919
0.127289 0.125962 0.124309
0.119262 0.120414 0.121984
0.122571 0.122865 0.122429
0.040561 0.040185 0.040077
0.144494 0.144376 0.145058
0.034087 0.034058 0.034049
0.053626 0.054175 0.054403
0.137166 0.136900 0.135872
0.112629 0.112343 0.109647
0.037519 0.037585 0.037358
0.127683 0.127218 0.126250
0.058512 0.058883 0.059537
0.040750 0.043298 0.042517
0.093780 0.093246 0.093191
0.041831 0.041660 0.040555
0.040304 0.040362 0.040512
0.028090 0.028339 0.028374
0.089762 0.089387 0.089276
0.042223 0.042127 0.042055
0.092118 0.092375 0.092276
0.046793 0.046260 0.046261
0.114984 0.115307 0.115650
0.142969 0.145820 0.145701
0.098482 0.098837 0.098917
0.040742 0.040757 0.041167
0.046929 0.046725 0.046316
0.094993 0.094652 0.094469
0.037863 0.037841 0.037432
0.038025 0.038071 0.037954
0.039450 0.039610 0.039734
0.119943 0.119777 0.120143
0.028472 0.029676 0.029769
0.034095 0.033939 0.033778
0.033205 0.033255 0.033268
0.097294 0.096155 0.094998
0.102514 0.102302 0.100879
0.105956 0.106255 0.106480
0.036183 0.036203 0.035941
0.100957 0.103567 0.103431
0.041070 0.040462 0.040436
0.133988 0.135061 0.136049
0.039489 0.039289 0.039494
0.060460 0.060321 0.060324
0.130630 0.130059 0.129634
0.033969 0.034733 0.035487
0.099203 0.101744 0.102379
0.037120 0.037087 0.037079
0.073298 0.072988 0.072966
0.048857 0.048055 0.045974
0.029531 0.029880 0.031199
0.110781 0.109199 0.113822
0.108011 0.107529 0.107056
0.089943 0.090014 0.091113
0.076090 0.076109 0.076628
0.082326 0.082171 0.082509
0.038513 0.038569 0.037124
0.097713 0.095730 0.095655
0.079764 0.079885 0.079898
0.134939 0.134934 0.135222
0.086819 0.086160 0.086537
0.123327 0.122756 0.121965
0.093691 0.093303 0.092933
0.037397 0.037847 0.038149
0.138022 0.138867 0.138765
0.093240 0.093623 0.094619
0.130497 0.128973 0.124367
0.120516 0.118843 0.119087
0.095867 0.095212 0.095249
0.034463 0.034269 0.034329
0.092926 0.094272 0.093984
0.114831 0.113979 0.113108
0.153303 0.152289 0.152284
0.057339 0.058541 0.059361
0.092647 0.091693 0.091432
0.087130 0.078529 0.078817
0.136488 0.136586 0.136591
0.031521 0.032196 0.032627
0.037910 0.037570 0.037708
0.056416 0.055875 0.055776
0.118150 0.123077 0.123084
0.156206 0.156325 0.156392
0.090938 0.091056 0.091402
0.120143 0.119593 0.119615
0.102358 0.100939 0.099056
0.070874 0.070954 0.071394
0.095161 0.094859 0.094457
0.122125 0.122151 0.122640
0.098047 0.098474 0.097845
0.043021 0.042873 0.043087
0.037407 0.037399 0.037306
0.025844 0.025010 0.025181
0.122115 0.121943 0.120837
0.052293 0.052300 0.052342
0.093828 0.096202 0.097420
0.114145 0.114142 0.114526
0.116726 0.115253 0.114458
0.061832 0.061237 0.061085
0.144540 0.145282 0.144767
0.092109 0.091855 0.091844
0.041669 0.040832 0.040015
0.142819 0.140611 0.138094
0.074244 0.073888 0.074376
0.073566 0.072810 0.072045
0.065865 0.065804 0.066618
0.115081 0.112472 0.112830
0.106649 0.105715 0.104358
0.114582 0.113962 0.112610
0.032268 0.032520 0.032406
0.070749 0.070223 0.069603
0.119489 0.115858 0.115596
0.077628 0.074439 0.073579
0.112384 0.113701 0.115839
0.055779 0.056129 0.056031
0.071747 0.071914 0.071841
0.040731 0.040724 0.040726
0.037802 0.037747 0.038090
0.093953 0.093897 0.093831
0.066095 0.065108 0.063639
0.063790 0.064046 0.064231
0.082314 0.081492 0.080781
0.075366 0.077089 0.079344
0.077438 0.082943 0.086587
0.076273 0.075312 0.074069
0.128215 0.128228 0.127710
0.130928 0.130610 0.131411
0.077433 0.077638 0.077522
0.025038 0.024914 0.024632
0.080261 0.080235 0.080019
0.049735 0.049642 0.049599
0.051523 0.051607 0.051458
0.040782 0.040783 0.040821
0.107473 0.108030 0.108014
0.044992 0.045049 0.044978
0.055625 0.055419 0.054686
0.138939 0.139391 0.139603
0.075781 0.076214 0.077281
0.046407 0.044810 0.047725
0.121992 0.121041 0.122107
0.099386 0.101809 0.103638
0.048779 0.048042 0.045904
0.026120 0.025881 0.025929
0.120565 0.121476 0.120002
0.114146 0.114577 0.114998
0.100603 0.103410 0.104740
0.042729 0.042813 0.042871
0.069788 0.070433 0.070666
0.040280 0.040338 0.040726
0.074206 0.074739 0.074813
0.153191 0.152064 0.151032
0.057676 0.057465 0.056936
0.127646 0.127488 0.128728
0.061173 0.061379 0.062348
0.099481 0.099456 0.099394
0.110274 0.106874 0.106136
0.023394 0.023500 0.023511
0.037750 0.037070 0.037130
0.025734 0.025600 0.025566
0.056149 0.056035 0.056038
0.111192 0.111419 0.112151
0.087070 0.086737 0.086597
0.067542 0.067431 0.067619
0.049338 0.048811 0.042837
0.106957 0.106394 0.104444
0.050019 0.050051 0.050052
0.040620 0.040919 0.041372
0.037952 0.038075 0.038202
0.111921 0.114183 0.112749
0.044143 0.044021 0.041618
0.114281 0.111876 0.111018
0.136129 0.137914 0.138471
0.137318 0.138369 0.138608
0.059893 0.059606 0.058078
0.041929 0.042529 0.042035
0.047264 0.044329 0.044386
0.072504 0.072589 0.071687
0.105278 0.106030 0.106988
0.114394 0.113584 0.113139
0.088780 0.088846 0.089162
0.085928 0.086801 0.087101
0.146638 0.146286 0.147611
0.040141 0.040302 0.040448
0.134822 0.143713 0.144288
0.033699 0.032865 0.031884
0.023550 0.023623 0.023637
0.064799 0.063434 0.063330
0.110668 0.109457 0.108746
0.026237 0.025896 0.025919
0.037291 0.037568 0.037648
0.106688 0.106601 0.106463
0.123736 0.123541 0.123456
0.093494 0.091623 0.091790
0.073259 0.078839 0.084828
0.071916 0.071954 0.071585
0.037545 0.037777 0.037989
0.066231 0.066686 0.066969
0.074939 0.074554 0.074684
0.035319 0.035418 0.035501
0.066133 0.066212 0.066876
0.092542 0.092302 0.092505
0.111448 0.111294 0.111090
0.048627 0.048485 0.048311
0.145576 0.145634 0.144928
0.078488 0.078489 0.078408
0.110503 0.111020 0.111921
0.098427 0.097948 0.098088
0.097905 0.098234 0.098125
0.062285 0.062337 0.062381
0.112732 0.112695 0.112758
0.116725 0.116426 0.116478
0.070614 0.070266 0.072427
0.089703 0.089438 0.089373
0.141469 0.141627 0.141360
0.037152 0.037368 0.037392
0.037086 0.037091 0.037077
0.037607 0.037446 0.037497
0.073298 0.073781 0.076717
0.071572 0.072238 0.072606
0.116383 0.117689 0.117968
0.131676 0.131102 0.131771
0.076805 0.076630 0.076916
0.090407 0.090333 0.089878
0.034890 0.034834 0.035470
0.030538 0.030638 0.030652
0.041426 0.041322 0.041272
0.056777 0.056811 0.057079
0.115976 0.116595 0.116493
0.037751 0.037470 0.036797
0.132450 0.130266 0.130057
0.034916 0.035649 0.035865
0.106590 0.104243 0.103190
0.104500 0.098387 0.098102
0.078485 0.078088 0.078081
0.038303 0.038510 0.038609
0.104852 0.105025 0.105375
0.065671 0.065826 0.067566
0.071954 0.071585 0.072401
0.037943 0.038174 0.039210
0.094318 0.093496 0.093379
0.074330 0.074115 0.073871
0.085952 0.089314 0.089559
0.114728 0.115168 0.116310
0.085519 0.085562 0.085678
0.040939 0.040391 0.039272
0.121046 0.122137 0.123905
0.160626 0.160756 0.161143
0.089230 0.089757 0.089820
0.096727 0.097551 0.097570
0.083354 0.083671 0.083997
0.066285 0.066749 0.068374
0.106580 0.106526 0.105252
0.134394 0.134314 0.130496
0.132238 0.133191 0.135965
0.073068 0.072998 0.073036
0.074573 0.074740 0.075256
0.110756 0.112242 0.113894
0.061214 0.061187 0.064889
0.067703 0.067755 0.067874
0.156393 0.158460 0.157653
0.081693 0.081219 0.080426
0.071662 0.071971 0.072677
0.027792 0.027759 0.028152
0.129634 0.128789 0.128336
0.102563 0.102853 0.105316
0.131660 0.130912 0.130383
0.141772 0.142388 0.142698
0.033012 0.032966 0.032917
0.064754 0.063676 0.063340
0.048364 0.048343 0.048090
0.100741 0.100900 0.100632
0.089920 0.089904 0.090303
0.072172 0.071899 0.071483
0.039807 0.039489 0.039289
0.029701 0.029650 0.029684
0.048707 0.049200 0.049275
0.121607 0.121881 0.121287
0.087297 0.086999 0.086833
0.067935 0.067988 0.067449
0.129387 0.128888 0.129874
0.078709 0.078653 0.078282
0.122749 0.126255 0.134982
0.120331 0.119852 0.119703
0.098171 0.098097 0.097834
0.112097 0.111421 0.110276
0.074734 0.074256 0.073913
0.097042 0.097045 0.097775
0.052838 0.053313 0.052372
0.041905 0.041486 0.040979
0.039127 0.039163 0.039161
0.044700 0.044677 0.044709
0.037785 0.037987 0.037597
0.073710 0.073423 0.072241
0.090349 0.089762 0.089387
0.091977 0.090843 0.089554
0.043150 0.042475 0.042662
0.073610 0.074257 0.074339
0.107639 0.107489 0.107226
0.110463 0.110553 0.109410
0.040763 0.040675 0.039958
0.066338 0.070858 0.076109
0.048135 0.047766 0.047140
0.111302 0.110819 0.110112
0.042748 0.043124 0.042516
0.077994 0.077764 0.073994
0.117194 0.116676 0.113850
0.089926 0.089126 0.087197
0.057473 0.057618 0.057955
0.041083 0.040958 0.040787
0.032352 0.032229 0.032131
0.041256 0.041187 0.040836
0.042307 0.042508 0.042911
0.089525 0.089617 0.089249
0.060426 0.060427 0.059899
0.096039 0.095909 0.096283
0.112196 0.113695 0.114054
0.038684 0.038994 0.039084
0.043020 0.042969 0.042916
0.061183 0.060787 0.060323
0.066217 0.066728 0.066859
0.074980 0.074642 0.074418
0.095773 0.094317 0.094153
0.073997 0.074786 0.073678
0.072418 0.073781 0.075407
0.094786 0.094716 0.094657
0.111315 0.110597 0.109924
0.118556 0.121845 0.122308
0.097861 0.097496 0.096425
0.027246 0.027401 0.027620
0.099653 0.095600 0.094238
0.074401 0.073468 0.073878
0.089818 0.090327 0.090635
0.037587 0.037420 0.037387
0.089068 0.087969 0.083845
0.139901 0.139718 0.140491
0.088798 0.088809 0.088871
0.079290 0.088280 0.088771
0.130124 0.130608 0.133807
0.120012 0.119055 0.119186
0.077145 0.077203 0.075671
0.082811 0.083229 0.082930
0.064086 0.063787 0.063649
0.098928 0.100080 0.105584
0.096373 0.096629 0.096848
0.050458 0.050176 0.049340
0.122271 0.121942 0.120535
0.135699 0.137281 0.138397
0.036779 0.037088 0.035918
0.114998 0.116301 0.116103
0.051545 0.051513 0.051442
0.094076 0.093740 0.093658
0.078466 0.079393 0.079529
0.072295 0.072252 0.072455
0.042870 0.042975 0.042918
0.042473 0.042028 0.041804
0.034160 0.034618 0.034738
0.060525 0.059939 0.059414
0.125678 0.126006 0.128382
0.102913 0.102747 0.102360
0.077946 0.075717 0.075158
0.087195 0.088341 0.089070
0.065277 0.064152 0.063927
0.043160 0.043350 0.043761
0.083536 0.085149 0.085075
0.027515 0.027738 0.028053
0.041660 0.040555 0.040951
0.072257 0.072030 0.070153
0.084089 0.085068 0.085055
0.038149 0.038088 0.038086
0.129780 0.128676 0.127552
0.099215 0.098872 0.098189
0.087836 0.087863 0.088695
0.115140 0.115239 0.115658
0.037326 0.037378 0.037647
0.132527 0.132237 0.132192
0.138303 0.138647 0.139938
0.134950 0.134869 0.134687
0.073726 0.074121 0.074490
0.089948 0.089780 0.089847
0.075162 0.075164 0.075187
0.078637 0.078485 0.078088
0.113835 0.115112 0.115956
0.040543 0.040699 0.040814
0.134592 0.133283 0.133348
0.068381 0.067706 0.067671
0.088910 0.089600 0.090830
0.078489 0.078512 0.078391
0.074323 0.072619 0.072395
0.084270 0.081698 0.080524
0.037169 0.037607 0.037446
0.092346 0.093371 0.093524
0.144588 0.143865 0.144264
0.097509 0.097546 0.097444
0.121984 0.122107 0.122331
0.045135 0.045069 0.045067
0.033813 0.034042 0.034077
0.044964 0.045143 0.045389
0.096579 0.097308 0.097465
0.115835 0.115547 0.115704
0.038082 0.037977 0.038123
0.127488 0.128728 0.128726
0.092216 0.093973 0.094080
0.040329 0.040195 0.040318
0.025536 0.025551 0.025579
0.070626 0.070186 0.069418
0.132758 0.132386 0.132188
0.033942 0.034118 0.034714
0.089869 0.091496 0.091506
0.147285 0.148543 0.150195
0.048326 0.048345 0.048366
0.125538 0.126443 0.126585
0.038754 0.038974 0.039047
0.075330 0.075423 0.075829
0.113796 0.114560 0.114977
0.039106 0.039002 0.038918
0.071573 0.071485 0.071105
0.087150 0.087222 0.087111
0.117997 0.117364 0.116195
0.034049 0.033645 0.033793
0.028570 0.028518 0.028564
0.037303 0.036420 0.036974
0.043356 0.043392 0.043389
0.075894 0.076425 0.077299
0.034960 0.033657 0.033470
0.118407 0.118265 0.118230
0.056353 0.056134 0.056438
0.081222 0.081484 0.081588
0.056243 0.058459 0.061214
0.043733 0.043642 0.042689
0.141675 0.141682 0.144152
0.097382 0.099355 0.103119
0.046120 0.046553 0.047659
0.089889 0.089793 0.090964
0.096097 0.096218 0.098924
0.149863 0.149732 0.149521
0.039634 0.040235 0.040622
0.038202 0.038239 0.038226
0.086901 0.085675 0.082323
0.104252 0.104894 0.105625
0.063656 0.063723 0.064246
0.123496 0.122706 0.122608
0.110523 0.110386 0.110243
0.095388 0.098146 0.101332
0.078084 0.078196 0.078652
0.097908 0.097689 0.098427
0.139301 0.138517 0.139135
0.105285 0.105402 0.105745
0.066837 0.067315 0.064450
0.099480 0.099470 0.099478
0.088908 0.089088 0.088583
0.087733 0.087922 0.087548
0.110516 0.110330 0.110185
0.036927 0.036813 0.036716
0.098387 0.098260 0.098041
0.097334 0.097361 0.096084
0.050550 0.051456 0.051714
0.036153 0.036056 0.036093
0.043976 0.044225 0.044246
0.129567 0.129468 0.130539
0.123996 0.124379 0.124216
0.122476 0.122382 0.122997
0.103481 0.104877 0.099346
0.100335 0.100552 0.103030
0.041381 0.041612 0.041114
0.067874 0.068203 0.069065
0.100743 0.100779 0.101005
0.154375 0.155250 0.153474
0.044169 0.044517 0.045001
0.083908 0.084856 0.085076
0.099412 0.099374 0.099551
0.034882 0.036185 0.037224
0.138961 0.138996 0.138581
0.038535 0.038665 0.038793
0.096275 0.096393 0.096421
0.106390 0.106242 0.105838
0.105814 0.105975 0.107975
0.148942 0.147145 0.147176
0.078614 0.078931 0.078896
0.118322 0.119387 0.116185
0.072149 0.072434 0.075646
0.089570 0.090058 0.090902
0.068980 0.068986 0.070399
0.068590 0.068559 0.068624
0.115550 0.119497 0.120294
0.098388 0.097039 0.097157
0.108450 0.103503 0.101848
0.094720 0.094682 0.094630
0.134888 0.135516 0.135464
0.071456 0.071295 0.071167
0.155759 0.155891 0.155676
0.071692 0.071435 0.071074
0.075930 0.076784 0.077364
0.054441 0.055225 0.057642
0.094824 0.094369 0.093719
0.105320 0.104082 0.100214
0.070385 0.070531 0.070643
0.092030 0.093157 0.092863
0.086750 0.086414 0.086345
0.134827 0.137080 0.135218
0.082460 0.087821 0.088216
0.132843 0.134173 0.133941
0.033134 0.033043 0.033034
0.074855 0.074861 0.074787
0.082514 0.081977 0.081989
0.040922 0.041468 0.041597
0.120609 0.120298 0.120216
0.120340 0.120797 0.122675
0.070756 0.070752 0.071444
0.098176 0.098898 0.100198
0.033520 0.033324 0.033407
0.039715 0.040945 0.042514
0.049830 0.051675 0.052275
0.095219 0.095159 0.095024
0.044346 0.043707 0.042958
0.083164 0.082407 0.081821
0.073730 0.074784 0.074780
0.109492 0.110040 0.110052
0.035250 0.035212 0.035245
0.039262 0.039090 0.038856
0.070566 0.069684 0.069168
0.082418 0.083487 0.086256
0.125836 0.125243 0.125844
0.116983 0.116038 0.112207
0.044922 0.044827 0.044972
0.126109 0.128222 0.129921
0.076569 0.077075 0.077027
0.136503 0.136492 0.136615
0.077977 0.077836 0.078761
0.098260 0.098041 0.097879
0.116735 0.116044 0.115641
0.113296 0.113342 0.112677
0.078589 0.078579 0.078718
0.077376 0.077320 0.076462
0.066896 0.067142 0.067698
0.036996 0.037356 0.037098
0.116160 0.116922 0.117803
0.036080 0.036077 0.035889
0.071149 0.071034 0.070182
0.042965 0.043019 0.042940
0.119650 0.121226 0.119959
0.063072 0.062462 0.062382
0.088415 0.088309 0.087929
0.057459 0.056940 0.056698
0.087268 0.089854 0.090666
0.070196 0.069423 0.069209
0.111660 0.111631 0.110768
0.077671 0.077554 0.077347
0.077860 0.077894 0.078314
0.129424 0.128690 0.128470
0.150088 0.150678 0.150735
0.097922 0.097794 0.098105
0.130100 0.130234 0.130336
0.077729 0.077839 0.077899
0.096162 0.098180 0.098094
0.087935 0.087258 0.087070
0.067682 0.067666 0.067486
0.096785 0.096643 0.098911
0.041830 0.041755 0.041697
0.040508 0.040615 0.040850
0.156744 0.156206 0.156325
0.071603 0.070359 0.072814
0.041358 0.041348 0.041116
0.127598 0.127861 0.127863
0.096921 0.097025 0.097838
0.027622 0.027491 0.027500
0.121112 0.120870 0.120240
0.065735 0.065894 0.065978
0.032242 0.032173 0.032141
0.083316 0.082981 0.082526
0.048345 0.048366 0.048235
0.051292 0.049465 0.048019
0.107927 0.107452 0.107114
0.152620 0.153828 0.154392
0.087876 0.087530 0.087443
0.113047 0.112281 0.105247
0.095914 0.097627 0.098344
0.094791 0.094601 0.091815
0.082693 0.082593 0.082582
0.031473 0.031786 0.032010
0.119922 0.119788 0.120012
0.066364 0.068083 0.076389
0.038180 0.038403 0.038559
0.073885 0.075403 0.075658
0.057453 0.057019 0.056733
0.117704 0.114473 0.113551
0.093970 0.093687 0.093986
0.091416 0.091223 0.091461
0.118034 0.117816 0.117547
0.081823 0.081181 0.080110
0.032987 0.033244 0.034575
0.100138 0.099954 0.100109
0.076840 0.076856 0.076037
0.128143 0.127841 0.127022
0.134937 0.135498 0.135407
