0.076843 0.076543 0.076561
0.101059 0.099447 0.099072
0.120406 0.120833 0.122112
0.108644 0.111592 0.111283
0.089612 0.090050 0.090106
0.111744 0.110805 0.110603
0.096408 0.094748 0.094339
0.129354 0.129470 0.129901
0.072238 0.072103 0.072325
0.095699 0.095956 0.096804
0.080648 0.080371 0.079416
0.101312 0.102152 0.101953
0.109961 0.109743 0.108790
0.084672 0.084274 0.084582
0.094138 0.094403 0.094250
0.106228 0.106376 0.107628
0.096346 0.096332 0.096609
0.082632 0.083903 0.087507
0.097898 0.098143 0.097552
0.126971 0.126721 0.126804
0.116638 0.114886 0.114364
0.091218 0.091379 0.091824
0.119571 0.120583 0.121005
0.055567 0.054929 0.054386
0.092349 0.092683 0.092662
0.118821 0.120538 0.121017
0.113507 0.113379 0.113240
0.085000 0.084548 0.085213
0.118397 0.117618 0.117198
0.090153 0.089368 0.089262
0.074668 0.074992 0.075295
0.084116 0.084166 0.083816
0.113905 0.113941 0.113952
0.116396 0.117055 0.115787
0.121020 0.120644 0.120585
0.130644 0.130386 0.130331
0.110059 0.110437 0.109692
0.090172 0.089973 0.091857
0.097935 0.098200 0.097217
0.102851 0.102399 0.101745
0.109541 0.109538 0.109805
0.152023 0.152410 0.152563
0.111712 0.112595 0.112101
0.097032 0.097617 0.098066
0.076300 0.076671 0.075664
0.124039 0.124772 0.127117
0.123038 0.122365 0.120775
0.083324 0.082997 0.083006
0.089932 0.090092 0.091114
0.084839 0.085894 0.086286
0.100430 0.099678 0.099665
0.074292 0.074086 0.073336
0.083859 0.083605 0.083315
0.082687 0.082115 0.082183
0.116570 0.116636 0.116752
0.104960 0.104991 0.104926
0.094066 0.095434 0.095619
0.067818 0.069037 0.069297
0.117320 0.117184 0.116291
0.083678 0.083835 0.084617
0.112841 0.112768 0.114395
0.116187 0.115828 0.115594
0.116750 0.116726 0.116691
0.128401 0.128503 0.128802
0.080775 0.080659 0.080530
0.092663 0.093097 0.093527
0.085025 0.085243 0.086273
0.106822 0.106660 0.106951
0.098993 0.099031 0.100634
0.097841 0.097896 0.097200
0.138391 0.139016 0.139107
0.118511 0.117460 0.117378
0.097957 0.098006 0.096787
0.073707 0.073482 0.074076
0.086861 0.085028 0.084300
0.082731 0.082822 0.084059
0.085328 0.085175 0.085590
0.121257 0.121080 0.119438
0.094024 0.094608 0.094654
0.081940 0.082184 0.081880
0.112187 0.112051 0.111705
0.082348 0.083273 0.083944
0.090363 0.090428 0.090530
0.089952 0.090063 0.089141
0.095825 0.095565 0.096309
0.117374 0.116915 0.116127
0.146646 0.145910 0.147544
0.144058 0.143188 0.142922
0.128569 0.127379 0.127728
0.096028 0.096151 0.096541
0.097221 0.097366 0.097438
0.095348 0.096102 0.096406
0.091405 0.090968 0.090422
0.115134 0.116689 0.115797
0.096457 0.095099 0.096538
0.099546 0.101197 0.101727
0.105064 0.105454 0.105434
0.086177 0.085741 0.085161
0.109774 0.109459 0.109282
0.132018 0.132702 0.131568
0.069555 0.069262 0.069453
0.089062 0.089584 0.088338
0.113913 0.113912 0.113914
0.092979 0.091247 0.091222
0.115601 0.114782 0.113446
0.124947 0.125402 0.126980
0.085791 0.084802 0.084339
0.084642 0.084949 0.085222
0.088428 0.088273 0.088214
0.081751 0.082099 0.082295
0.114187 0.114491 0.114758
0.098124 0.095799 0.094060
0.122127 0.121705 0.122043
0.114365 0.114222 0.114307
0.089007 0.088268 0.088012
0.137462 0.137651 0.137034
0.111255 0.111459 0.111288
0.079695 0.080387 0.080891
0.085807 0.085678 0.085854
0.100280 0.096883 0.095716
0.105046 0.104907 0.104871
0.117487 0.118020 0.119522
0.109517 0.108996 0.107646
0.085676 0.086170 0.088433
0.073288 0.073166 0.072722
0.074294 0.073941 0.073780
0.096878 0.096114 0.093982
0.081649 0.080818 0.080899
0.108016 0.107765 0.108109
0.111972 0.111822 0.112386
0.092565 0.092637 0.092463
0.096043 0.094317 0.093893
0.072933 0.073064 0.072959
0.107394 0.109183 0.112523
0.085671 0.085691 0.085533
0.094656 0.094695 0.095052
0.116662 0.117098 0.119212
0.065057 0.064925 0.064678
0.089401 0.090337 0.090552
0.079837 0.080312 0.080673
0.149603 0.149684 0.149015
0.120881 0.120407 0.119248
0.120057 0.121482 0.123214
0.108050 0.108183 0.108197
0.132218 0.131732 0.130747
0.075837 0.075676 0.075345
0.069512 0.069350 0.069352
0.082149 0.081246 0.080549
0.084805 0.083437 0.083621
0.083560 0.083723 0.083758
0.081710 0.081765 0.081607
0.094265 0.094258 0.093991
0.093736 0.094129 0.093584
0.101318 0.100908 0.100836
0.105278 0.105278 0.105585
0.087496 0.088029 0.088481
0.158438 0.158504 0.158148
0.102272 0.101984 0.101540
0.095295 0.095200 0.095202
0.098724 0.098831 0.098846
0.127256 0.127763 0.127343
0.066105 0.065947 0.065804
0.085785 0.085956 0.085850
0.086431 0.086597 0.086819
0.088055 0.088024 0.087769
0.109475 0.109035 0.109879
0.122162 0.120829 0.121893
0.100835 0.100133 0.099655
0.113765 0.113675 0.111985
0.088381 0.088314 0.086818
0.147561 0.146688 0.146848
0.116078 0.116611 0.115631
0.101141 0.100258 0.099639
0.083920 0.083814 0.084406
0.095360 0.094742 0.093967
0.123754 0.123476 0.123627
0.085330 0.085738 0.085517
0.086726 0.084309 0.083866
0.104112 0.103301 0.103826
0.153448 0.153846 0.154053
0.120991 0.120458 0.118467
0.095253 0.094300 0.093365
0.099111 0.098745 0.098207
0.116368 0.116333 0.116262
0.108873 0.101697 0.099753
0.119109 0.119673 0.119938
0.134944 0.133253 0.133766
0.091188 0.091034 0.091282
0.079412 0.079888 0.078710
0.081885 0.082077 0.081876
0.132001 0.132152 0.132087
0.080349 0.079859 0.079727
0.111189 0.111446 0.111205
0.078660 0.078758 0.079001
0.117534 0.116879 0.116727
0.090736 0.090273 0.090081
0.125012 0.125236 0.125267
0.073094 0.072958 0.072617
0.123702 0.123690 0.123100
0.098853 0.098242 0.098418
0.077502 0.077908 0.078074
0.087703 0.086841 0.086485
0.116276 0.116477 0.115564
0.112982 0.113517 0.113498
0.125872 0.124305 0.125503
0.074731 0.074495 0.073651
0.091754 0.091878 0.091899
0.117361 0.116604 0.117289
0.103473 0.103535 0.103628
0.074540 0.073962 0.073612
0.108961 0.109075 0.109294
0.074219 0.073893 0.073149
0.092313 0.092416 0.092139
0.117695 0.118397 0.117618
0.087118 0.088367 0.089353
0.090623 0.092676 0.093354
0.127168 0.125412 0.126854
0.114796 0.114201 0.114023
0.094257 0.095052 0.095286
0.116033 0.115788 0.115656
0.118733 0.120809 0.121107
0.116169 0.116371 0.116318
0.097225 0.097299 0.097363
0.089361 0.089794 0.089665
0.091585 0.091574 0.091624
0.083025 0.084175 0.083578
0.093259 0.090101 0.091023
0.109210 0.108131 0.107036
0.055920 0.055841 0.055560
0.094921 0.094838 0.094834
0.093039 0.090784 0.085598
0.096412 0.096931 0.097092
0.098187 0.097393 0.097623
0.117148 0.117174 0.116182
0.111441 0.109204 0.109602
0.131884 0.131915 0.131974
0.093490 0.094397 0.094840
0.102333 0.102837 0.103740
0.069346 0.069085 0.068735
0.115073 0.115139 0.114757
0.107029 0.107247 0.108017
0.083807 0.085691 0.088622
0.155313 0.156196 0.156965
0.143302 0.143623 0.145539
0.052823 0.053043 0.052969
0.088536 0.088143 0.086773
0.090647 0.091384 0.092925
0.093897 0.093615 0.093624
0.085579 0.085978 0.086307
0.070274 0.070012 0.070176
0.110740 0.110817 0.110977
0.079580 0.079159 0.077479
0.069233 0.069346 0.069085
0.072377 0.071988 0.071862
0.088608 0.088761 0.089242
0.110373 0.110565 0.110367
0.084217 0.084159 0.083245
0.100349 0.099550 0.099404
0.079500 0.080075 0.080723
0.087384 0.087559 0.087871
0.116306 0.117580 0.117931
0.118357 0.118780 0.119707
0.109809 0.110158 0.110173
0.137546 0.136729 0.135936
0.090643 0.090548 0.089260
0.113914 0.113603 0.112949
0.118918 0.117816 0.117566
0.117851 0.118025 0.118027
0.119957 0.119831 0.120427
0.093664 0.093046 0.092440
0.098829 0.098386 0.098366
0.097876 0.097552 0.096911
0.087740 0.086565 0.084639
0.083828 0.082880 0.083582
0.106842 0.107042 0.107210
0.088152 0.088639 0.088243
0.087077 0.086397 0.084783
0.094903 0.094972 0.095785
0.104111 0.104813 0.105671
0.089721 0.088799 0.089740
0.064395 0.064310 0.064135
0.085943 0.085958 0.085984
0.084540 0.083890 0.082966
0.097261 0.097106 0.097325
0.079703 0.079799 0.079492
0.116307 0.116636 0.116832
0.098930 0.099835 0.100606
0.098681 0.102449 0.103213
0.055560 0.056028 0.056330
0.121439 0.122138 0.122867
0.107253 0.108092 0.109580
0.088195 0.088818 0.088634
0.139455 0.138995 0.138397
0.146760 0.151532 0.153746
0.090360 0.090549 0.090504
0.115200 0.115544 0.115573
0.113577 0.113692 0.113628
0.116513 0.115938 0.115135
0.079614 0.079715 0.078995
0.123146 0.122526 0.121286
0.078318 0.078547 0.078557
0.091819 0.091407 0.090837
0.102160 0.103856 0.103951
0.150277 0.150219 0.149700
0.091545 0.091539 0.091160
0.117575 0.117326 0.117660
0.075432 0.075131 0.075445
0.106538 0.109005 0.109905
0.114228 0.114265 0.112924
0.113753 0.114510 0.114131
0.109856 0.109074 0.107013
0.105532 0.105168 0.106906
0.134775 0.133994 0.135831
0.126388 0.126045 0.123084
0.092575 0.092453 0.092535
0.111686 0.111394 0.110639
0.093721 0.093508 0.092621
0.111452 0.112127 0.111956
0.086562 0.086342 0.086805
0.098777 0.098138 0.098119
0.091050 0.091181 0.091652
0.093592 0.093528 0.092896
0.116090 0.116184 0.114339
0.117269 0.117335 0.115860
0.091439 0.091189 0.091290
0.122526 0.122612 0.122732
0.083141 0.083451 0.083631
0.095637 0.095568 0.095660
0.081366 0.084484 0.084685
0.090788 0.090405 0.089981
0.098741 0.098780 0.098886
0.108140 0.106949 0.106841
0.081333 0.083111 0.083328
0.097354 0.097120 0.097292
0.121704 0.121542 0.121468
0.123658 0.122857 0.123269
0.118366 0.118421 0.117680
0.111307 0.111390 0.111853
0.131934 0.131592 0.128382
0.093048 0.094759 0.095970
0.112516 0.111831 0.110054
0.115510 0.115217 0.115233
0.117003 0.117763 0.118040
0.105680 0.108076 0.111341
0.083179 0.083286 0.083137
0.130625 0.130437 0.130315
0.089152 0.089010 0.089383
0.093358 0.093270 0.094814
0.074213 0.073881 0.073894
0.092270 0.091840 0.092020
0.092832 0.093659 0.094050
0.089640 0.089048 0.089493
0.092558 0.092778 0.092967
0.096976 0.097117 0.097623
0.098999 0.102181 0.103284
0.099637 0.100300 0.101377
0.092152 0.092114 0.092467
0.094151 0.093962 0.094186
0.097320 0.096602 0.096817
0.104371 0.104009 0.103650
0.136149 0.136633 0.137247
0.096168 0.096250 0.097008
0.107039 0.107731 0.107785
0.091105 0.091449 0.091776
0.072164 0.072467 0.073508
0.099680 0.101286 0.104454
0.098575 0.098754 0.098158
0.105327 0.105279 0.105725
0.098811 0.099043 0.098715
0.110638 0.110404 0.110080
0.094870 0.094530 0.093927
0.092488 0.092669 0.093130
0.088677 0.088312 0.087960
0.129465 0.129364 0.129732
0.131416 0.131651 0.131954
0.100634 0.104351 0.106644
0.141134 0.141178 0.137420
0.120066 0.119778 0.119431
0.088390 0.087813 0.088087
0.083711 0.084335 0.083583
0.102284 0.102259 0.101313
0.085778 0.085538 0.085504
0.120389 0.121216 0.121010
0.107394 0.107728 0.107593
0.078363 0.078326 0.078694
0.112822 0.113257 0.113896
0.117641 0.117266 0.117957
0.090231 0.090871 0.091254
0.068306 0.069048 0.067755
0.125854 0.125268 0.125183
0.075582 0.075764 0.075958
0.075614 0.075388 0.075178
0.078271 0.078400 0.077881
0.101998 0.102351 0.102256
0.098891 0.098801 0.098048
0.087455 0.087262 0.087671
0.111714 0.113303 0.115567
0.116861 0.117885 0.117099
0.088986 0.088745 0.088680
0.083372 0.083460 0.083160
0.083424 0.083414 0.083690
0.089320 0.089377 0.088862
0.115476 0.115315 0.115283
0.124722 0.125094 0.124927
0.115540 0.113695 0.113711
0.076130 0.076323 0.076790
0.095646 0.094772 0.094561
0.083097 0.083149 0.083311
0.115808 0.115203 0.114786
0.084822 0.085249 0.085261
0.121903 0.121759 0.121633
0.118167 0.118334 0.117838
0.083816 0.084349 0.083922
0.113349 0.113186 0.113300
0.114452 0.114613 0.114747
0.113138 0.111950 0.111713
0.086056 0.085923 0.085517
0.103847 0.103440 0.102409
0.093291 0.093630 0.093890
0.127547 0.127643 0.127335
0.115543 0.114337 0.113968
0.118591 0.118757 0.119797
0.134391 0.134450 0.134208
0.117829 0.116588 0.117693
0.087610 0.087481 0.087477
0.075443 0.075477 0.075777
0.093774 0.094052 0.095384
0.084382 0.085267 0.085629
0.118417 0.118198 0.118438
0.114431 0.113784 0.113123
0.102286 0.101372 0.101162
0.112379 0.112652 0.112612
0.132068 0.131827 0.132160
0.107798 0.107787 0.108760
0.082398 0.082113 0.081623
0.087158 0.087655 0.088483
0.103476 0.103203 0.102513
0.105375 0.105426 0.105203
0.097497 0.097784 0.097706
0.117264 0.120406 0.120833
0.069026 0.068865 0.068733
0.083457 0.083527 0.083745
0.144639 0.144363 0.143579
0.085890 0.087349 0.087701
0.107662 0.107230 0.107073
0.074953 0.075594 0.076051
0.125744 0.124901 0.125025
0.109448 0.109444 0.109546
0.110267 0.110847 0.111460
0.091514 0.092036 0.093004
0.080813 0.080877 0.081006
0.082503 0.082524 0.082280
0.084818 0.084767 0.084903
0.091384 0.092925 0.092616
0.072268 0.072662 0.072637
0.107883 0.107344 0.108929
0.096236 0.095256 0.095341
0.118954 0.119761 0.119780
0.080234 0.080813 0.080877
0.113770 0.112892 0.112836
0.109565 0.108558 0.108483
0.099525 0.100017 0.103626
0.083876 0.084643 0.085579
0.122890 0.124245 0.123798
0.160196 0.160233 0.160399
0.138555 0.138755 0.138904
0.088344 0.087115 0.084288
0.115692 0.112408 0.110791
0.120360 0.120200 0.119652
0.085064 0.083917 0.083763
0.114783 0.114769 0.115819
0.110917 0.111209 0.110981
0.105527 0.105841 0.108045
0.098907 0.099320 0.099297
0.117427 0.116500 0.116609
0.103036 0.103016 0.102740
0.102100 0.101635 0.101167
0.073678 0.073558 0.073849
0.107305 0.107570 0.107536
0.090345 0.090141 0.089788
0.073466 0.073629 0.075277
0.101492 0.101451 0.100877
0.114661 0.114828 0.114606
0.112523 0.113489 0.113431
0.085664 0.085865 0.086030
0.097844 0.097875 0.098505
0.101135 0.102046 0.102059
0.109815 0.111170 0.110912
0.108796 0.108834 0.108880
0.084342 0.086317 0.085839
0.158504 0.158148 0.158596
0.129754 0.130233 0.128964
0.085800 0.085623 0.085551
0.069689 0.070396 0.074069
0.085591 0.085094 0.086318
0.094393 0.093894 0.093447
0.160435 0.160885 0.160072
0.097785 0.098492 0.098028
0.126910 0.125849 0.125412
0.069129 0.068975 0.068788
0.115663 0.114839 0.114019
0.104878 0.104757 0.104388
0.117208 0.117329 0.116420
0.090720 0.092616 0.092841
0.128206 0.128633 0.128850
0.073703 0.073763 0.073466
0.126779 0.126677 0.126588
0.087141 0.087081 0.087423
0.126524 0.125870 0.125593
0.084162 0.083787 0.083118
0.109304 0.106629 0.106017
0.117380 0.116909 0.116634
0.116082 0.115604 0.115433
0.103414 0.101131 0.100563
0.112284 0.112151 0.112178
0.100441 0.099804 0.099647
0.093323 0.093243 0.093106
0.122917 0.124400 0.124168
0.080200 0.080487 0.080294
0.096642 0.094557 0.094414
0.104037 0.103857 0.103770
0.085351 0.085151 0.085754
0.097097 0.097756 0.098034
0.133330 0.134176 0.135395
0.099404 0.096021 0.095822
0.094201 0.094331 0.094183
0.096094 0.095435 0.094890
0.106753 0.108965 0.109989
0.101931 0.102159 0.101975
0.066142 0.066543 0.067203
0.090682 0.090477 0.090711
0.083496 0.081876 0.081424
0.073607 0.073990 0.074179
0.107862 0.108283 0.108089
0.083202 0.082609 0.081558
0.102957 0.104627 0.105778
0.095862 0.095691 0.095436
0.138044 0.137954 0.138073
0.117902 0.117790 0.117248
0.082719 0.081414 0.082550
0.088993 0.088639 0.088714
0.113600 0.113659 0.113688
0.082142 0.082299 0.082149
0.088191 0.090317 0.090914
0.119665 0.120114 0.120417
0.070235 0.069712 0.069190
0.103599 0.103532 0.104202
0.090168 0.090965 0.091035
0.105053 0.104912 0.104945
0.100757 0.100532 0.100507
0.095105 0.095099 0.095111
0.115593 0.115550 0.115472
0.109343 0.109416 0.109061
0.106950 0.107075 0.107837
0.117297 0.117508 0.117380
0.086954 0.086105 0.084931
0.123367 0.123167 0.124021
0.115916 0.116488 0.116190
0.150488 0.149678 0.147587
0.101834 0.102060 0.101545
0.090312 0.090117 0.090360
0.113710 0.112303 0.111924
0.129216 0.127421 0.127010
0.078632 0.078076 0.078218
0.104771 0.104584 0.104235
0.109816 0.110984 0.111505
0.097981 0.099009 0.098314
0.095558 0.095152 0.095578
0.113038 0.112741 0.112594
0.083035 0.082877 0.082273
0.122305 0.123903 0.124857
0.105241 0.105539 0.105604
0.114061 0.114291 0.113851
0.087280 0.086800 0.086549
0.086833 0.087120 0.086181
0.101754 0.101833 0.101772
0.103457 0.103508 0.102712
0.069688 0.069816 0.069932
0.116188 0.116059 0.115796
0.109970 0.110840 0.111813
0.142080 0.142059 0.141967
0.100358 0.100072 0.100344
0.102215 0.101640 0.101528
0.116580 0.115172 0.115236
0.101355 0.098991 0.097238
0.100932 0.100889 0.100920
0.090881 0.090059 0.089777
0.099017 0.095960 0.095854
0.107733 0.109113 0.112892
0.089909 0.090240 0.090342
0.089215 0.089527 0.090013
0.075667 0.075025 0.073954
0.087330 0.087399 0.087240
0.118126 0.118017 0.117253
0.073583 0.073220 0.073177
0.127334 0.127395 0.129378
0.099874 0.101225 0.100726
0.091923 0.091937 0.091520
0.091499 0.091125 0.090878
0.086544 0.085694 0.085391
0.115682 0.115571 0.115330
0.123707 0.123933 0.124135
0.113273 0.113101 0.112225
0.080311 0.080418 0.079882
0.113799 0.113253 0.111508
0.129566 0.129795 0.129843
0.082611 0.082148 0.080593
0.094574 0.094926 0.094415
0.117369 0.117117 0.117054
0.089699 0.089922 0.090096
0.080725 0.078321 0.077981
0.090459 0.091233 0.091034
0.126724 0.126695 0.126607
0.130461 0.128919 0.127910
0.109828 0.110028 0.109948
0.089452 0.089649 0.089518
0.120104 0.119841 0.118988
0.089787 0.089461 0.088997
0.069958 0.070927 0.069172
0.123437 0.125415 0.125653
0.119319 0.118728 0.117504
0.096109 0.096148 0.097092
0.127643 0.127335 0.127348
0.102838 0.101845 0.101676
0.121478 0.121953 0.121420
0.107029 0.106057 0.105866
0.086567 0.087224 0.087320
0.104087 0.103422 0.104322
0.122471 0.122494 0.122662
0.117176 0.117238 0.115633
0.094574 0.094646 0.094604
0.088382 0.088716 0.089406
0.074289 0.074349 0.074369
0.102036 0.101291 0.101310
0.115324 0.115034 0.115438
0.134540 0.134850 0.134762
0.105728 0.109850 0.110132
0.116997 0.117377 0.117575
0.104879 0.104685 0.108172
0.098287 0.099000 0.098998
0.092871 0.093363 0.093458
0.092226 0.092233 0.090945
0.104975 0.104858 0.106743
0.088713 0.088855 0.088807
0.146835 0.147122 0.147209
0.110286 0.110660 0.110683
0.087649 0.086783 0.084963
0.120384 0.119827 0.120517
0.075007 0.074475 0.074328
0.119128 0.122305 0.123903
0.086055 0.086151 0.085836
0.073991 0.074161 0.074417
0.111050 0.112744 0.112593
0.091831 0.092401 0.092975
0.132762 0.132746 0.133128
0.099896 0.099067 0.099682
0.110373 0.110991 0.110836
0.114781 0.114866 0.115557
0.085216 0.084711 0.084111
0.084160 0.084463 0.084494
0.086170 0.086165 0.086596
0.101006 0.099945 0.099003
0.119411 0.118738 0.118899
0.117714 0.117157 0.117051
0.130309 0.129967 0.129743
0.101517 0.101412 0.100819
0.091505 0.092084 0.092944
0.092917 0.092889 0.093053
0.100362 0.100475 0.100258
0.078136 0.078954 0.078643
0.103654 0.104074 0.105800
0.099615 0.099787 0.098850
0.090106 0.090871 0.090805
0.091657 0.092009 0.092462
0.089329 0.090083 0.090667
0.094557 0.094414 0.094432
0.070862 0.070935 0.070437
0.112803 0.113589 0.115847
0.115387 0.115864 0.116867
0.088148 0.088498 0.089246
0.083861 0.083322 0.083707
0.101573 0.101694 0.101519
0.118959 0.118952 0.119198
0.111444 0.112198 0.112167
0.077889 0.078050 0.077919
0.083325 0.083463 0.083508
0.115914 0.115040 0.115228
0.112692 0.113137 0.112829
0.114467 0.113301 0.112969
0.114379 0.113267 0.113339
0.098325 0.100431 0.103031
0.081132 0.080858 0.081111
0.111718 0.111707 0.112422
0.115621 0.115930 0.116039
0.092137 0.091971 0.091827
0.093123 0.093989 0.094527
0.150841 0.150411 0.150333
0.100487 0.100035 0.101022
0.118855 0.117963 0.118531
0.122449 0.122029 0.121358
0.073194 0.073425 0.071795
0.086164 0.086040 0.086135
0.119194 0.118700 0.112691
0.109819 0.108949 0.107692
0.114090 0.115139 0.116408
0.108965 0.109989 0.110787
0.088738 0.088761 0.088871
0.095903 0.095771 0.096472
0.117422 0.117224 0.116973
0.116842 0.118637 0.119427
0.134497 0.134301 0.134015
0.097632 0.097189 0.096665
0.126168 0.125937 0.125127
0.100311 0.101173 0.101000
0.090705 0.090133 0.090455
0.086154 0.086198 0.086363
0.105287 0.104232 0.104437
0.084887 0.083895 0.083600
0.084309 0.083866 0.083358
0.121167 0.120743 0.121498
0.101852 0.102160 0.102158
0.088122 0.087957 0.087787
0.094017 0.093944 0.090665
0.118934 0.119790 0.119067
0.133359 0.132663 0.132109
0.114277 0.114564 0.114619
0.087090 0.087514 0.089216
0.073827 0.073706 0.073412
0.120186 0.119644 0.119334
0.120316 0.119367 0.119933
0.087250 0.089131 0.089705
0.116648 0.116753 0.117434
0.098186 0.099884 0.100978
0.094096 0.093965 0.093926
0.113505 0.113806 0.113652
0.132571 0.130817 0.131514
0.080711 0.083326 0.082176
0.096406 0.096250 0.097383
0.098706 0.097811 0.097403
0.134427 0.134826 0.134904
0.084424 0.084710 0.086787
0.117853 0.117798 0.117383
0.106784 0.106862 0.107175
0.100157 0.100445 0.100232
0.095550 0.095669 0.096316
0.110574 0.113617 0.113517
0.093334 0.092875 0.092799
0.116894 0.116605 0.116450
0.085972 0.085833 0.086365
0.099043 0.098715 0.096708
0.117700 0.118421 0.118605
0.092938 0.093636 0.093819
0.077073 0.077282 0.077161
0.087510 0.088026 0.088385
0.094320 0.094681 0.094765
0.111945 0.112506 0.113023
0.134626 0.134309 0.134585
0.093585 0.094230 0.093516
0.108574 0.107947 0.108135
0.086625 0.085541 0.085009
0.096496 0.096438 0.096484
0.086304 0.086917 0.086797
0.098962 0.100094 0.100165
0.117075 0.118436 0.118324
0.108859 0.108906 0.108773
0.095857 0.095812 0.095804
0.098533 0.097824 0.096357
0.153847 0.154154 0.153147
0.114186 0.117706 0.118735
0.090263 0.090473 0.090371
0.128029 0.128140 0.127805
0.092554 0.092232 0.092261
0.103575 0.104113 0.103779
0.103925 0.104460 0.104595
0.094856 0.095792 0.095042
0.110302 0.111124 0.111026
0.102726 0.102848 0.100846
0.089162 0.090212 0.090847
0.116553 0.116342 0.116143
0.106627 0.107612 0.108181
0.096928 0.097013 0.096964
0.092913 0.092512 0.092018
0.083142 0.083430 0.083172
0.080806 0.079892 0.079697
0.134826 0.134904 0.135086
0.084115 0.084184 0.083912
0.081110 0.081256 0.081470
0.124270 0.125081 0.125271
0.087312 0.088332 0.088344
0.137242 0.133984 0.131456
0.146451 0.145636 0.145379
0.114082 0.113488 0.112764
0.094205 0.093721 0.093547
0.076631 0.077803 0.079193
0.109506 0.111543 0.111282
0.099284 0.099947 0.100309
0.092159 0.092102 0.092162
0.114841 0.114099 0.113071
0.096354 0.096357 0.097497
0.080993 0.081832 0.080714
0.093552 0.092525 0.092402
0.118704 0.119231 0.118879
0.086941 0.086850 0.086507
0.096606 0.096720 0.098074
0.084130 0.084118 0.083355
0.088096 0.088203 0.088646
0.114152 0.114208 0.114595
0.105784 0.105812 0.105453
0.142634 0.142676 0.142587
0.148638 0.148560 0.149359
0.117278 0.117282 0.116669
0.105218 0.107401 0.107147
0.080881 0.080128 0.080855
0.066635 0.066144 0.065967
0.106633 0.107004 0.106392
0.093933 0.094154 0.094885
0.113268 0.113475 0.113956
0.127334 0.127193 0.126648
0.076245 0.076427 0.076351
0.095452 0.096102 0.096976
0.096775 0.096936 0.096521
0.091610 0.090983 0.090973
0.091429 0.089827 0.089730
0.106708 0.106226 0.106691
0.073343 0.073276 0.073114
0.114066 0.114445 0.114211
0.086228 0.085664 0.085820
0.130196 0.129634 0.129959
0.087927 0.087775 0.087421
0.067929 0.068472 0.068803
0.092927 0.091704 0.091656
0.112998 0.113030 0.113327
0.123993 0.125052 0.127954
0.083407 0.083754 0.083992
0.100583 0.100182 0.099713
0.091122 0.091607 0.091824
0.109623 0.109341 0.109045
0.098134 0.096702 0.096546
0.106737 0.106860 0.108131
0.074586 0.074541 0.074166
0.089498 0.089369 0.089057
0.101747 0.102464 0.102758
0.116691 0.116549 0.117094
0.111868 0.112150 0.112355
0.066613 0.066756 0.066678
0.085517 0.085401 0.085622
0.087739 0.086607 0.086606
0.097555 0.096989 0.096509
0.116688 0.116001 0.115729
0.118645 0.117957 0.118379
0.077548 0.077461 0.076916
0.095209 0.094837 0.094903
0.055025 0.054714 0.055517
0.114565 0.114762 0.115344
0.086349 0.086304 0.087345
0.086726 0.086567 0.086584
0.111525 0.111150 0.111230
0.070820 0.081797 0.086703
0.085882 0.086118 0.086191
0.106015 0.106305 0.106990
0.086041 0.086724 0.090312
0.087804 0.086910 0.087106
0.086613 0.084251 0.084810
0.088155 0.087814 0.087143
0.115875 0.115318 0.115467
0.142409 0.141939 0.141754
0.150644 0.150446 0.150205
0.094530 0.094582 0.094393
0.095709 0.095859 0.095820
0.089128 0.089123 0.089057
0.090373 0.090783 0.090366
0.119153 0.118762 0.120830
0.092453 0.092641 0.093743
0.078552 0.079016 0.079052
0.098636 0.098342 0.098716
0.108148 0.112242 0.113492
0.109089 0.109254 0.109210
0.126487 0.126563 0.126888
0.079030 0.078572 0.078803
0.086671 0.085719 0.086260
0.087524 0.087767 0.087287
0.098534 0.098736 0.098846
0.140486 0.139871 0.140734
0.085103 0.085779 0.085669
0.131555 0.132737 0.132820
0.092118 0.092610 0.092470
0.104038 0.103609 0.103338
0.132039 0.132380 0.132335
0.124399 0.125386 0.125393
0.093819 0.094091 0.094357
0.126838 0.128001 0.128258
0.085627 0.087486 0.087702
0.086460 0.086451 0.086645
0.117394 0.117107 0.117110
0.096695 0.096007 0.095073
0.099879 0.100549 0.104099
0.105047 0.104255 0.101644
0.111172 0.110849 0.110697
0.085156 0.085117 0.085564
0.081645 0.081721 0.081646
0.084874 0.085454 0.085509
0.083068 0.082709 0.082293
0.092518 0.093748 0.093487
0.083385 0.083282 0.083415
0.114249 0.114657 0.115250
0.139706 0.140577 0.140656
0.090967 0.090330 0.090265
0.084901 0.084839 0.085137
0.109482 0.109079 0.110028
0.104940 0.105249 0.105470
0.114527 0.114877 0.115490
0.065047 0.064868 0.064629
0.096463 0.096345 0.096051
0.113919 0.113393 0.113454
0.073641 0.073459 0.072896
0.113648 0.113777 0.114342
0.072632 0.072259 0.071747
0.071032 0.070302 0.069546
0.083963 0.083570 0.083467
0.114160 0.114266 0.115503
0.091958 0.091685 0.090990
0.085976 0.086590 0.086583
0.153052 0.151222 0.150988
0.102792 0.102948 0.102868
0.074329 0.074580 0.074493
0.122329 0.121544 0.121409
0.085213 0.085122 0.085004
0.076518 0.077114 0.077202
0.111297 0.111127 0.112753
0.077564 0.075512 0.075362
0.123386 0.123689 0.123808
0.084498 0.084388 0.084638
0.128570 0.128254 0.129199
0.076515 0.076670 0.076254
0.105319 0.105246 0.104927
0.104979 0.104145 0.102808
0.086479 0.086267 0.086224
0.090446 0.088759 0.088636
0.076657 0.076920 0.077213
0.083315 0.084007 0.084018
0.132061 0.131827 0.132204
0.084667 0.084317 0.084307
0.073562 0.073500 0.073545
0.068289 0.068794 0.068563
0.108814 0.109597 0.109623
0.079177 0.079568 0.079806
0.093719 0.093985 0.093846
0.085993 0.085239 0.084680
0.079621 0.080108 0.080054
0.105657 0.105534 0.105054
0.115238 0.115226 0.114500
0.108988 0.110869 0.113318
0.093166 0.093604 0.092421
0.144205 0.145646 0.145668
0.108662 0.107360 0.105839
0.076143 0.076062 0.075618
0.101383 0.102246 0.101919
0.091834 0.091916 0.091819
0.084936 0.084131 0.083132
0.097092 0.097447 0.097671
0.110233 0.109316 0.108628
0.091783 0.091762 0.091701
0.126990 0.126077 0.123144
0.082186 0.083541 0.082926
0.127795 0.128027 0.128847
0.092579 0.092744 0.092387
0.084303 0.084177 0.084029
0.148521 0.148225 0.148920
0.103128 0.100940 0.098947
0.057668 0.057564 0.056686
0.082492 0.083025 0.084175
0.116413 0.116795 0.116052
0.127950 0.129668 0.130860
0.112569 0.111681 0.109883
0.127954 0.129238 0.131003
0.131819 0.132356 0.132623
0.132407 0.132322 0.132766
0.116558 0.116204 0.115643
0.084425 0.084518 0.083455
0.086331 0.086489 0.086710
0.115637 0.115677 0.115342
0.068807 0.068604 0.067824
0.090212 0.091129 0.092756
0.131045 0.131517 0.132381
0.081200 0.081364 0.080922
0.072714 0.072780 0.072655
0.083610 0.083556 0.082994
0.152563 0.152663 0.152975
0.090947 0.089529 0.087991
0.097522 0.097578 0.097295
0.114367 0.114308 0.114072
0.094680 0.094189 0.093866
0.098146 0.098530 0.099121
0.087012 0.086626 0.086757
0.087780 0.089268 0.088320
0.100404 0.100043 0.100129
0.143514 0.144223 0.144980
0.113705 0.113429 0.113486
0.117940 0.117638 0.117788
0.093317 0.093019 0.093467
