0.088146 0.088553 0.089115
0.082916 0.082899 0.083130
0.254945 0.253624 0.253515
0.083391 0.083218 0.082688
0.083143 0.083022 0.081236
0.096488 0.095021 0.095169
0.119757 0.121299 0.120681
0.081267 0.081073 0.081395
0.166965 0.165498 0.164973
0.103313 0.103559 0.103625
0.085839 0.085887 0.086060
0.083984 0.084110 0.084108
0.066433 0.066737 0.068046
0.135182 0.134966 0.134538
0.081110 0.080874 0.080555
0.215336 0.215642 0.216198
0.086959 0.085576 0.085674
0.167869 0.167616 0.167391
0.089142 0.088813 0.088486
0.083360 0.083847 0.084097
0.080841 0.079540 0.079121
0.105169 0.105310 0.104835
0.074275 0.073904 0.073855
0.092812 0.092544 0.092517
0.175207 0.175426 0.176497
0.082261 0.082132 0.082436
0.152688 0.152408 0.151212
0.069730 0.069816 0.070024
0.087015 0.087903 0.089706
0.084749 0.085694 0.086242
0.086060 0.085907 0.085636
0.143134 0.142031 0.141889
0.078843 0.081908 0.082882
0.078132 0.077581 0.077149
0.106472 0.106782 0.107798
0.134306 0.132575 0.131858
0.158089 0.158037 0.158224
0.084947 0.084970 0.084883
0.086114 0.086311 0.086508
0.108578 0.109826 0.109495
0.088867 0.089219 0.089302
0.132753 0.134837 0.137212
0.080895 0.081324 0.080618
0.165134 0.162166 0.161071
0.130443 0.131375 0.133924
0.180129 0.175952 0.172833
0.085905 0.086184 0.086286
0.094994 0.094784 0.094422
0.078861 0.078841 0.078616
0.153319 0.152524 0.151693
0.081571 0.082271 0.082323
0.089241 0.089641 0.089696
0.093820 0.092027 0.089033
0.148371 0.148457 0.151309
0.082242 0.082370 0.082434
0.084104 0.083721 0.083805
0.083108 0.082766 0.082578
0.172469 0.170964 0.169295
0.086029 0.086295 0.086254
0.080758 0.080973 0.081467
0.092501 0.092469 0.092314
0.104227 0.104275 0.104211
0.087490 0.087751 0.087991
0.106238 0.106578 0.106283
0.086110 0.085597 0.085710
0.081643 0.081658 0.081401
0.083284 0.083457 0.084248
0.130244 0.130594 0.129877
0.070391 0.070069 0.069727
0.090983 0.091750 0.092285
0.088447 0.087831 0.087900
0.084201 0.084518 0.084378
0.171653 0.170611 0.169622
0.087566 0.086933 0.086904
0.092338 0.091489 0.090741
0.173199 0.173704 0.174665
0.188855 0.184918 0.183920
0.134875 0.132755 0.132418
0.091858 0.093086 0.094389
0.153046 0.153497 0.152668
0.155824 0.156328 0.156338
0.197604 0.198207 0.197857
0.080247 0.080017 0.080154
0.255540 0.255461 0.255211
0.120873 0.120894 0.117594
0.090654 0.090980 0.090554
0.096609 0.096996 0.097116
0.066695 0.067533 0.068151
0.081099 0.080773 0.080754
0.072142 0.072169 0.071646
0.119120 0.120644 0.125785
0.092365 0.092150 0.092567
0.084030 0.084526 0.083513
0.197734 0.197626 0.196224
0.132805 0.133588 0.134001
0.075889 0.075156 0.075159
0.086869 0.083680 0.083392
0.097874 0.097649 0.098481
0.096372 0.096195 0.095875
0.083689 0.082758 0.082593
0.093291 0.093382 0.092998
0.073485 0.073478 0.073246
0.082980 0.083143 0.083022
0.085953 0.086565 0.086786
0.077871 0.077892 0.078017
0.088793 0.088695 0.088407
0.075996 0.077121 0.077765
0.096375 0.095491 0.094717
0.080674 0.080181 0.079986
0.157945 0.157058 0.155604
0.089570 0.089080 0.089337
0.200788 0.199997 0.196992
0.068230 0.068165 0.069536
0.127067 0.126953 0.126732
0.076299 0.075842 0.076122
0.081899 0.082649 0.081857
0.128915 0.128848 0.129160
0.153394 0.150236 0.143560
0.083338 0.083449 0.082805
0.066195 0.065836 0.065974
0.094218 0.094315 0.094586
0.104026 0.104011 0.104406
0.098763 0.098798 0.098327
0.087156 0.087263 0.087348
0.123123 0.122607 0.122207
0.160921 0.159863 0.159022
0.143386 0.144517 0.145892
0.089026 0.089133 0.087314
0.316988 0.316969 0.316886
0.096168 0.096282 0.096114
0.098564 0.098380 0.098740
0.110904 0.111173 0.111007
0.139222 0.138394 0.136447
0.088230 0.088852 0.088644
0.091606 0.091571 0.091808
0.087560 0.087848 0.087598
0.088050 0.087939 0.087643
0.156764 0.155635 0.154978
0.076073 0.074757 0.074509
0.116556 0.116409 0.116596
0.093745 0.093808 0.093254
0.096845 0.097519 0.097292
0.086795 0.085874 0.085711
0.271738 0.275501 0.276354
0.099167 0.098815 0.096618
0.087022 0.085938 0.085307
0.135604 0.135897 0.136483
0.123091 0.123400 0.126719
0.175226 0.174704 0.174973
0.155539 0.160414 0.160584
0.105036 0.104415 0.103927
0.120368 0.120097 0.120201
0.080658 0.080412 0.080319
0.092760 0.091079 0.090586
0.270649 0.271181 0.271239
0.149649 0.149131 0.149973
0.089784 0.089029 0.086983
0.157798 0.157617 0.157385
0.077274 0.078377 0.079262
0.148177 0.148651 0.149704
0.089556 0.089827 0.089748
0.078335 0.078097 0.077968
0.098390 0.098334 0.098748
0.080477 0.080553 0.080031
0.172941 0.174172 0.175409
0.097442 0.097432 0.097376
0.098412 0.098765 0.099064
0.085966 0.085808 0.085965
0.170598 0.171304 0.171929
0.195097 0.195216 0.193094
0.120863 0.117793 0.117023
0.192628 0.192985 0.196898
0.088788 0.089046 0.090234
0.190973 0.190968 0.190488
0.095182 0.095313 0.094248
0.092915 0.093065 0.094022
0.078597 0.078593 0.078131
0.109412 0.109815 0.109522
0.093630 0.094360 0.093910
0.071670 0.071814 0.071018
0.104658 0.104585 0.104210
0.157796 0.155861 0.157582
0.126769 0.126927 0.126638
0.107362 0.106271 0.106736
0.087993 0.087478 0.087218
0.174363 0.173720 0.172602
0.089576 0.089178 0.089427
0.087816 0.089724 0.089978
0.097131 0.098452 0.098593
0.151154 0.153622 0.153689
0.206341 0.199472 0.196639
0.082768 0.081944 0.081735
0.075408 0.075407 0.075755
0.080996 0.080934 0.080893
0.136453 0.136896 0.137419
0.098658 0.098685 0.098410
0.085683 0.085594 0.085646
0.083054 0.082703 0.082786
0.229785 0.229092 0.228193
0.088486 0.088918 0.089257
0.176167 0.174671 0.173425
0.078301 0.077804 0.077465
0.127190 0.127291 0.128188
0.091138 0.090750 0.090575
0.166141 0.167678 0.169117
0.128452 0.128240 0.127291
0.086829 0.086919 0.086712
0.091480 0.093126 0.095306
0.084010 0.083879 0.084146
0.096642 0.096902 0.097013
0.111820 0.112534 0.112826
0.154748 0.157365 0.157566
0.132644 0.131570 0.131011
0.082927 0.083167 0.082916
0.074212 0.074017 0.072050
0.135630 0.135256 0.135181
0.127722 0.127702 0.128430
0.134373 0.133078 0.132815
0.150238 0.147713 0.146823
0.073395 0.071511 0.070936
0.088433 0.088183 0.087368
0.104681 0.104586 0.104335
0.085737 0.086351 0.086838
0.203247 0.203364 0.203069
0.077752 0.077118 0.077338
0.065371 0.065174 0.065455
0.090651 0.090607 0.090715
0.092769 0.092913 0.092969
0.084156 0.083570 0.083267
0.073528 0.074530 0.072136
0.085091 0.086547 0.089521
0.088249 0.087581 0.087435
0.190679 0.191007 0.190973
0.075581 0.075292 0.075500
0.095941 0.095814 0.095787
0.135226 0.133248 0.132031
0.082865 0.081902 0.081241
0.104027 0.104408 0.104480
0.086832 0.085994 0.085239
0.150527 0.151523 0.153179
0.090726 0.090759 0.090768
0.092942 0.092711 0.091774
0.085839 0.085758 0.085750
0.090616 0.090696 0.090614
0.135739 0.137009 0.137098
0.075866 0.075781 0.076391
0.111699 0.110734 0.110827
0.090133 0.089708 0.089622
0.074903 0.074860 0.073900
0.132011 0.128292 0.126578
0.075670 0.075265 0.075267
0.110792 0.110802 0.110311
0.083073 0.082752 0.082794
0.120232 0.120456 0.120258
0.092284 0.091730 0.091324
0.084294 0.083676 0.081839
0.090873 0.090632 0.090568
0.110042 0.110331 0.111288
0.156322 0.156315 0.156093
0.135032 0.134385 0.134057
0.079327 0.079480 0.079730
0.110720 0.110771 0.110086
0.076091 0.076557 0.076580
0.084548 0.085212 0.084628
0.104678 0.103626 0.102935
0.073068 0.073818 0.073909
0.085888 0.085984 0.086315
0.084263 0.083127 0.082891
0.089351 0.089430 0.088950
0.075923 0.075270 0.075361
0.091521 0.091528 0.091639
0.097214 0.097311 0.095945
0.142598 0.142544 0.142786
0.093497 0.093354 0.093231
0.105465 0.101125 0.101252
0.077486 0.077211 0.076980
0.096877 0.095397 0.095908
0.084891 0.084938 0.085322
0.079851 0.079531 0.079956
0.098682 0.098673 0.098262
0.077335 0.077104 0.076971
0.132163 0.132344 0.132774
0.087905 0.087694 0.087843
0.070817 0.070896 0.070547
0.143644 0.149922 0.152154
0.138281 0.137371 0.136688
0.083016 0.083057 0.083068
0.077740 0.077565 0.077757
0.098934 0.098738 0.098588
0.137489 0.136264 0.136641
0.194319 0.195867 0.196623
0.090249 0.089720 0.088479
0.180699 0.180762 0.180566
0.079797 0.080572 0.080938
0.166577 0.166908 0.166589
0.195867 0.196623 0.197200
0.090913 0.090394 0.090155
0.171943 0.169526 0.168589
0.133691 0.133827 0.133965
0.096039 0.094977 0.095005
0.092426 0.092693 0.092754
0.119153 0.118204 0.116940
0.132450 0.132192 0.132353
0.086343 0.086570 0.087192
0.086890 0.085954 0.087141
0.126470 0.125210 0.125468
0.108100 0.108365 0.108226
0.096642 0.096393 0.096411
0.075164 0.074961 0.075009
0.092615 0.092760 0.092632
0.122140 0.122841 0.122968
0.163752 0.163408 0.163139
0.113575 0.114134 0.114086
0.085920 0.085784 0.085640
0.101517 0.101586 0.101436
0.179571 0.182930 0.185462
0.149764 0.150244 0.150411
0.095808 0.095662 0.095961
0.103151 0.103058 0.102679
0.141820 0.142212 0.141798
0.075072 0.076307 0.076404
0.080202 0.080134 0.080085
0.128229 0.130287 0.131975
0.089956 0.090527 0.090320
0.101019 0.100606 0.100662
0.089073 0.089113 0.087778
0.088963 0.090321 0.090603
0.096077 0.095616 0.094675
0.134503 0.134112 0.133305
0.077168 0.077285 0.075567
0.089983 0.089475 0.089076
0.120573 0.120432 0.119334
0.150070 0.148556 0.148046
0.206234 0.204668 0.202925
0.088715 0.088426 0.089000
0.128370 0.127907 0.125654
0.153414 0.146868 0.143192
0.082992 0.083064 0.081898
0.108678 0.108817 0.108764
0.141598 0.141875 0.141423
0.074466 0.074071 0.073918
0.067792 0.068323 0.068224
0.096553 0.096781 0.096690
0.117553 0.117650 0.117518
0.087472 0.090612 0.091024
0.177808 0.178144 0.178063
0.096120 0.096315 0.088975
0.154061 0.152917 0.153641
0.124310 0.124023 0.123820
0.144046 0.143748 0.144027
0.086233 0.085976 0.086250
0.102936 0.104379 0.105613
0.099208 0.098700 0.098698
0.079003 0.078684 0.078682
0.086317 0.085962 0.086547
0.080223 0.080343 0.080719
0.083538 0.083750 0.085069
0.080032 0.080393 0.080365
0.075069 0.075433 0.075117
0.086783 0.086525 0.085529
0.091353 0.091609 0.091035
0.140279 0.140320 0.141408
0.152645 0.152977 0.151015
0.129968 0.129605 0.130578
0.140677 0.140776 0.140722
0.075824 0.075508 0.075524
0.086671 0.086416 0.086520
0.139768 0.140544 0.141781
0.083763 0.084136 0.084122
0.134088 0.134513 0.134922
0.085446 0.085301 0.085226
0.256489 0.256755 0.256714
0.088500 0.087373 0.086970
0.073818 0.073909 0.073087
0.096065 0.096547 0.098030
0.084011 0.083072 0.083981
0.076681 0.076252 0.075764
0.089081 0.091229 0.090798
0.157065 0.156872 0.155995
0.135166 0.135032 0.134385
0.082718 0.082402 0.082239
0.091659 0.091969 0.091332
0.089586 0.087054 0.085934
0.103884 0.098315 0.096445
0.080837 0.081100 0.080921
0.143426 0.143257 0.145762
0.146477 0.146212 0.145832
0.077355 0.077893 0.078064
0.074784 0.074619 0.074767
0.082695 0.082911 0.082998
0.078414 0.078323 0.078123
0.167555 0.168857 0.169198
0.084447 0.084174 0.083993
0.194355 0.194033 0.194473
0.077240 0.077020 0.077387
0.081610 0.081635 0.081840
0.270411 0.270953 0.271173
0.095325 0.095705 0.096212
0.091267 0.090057 0.086821
0.071250 0.071009 0.070691
0.082981 0.084155 0.085393
0.069922 0.070164 0.070132
0.075194 0.075270 0.075402
0.071407 0.071246 0.071162
0.101282 0.102790 0.108125
0.084968 0.083120 0.082909
0.090508 0.090276 0.090122
0.080891 0.080952 0.080756
0.143527 0.140306 0.139988
0.087629 0.087745 0.088219
0.088205 0.089001 0.089234
0.175245 0.175394 0.175251
0.098986 0.097482 0.096881
0.088643 0.089305 0.089100
0.084054 0.083685 0.084101
0.073636 0.071863 0.072111
0.088396 0.088726 0.089121
0.125584 0.126904 0.127788
0.117347 0.117120 0.118137
0.092534 0.094403 0.097372
0.086096 0.085822 0.085674
0.094203 0.094318 0.094648
0.093750 0.093311 0.093281
0.133009 0.132987 0.128248
0.078095 0.077709 0.077761
0.086496 0.087992 0.088445
0.137340 0.137293 0.136656
0.151593 0.149244 0.148074
0.165815 0.170361 0.171586
0.142407 0.143868 0.145745
0.126640 0.127125 0.127803
0.084804 0.085301 0.085635
0.107707 0.107374 0.107721
0.096387 0.096132 0.096581
0.099642 0.100462 0.100259
0.083316 0.082966 0.082537
0.073961 0.073623 0.073679
0.074053 0.074090 0.074094
0.071925 0.072522 0.072808
0.085771 0.085423 0.085183
0.128778 0.127485 0.127672
0.156848 0.157263 0.157731
0.250225 0.253983 0.255456
0.078364 0.078521 0.078359
0.096379 0.096639 0.096695
0.074060 0.073975 0.075108
0.080080 0.080131 0.080048
0.150880 0.150749 0.151432
0.171521 0.178251 0.180028
0.091966 0.091116 0.089511
0.149854 0.148731 0.147866
0.096709 0.096699 0.096561
0.085716 0.086799 0.086901
0.084031 0.083811 0.082794
0.158743 0.158934 0.160261
0.093006 0.092938 0.093115
0.132819 0.132718 0.132597
0.117843 0.118394 0.120935
0.080319 0.080589 0.080305
0.070440 0.071487 0.072679
0.083515 0.083536 0.083412
0.128812 0.127890 0.128131
0.074446 0.074464 0.074606
0.081147 0.081229 0.081079
0.087277 0.087091 0.087053
0.131169 0.131679 0.132508
0.118391 0.117795 0.116584
0.064932 0.063930 0.063615
0.107146 0.107251 0.107399
0.188834 0.188932 0.186550
0.152966 0.151997 0.153808
0.107711 0.107818 0.107528
0.136532 0.136603 0.136903
0.090810 0.090838 0.091117
0.097208 0.097683 0.097623
0.068193 0.067734 0.067613
0.085732 0.085981 0.086162
0.065230 0.066266 0.066908
0.079520 0.079666 0.080530
0.086569 0.086356 0.086139
0.167619 0.166845 0.166403
0.096084 0.100424 0.102291
0.075261 0.073908 0.074068
0.087140 0.086932 0.087076
0.085216 0.085174 0.085111
0.131892 0.130416 0.128581
0.081971 0.081665 0.081580
0.075122 0.074783 0.075161
0.117811 0.117823 0.117962
0.080502 0.080895 0.081085
0.096402 0.096588 0.096243
0.084128 0.084454 0.085004
0.082197 0.081999 0.081731
0.111318 0.110938 0.110766
0.145102 0.145350 0.142251
0.103163 0.102733 0.102188
0.079101 0.078996 0.078913
0.084504 0.083900 0.083329
0.079933 0.078124 0.078204
0.081595 0.081406 0.081576
0.089769 0.089566 0.089603
0.107046 0.107427 0.107763
0.074416 0.074326 0.071958
0.116145 0.119670 0.119929
0.083641 0.083968 0.084070
0.093045 0.092379 0.091893
0.081965 0.082501 0.082512
0.090543 0.091858 0.093322
0.082660 0.082957 0.082744
0.089402 0.089520 0.089719
0.137416 0.137593 0.138650
0.137952 0.138241 0.136950
0.093853 0.093459 0.093481
0.148074 0.146638 0.145686
0.113805 0.113312 0.113070
0.254967 0.256061 0.256811
0.093521 0.093327 0.093384
0.152259 0.145949 0.143202
0.079952 0.080093 0.079720
0.080540 0.080355 0.080160
0.085607 0.085651 0.086020
0.171625 0.171468 0.171357
0.193806 0.192272 0.197162
0.144190 0.144239 0.143820
0.085583 0.082676 0.081256
0.106463 0.105711 0.104550
0.076795 0.075989 0.075873
0.171479 0.171388 0.171446
0.089410 0.089437 0.089198
0.154038 0.151694 0.144871
0.085706 0.085894 0.086172
0.133041 0.133793 0.132541
0.095224 0.095670 0.097001
0.068316 0.068182 0.068619
0.099012 0.098916 0.098925
0.150882 0.149731 0.149915
0.086864 0.086307 0.085308
0.131130 0.130923 0.131680
0.105711 0.104550 0.102266
0.089961 0.089784 0.089029
0.075527 0.075793 0.075704
0.076898 0.077582 0.078012
0.097731 0.097921 0.097935
0.079776 0.080036 0.079110
0.142318 0.142399 0.142067
0.105217 0.104902 0.104326
0.064818 0.065019 0.064539
0.151109 0.153432 0.154116
0.099133 0.098534 0.096392
0.190485 0.191393 0.193383
0.157488 0.158258 0.159126
0.130051 0.129441 0.129659
0.077535 0.077863 0.077885
0.090269 0.090039 0.089994
0.316603 0.316865 0.316974
0.136746 0.136511 0.136348
0.078800 0.078976 0.080740
0.183436 0.183885 0.182380
0.091117 0.091212 0.091022
0.090750 0.090500 0.091001
0.086184 0.086286 0.085940
0.083999 0.083766 0.082778
0.113510 0.108476 0.105966
0.083031 0.082981 0.082368
0.152685 0.152849 0.153010
0.083075 0.083121 0.083250
0.076679 0.076306 0.076544
0.139765 0.139620 0.139347
0.083870 0.084334 0.085219
0.091551 0.092214 0.092474
0.118705 0.118630 0.116541
0.091335 0.090981 0.090948
0.092025 0.092058 0.091704
0.145173 0.143799 0.133364
0.167964 0.168601 0.169310
0.153400 0.153995 0.154061
0.071982 0.072102 0.072046
0.088979 0.089569 0.090885
0.148427 0.148006 0.148026
0.096514 0.096406 0.096351
0.090242 0.088706 0.087488
0.112233 0.115576 0.117022
0.168255 0.167897 0.168402
0.082785 0.083143 0.083387
0.075264 0.075277 0.075611
0.111571 0.111564 0.111312
0.101269 0.101115 0.100250
0.092549 0.092049 0.092924
0.092656 0.092085 0.090381
0.140530 0.140504 0.139992
0.073362 0.072055 0.071167
0.090510 0.090273 0.091468
0.153309 0.152925 0.152295
0.092649 0.093503 0.092819
0.088515 0.088772 0.088884
0.156227 0.156118 0.155871
0.091773 0.091628 0.091628
0.091595 0.091407 0.089194
0.087482 0.087626 0.087910
0.206179 0.205506 0.203987
0.074566 0.074523 0.074071
0.082778 0.082731 0.085001
0.109728 0.111511 0.111226
0.080359 0.080417 0.081138
0.075813 0.074685 0.074353
0.103869 0.105159 0.106294
0.170292 0.170692 0.169342
0.178726 0.178543 0.178168
0.091379 0.091058 0.090637
0.085900 0.085991 0.087307
0.113082 0.112633 0.112356
0.167698 0.164981 0.163137
0.083008 0.082897 0.082189
0.215079 0.215430 0.215297
0.085937 0.086194 0.085682
0.084630 0.083692 0.082243
0.089655 0.089553 0.088688
0.084921 0.085047 0.086112
0.118117 0.118264 0.118352
0.080942 0.081585 0.081731
0.195163 0.195241 0.194718
0.101394 0.101162 0.101273
0.088878 0.088591 0.088659
0.081515 0.081863 0.082977
0.082865 0.082353 0.082560
0.088382 0.087995 0.088653
0.136645 0.136421 0.137967
0.095728 0.096112 0.096187
0.084577 0.083509 0.083162
0.131576 0.130796 0.130067
0.137889 0.142168 0.143386
0.081863 0.081134 0.081244
0.078373 0.077681 0.077389
0.085698 0.085692 0.085897
0.114517 0.113925 0.113413
0.175464 0.175181 0.175305
0.256514 0.255936 0.252310
0.086678 0.086566 0.087174
0.083546 0.083510 0.083153
0.076669 0.076479 0.078579
0.084161 0.084031 0.083811
0.076991 0.076747 0.077042
0.099094 0.099116 0.098506
0.074680 0.074992 0.074903
0.084708 0.084424 0.084641
0.074454 0.074491 0.076161
0.091767 0.091056 0.089346
0.080581 0.079527 0.079185
0.106100 0.106166 0.104741
0.091435 0.090753 0.090105
0.101167 0.101119 0.102039
0.074528 0.073958 0.073587
0.086016 0.085650 0.085041
0.089220 0.089458 0.088883
0.070594 0.070665 0.070237
0.180479 0.180064 0.178733
0.095847 0.095782 0.096441
0.081342 0.081366 0.081822
0.084052 0.084993 0.084911
0.098077 0.096845 0.097519
0.066785 0.067658 0.070481
0.083623 0.085070 0.085176
0.250626 0.248017 0.246610
0.191841 0.192669 0.193654
0.073882 0.073779 0.074507
0.090253 0.090012 0.090598
0.092489 0.092365 0.092223
0.089222 0.090119 0.090739
0.156879 0.157186 0.156808
0.085040 0.085281 0.085076
0.078417 0.078610 0.078403
0.108403 0.108170 0.107339
0.118622 0.118600 0.118445
0.080056 0.080341 0.080343
0.087107 0.088060 0.088384
0.073968 0.073869 0.073953
0.088503 0.089079 0.089091
0.085365 0.084560 0.084751
0.109523 0.109974 0.110069
0.141274 0.140668 0.140298
0.083326 0.083284 0.083457
0.088806 0.087936 0.087978
0.147683 0.148291 0.149363
0.074825 0.074665 0.075301
0.230131 0.229619 0.218995
0.109829 0.109384 0.109666
0.105707 0.105503 0.104335
0.073555 0.073597 0.073502
0.140098 0.140124 0.146018
0.142178 0.145510 0.147106
0.199093 0.195460 0.192498
0.093250 0.092801 0.092738
0.151974 0.160185 0.164606
0.109141 0.116568 0.117816
0.125844 0.127521 0.127680
0.087174 0.087329 0.087382
0.127702 0.128430 0.128321
0.077141 0.076225 0.075828
0.109245 0.109642 0.109850
0.073773 0.073934 0.073809
0.134607 0.135843 0.136936
0.114864 0.114145 0.112255
0.084761 0.085081 0.084824
0.083356 0.083419 0.083829
0.086468 0.085844 0.086440
0.086636 0.086054 0.085600
0.124921 0.122875 0.122681
0.089213 0.089308 0.089162
0.117138 0.118764 0.118492
0.106837 0.106994 0.107229
0.081898 0.081551 0.081450
0.093301 0.090332 0.089591
0.120731 0.119336 0.119486
0.089266 0.089122 0.089644
0.112679 0.112882 0.113939
0.227244 0.216310 0.216061
0.096766 0.096965 0.098068
0.083428 0.083473 0.083021
0.090766 0.088965 0.087116
0.110741 0.111199 0.111427
0.090415 0.089754 0.089500
0.078414 0.078593 0.078972
0.139530 0.139625 0.140716
0.121345 0.121879 0.124103
0.070366 0.070113 0.070387
0.178134 0.178024 0.178049
0.196590 0.197042 0.197600
0.104054 0.104511 0.104464
0.073864 0.073814 0.073891
0.083823 0.084625 0.083943
0.117239 0.123362 0.127187
0.254738 0.256355 0.256687
0.134011 0.134510 0.132232
0.092104 0.092088 0.091880
0.085382 0.084872 0.085253
0.175552 0.175522 0.175580
0.207206 0.208686 0.208695
0.075987 0.076342 0.076187
0.178554 0.178656 0.179826
0.075362 0.075708 0.075923
0.087003 0.086727 0.086937
0.090568 0.090189 0.089900
0.140279 0.142720 0.143095
0.193420 0.195924 0.196796
0.078022 0.078719 0.078687
0.087969 0.087653 0.087041
0.072294 0.072387 0.072705
0.127315 0.127429 0.127658
0.097888 0.097982 0.098224
0.088591 0.087891 0.087000
0.079865 0.081135 0.080812
0.159109 0.159178 0.156685
0.081797 0.081643 0.081590
0.096652 0.096893 0.096906
0.175017 0.173934 0.173877
0.092036 0.092055 0.091850
0.075132 0.075825 0.075385
0.159143 0.158154 0.152625
0.073804 0.073953 0.073792
0.097241 0.096807 0.096095
0.101890 0.102127 0.102342
0.129661 0.129528 0.130816
0.089859 0.090583 0.091541
0.099760 0.099775 0.098798
0.132771 0.132917 0.133773
0.088916 0.087893 0.088325
0.081405 0.081122 0.080938
0.108769 0.108778 0.109368
0.187280 0.186173 0.186228
0.081677 0.081521 0.081624
0.085600 0.085136 0.084679
0.098444 0.107136 0.110484
0.133132 0.132531 0.132018
0.092001 0.092135 0.092452
0.249371 0.247384 0.247201
0.076404 0.076604 0.076566
0.091976 0.091723 0.091400
0.083503 0.083574 0.083746
0.081030 0.080916 0.080579
0.122166 0.122269 0.121712
0.077435 0.077029 0.077071
0.138589 0.136579 0.134565
0.096334 0.093475 0.092368
0.133857 0.128810 0.126020
0.145445 0.146074 0.147153
0.101299 0.101221 0.101254
0.093487 0.090875 0.090810
0.114366 0.114834 0.115642
0.079377 0.079504 0.079845
0.148638 0.146264 0.145970
0.084259 0.084791 0.085021
0.091554 0.091571 0.091913
0.127796 0.127520 0.126507
0.099633 0.100776 0.099676
0.077654 0.078435 0.079294
0.099753 0.099783 0.098812
0.131660 0.134699 0.134936
0.096586 0.096928 0.096737
0.149458 0.149876 0.150707
0.080645 0.080547 0.080392
0.129200 0.129563 0.130480
0.080775 0.081357 0.081001
0.097851 0.097917 0.098456
0.090116 0.089163 0.089335
0.147877 0.147912 0.148717
0.199556 0.201193 0.201952
0.253900 0.253504 0.253401
0.129217 0.129523 0.130607
0.078656 0.078672 0.079402
0.093613 0.094335 0.094713
0.131321 0.131182 0.131262
0.085166 0.082274 0.079844
0.106283 0.106423 0.106195
0.073028 0.073665 0.074043
0.090870 0.090721 0.091051
0.125592 0.126916 0.127383
0.084377 0.085365 0.084560
0.165676 0.164198 0.164209
0.110694 0.111459 0.112459
0.089944 0.090213 0.090909
0.083827 0.083327 0.083587
0.085051 0.085228 0.085124
0.127793 0.127404 0.126659
0.101972 0.104596 0.105398
0.083935 0.084087 0.084320
0.136767 0.139053 0.141323
0.202183 0.202210 0.201575
0.095640 0.095672 0.095658
0.082981 0.083274 0.083276
0.130108 0.129850 0.129919
0.086034 0.085132 0.085033
0.123454 0.122253 0.119875
0.072322 0.071659 0.072092
0.112843 0.112894 0.113163
0.110563 0.111252 0.109445
0.089677 0.089785 0.088953
0.072946 0.073199 0.073953
0.071623 0.071250 0.070435
0.083783 0.084150 0.083811
0.082326 0.081376 0.080659
0.077109 0.076392 0.075288
0.246164 0.245413 0.244001
0.080657 0.080425 0.079585
0.106657 0.107611 0.107895
0.081368 0.081235 0.081024
0.108966 0.109200 0.109346
0.094506 0.094516 0.094355
0.153222 0.151038 0.150576
0.158378 0.163636 0.167523
0.089070 0.088970 0.089724
0.113937 0.113073 0.113169
0.077395 0.076383 0.075855
0.150331 0.151011 0.157038
0.075828 0.075831 0.076165
0.072687 0.072619 0.072363
0.078862 0.079101 0.078996
0.158348 0.158336 0.159004
0.090645 0.090479 0.091314
0.291582 0.287204 0.286664
0.120602 0.120613 0.120899
0.133820 0.133652 0.132948
0.168994 0.170332 0.175011
0.113933 0.112617 0.112954
0.102507 0.102400 0.102212
0.092232 0.092961 0.093108
0.157971 0.154774 0.155402
0.131859 0.130511 0.129358
0.072103 0.072864 0.070321
0.178869 0.178617 0.178712
0.153563 0.154350 0.154352
0.073927 0.072183 0.071745
0.131677 0.131761 0.132087
0.092730 0.092187 0.092879
0.084725 0.084952 0.084837
0.104150 0.104433 0.103094
0.113983 0.112516 0.113772
0.156561 0.156553 0.154851
0.084623 0.084779 0.084913
0.122960 0.119733 0.118379
0.105371 0.105253 0.106040
0.126847 0.127478 0.127390
0.103262 0.103150 0.102860
0.313893 0.310934 0.308248
0.111479 0.111571 0.111564
0.074994 0.074149 0.074261
0.083959 0.083813 0.083791
0.099139 0.098511 0.097533
0.145132 0.144520 0.143714
0.077769 0.078534 0.079073
0.084720 0.082843 0.081934
0.090923 0.090600 0.090334
0.085288 0.085757 0.086385
0.095056 0.094794 0.094669
0.080906 0.080559 0.080596
0.208954 0.208854 0.208315
0.084293 0.084393 0.084820
0.088482 0.088673 0.089182
0.150591 0.152101 0.151868
0.196563 0.196672 0.200762
0.101706 0.102427 0.102838
0.127478 0.127390 0.128434
0.092498 0.091227 0.088530
0.081606 0.081723 0.082581
0.273965 0.269726 0.267886
0.113539 0.108023 0.105707
0.130177 0.129656 0.127278
0.071082 0.070675 0.070847
0.085563 0.086191 0.086133
0.080959 0.081058 0.079842
0.097745 0.098500 0.098486
0.089573 0.088711 0.088837
0.082322 0.081452 0.081882
0.076516 0.076637 0.077049
0.088054 0.087821 0.088350
0.090580 0.090744 0.090420
0.103109 0.103194 0.103662
0.086370 0.086632 0.086836
0.092459 0.091453 0.091584
0.130281 0.131258 0.131502
0.126636 0.126421 0.126365
0.085494 0.086140 0.085928
0.117622 0.117640 0.117540
0.080684 0.080780 0.080894
0.108234 0.108102 0.108531
0.085001 0.084799 0.084792
0.093437 0.093052 0.092780
0.149033 0.150427 0.153003
0.142105 0.141797 0.141981
0.096483 0.097109 0.096721
0.092925 0.092888 0.093119
0.082162 0.082159 0.082568
0.082165 0.084386 0.084496
0.088643 0.088516 0.088728
0.185070 0.184711 0.182914
0.095966 0.095934 0.095971
0.105884 0.105654 0.105772
0.137600 0.138134 0.132980
0.074807 0.074463 0.074937
0.093185 0.093326 0.091060
0.108103 0.107485 0.107656
0.088123 0.088120 0.087901
0.132887 0.133141 0.133438
0.161581 0.163032 0.163652
0.084106 0.083380 0.082753
0.088835 0.089203 0.089142
0.110423 0.110436 0.113616
0.117462 0.113983 0.112516
0.228908 0.221098 0.216654
0.097683 0.098197 0.098077
0.079112 0.079131 0.077378
0.081055 0.081420 0.082355
0.086146 0.086175 0.086367
0.075868 0.075480 0.075625
0.094304 0.093845 0.092236
0.085795 0.085593 0.085370
0.092005 0.092463 0.094181
0.128898 0.129039 0.129490
0.130594 0.129877 0.129878
0.123205 0.123178 0.122078
0.089174 0.089366 0.089068
0.090266 0.090097 0.090508
0.147117 0.141960 0.139764
0.128313 0.128576 0.129185
0.091212 0.093191 0.094766
0.080854 0.081109 0.080044
0.133001 0.130273 0.130278
0.071629 0.071646 0.071766
0.124801 0.126238 0.127793
0.075356 0.075513 0.075940
0.156341 0.154408 0.153909
0.072919 0.074378 0.074341
0.075574 0.075534 0.075367
0.089810 0.090982 0.091774
0.150896 0.151466 0.151420
0.142161 0.143248 0.143673
0.078611 0.078634 0.078697
0.203968 0.198264 0.196120
0.076880 0.076746 0.076578
0.133333 0.132450 0.132192
0.121075 0.121276 0.120665
0.129306 0.129081 0.129200
0.101343 0.101301 0.101334
0.082870 0.082481 0.082121
0.091902 0.091233 0.088385
0.080392 0.080235 0.079965
0.109723 0.110059 0.109643
0.085878 0.085685 0.086847
0.191024 0.190497 0.190321
0.174601 0.175077 0.175362
0.138544 0.137735 0.136203
0.141634 0.142041 0.142009
0.090432 0.090799 0.090318
0.152583 0.152768 0.153242
0.091326 0.091739 0.092826
0.140288 0.140453 0.141551
0.077351 0.077347 0.076771
0.085601 0.085638 0.085381
0.084575 0.084703 0.084571
0.066724 0.067842 0.067747
0.076613 0.076491 0.076252
