0.165635 0.164168 0.165296
0.124939 0.123942 0.123668
0.171757 0.173060 0.171157
0.141194 0.141194 0.141909
0.133222 0.131683 0.132257
0.104951 0.105743 0.106524
0.140081 0.139722 0.139676
0.110909 0.111078 0.110992
0.132467 0.131903 0.130056
0.128142 0.131609 0.132024
0.194216 0.194491 0.195243
0.104038 0.099235 0.098245
0.097504 0.097515 0.097672
0.168389 0.169125 0.168600
0.158079 0.158097 0.158347
0.143721 0.144298 0.147178
0.181633 0.181398 0.179686
0.159687 0.163340 0.164014
0.154614 0.155441 0.154575
0.173473 0.172805 0.175628
0.124163 0.124329 0.122999
0.153505 0.150845 0.150359
0.151175 0.152364 0.153594
0.148791 0.149702 0.150466
0.166401 0.167982 0.167178
0.168710 0.165798 0.165129
0.128451 0.128842 0.129644
0.115481 0.116090 0.117215
0.123117 0.120442 0.121520
0.103094 0.103902 0.113274
0.152280 0.152255 0.152109
0.130129 0.133224 0.135342
0.149007 0.147389 0.147843
0.146767 0.146772 0.149564
0.103052 0.103099 0.103075
0.097121 0.096701 0.096248
0.141098 0.141269 0.146042
0.171802 0.170664 0.169511
0.167406 0.167566 0.167783
0.121308 0.121612 0.120888
0.125184 0.124442 0.123054
0.094491 0.094370 0.094262
0.133152 0.132862 0.132221
0.138937 0.138674 0.138845
0.138347 0.137352 0.135077
0.146049 0.146006 0.143637
0.167122 0.166049 0.165744
0.144093 0.144244 0.144538
0.152203 0.151907 0.150575
0.113756 0.113421 0.113372
0.096208 0.095957 0.099152
0.118386 0.117114 0.117668
0.155886 0.153588 0.152787
0.162490 0.166853 0.173864
0.103175 0.102946 0.104619
0.140549 0.140577 0.144554
0.179819 0.179682 0.180311
0.121169 0.119215 0.119171
0.147971 0.149309 0.148774
0.110024 0.111298 0.114152
0.136121 0.135488 0.136228
0.168666 0.167898 0.167961
0.104086 0.103411 0.103632
0.156748 0.158563 0.158637
0.118857 0.120437 0.120459
0.164173 0.160054 0.159983
0.145804 0.143673 0.143285
0.169971 0.169459 0.169277
0.109142 0.109208 0.109166
0.053613 0.053710 0.054025
0.125042 0.127600 0.128797
0.184541 0.182757 0.182365
0.160206 0.161101 0.161004
0.126940 0.127420 0.127322
0.127864 0.127942 0.127426
0.129436 0.129332 0.129196
0.161830 0.164651 0.164865
0.155796 0.155883 0.157316
0.137084 0.137177 0.136328
0.103266 0.103799 0.105620
0.155623 0.156874 0.156885
0.164205 0.164076 0.164282
0.106252 0.104658 0.103780
0.150063 0.151534 0.149357
0.163688 0.164428 0.166238
0.121491 0.121075 0.121996
0.095156 0.095693 0.099042
0.113488 0.112887 0.112964
0.144965 0.145363 0.146478
0.163414 0.163115 0.162552
0.156420 0.156885 0.157323
0.113830 0.113624 0.113485
0.156803 0.157291 0.157410
0.114499 0.114373 0.114389
0.092169 0.092220 0.092009
0.131683 0.132257 0.132447
0.097226 0.101883 0.102831
0.118280 0.118580 0.122653
0.110905 0.110738 0.110713
0.099503 0.099226 0.098213
0.103527 0.102814 0.102857
0.111492 0.112143 0.113163
0.152556 0.152157 0.152312
0.117306 0.116940 0.116920
0.204215 0.204361 0.205833
0.124262 0.117610 0.116301
0.132026 0.133824 0.135546
0.054025 0.054337 0.055995
0.123655 0.122989 0.122638
0.102373 0.101002 0.100441
0.125543 0.126926 0.129961
0.167686 0.167481 0.167913
0.113296 0.113318 0.113556
0.115878 0.116136 0.116089
0.175263 0.174065 0.173329
0.155342 0.156125 0.155849
0.102114 0.102655 0.103292
0.152309 0.154254 0.154358
0.137791 0.137987 0.138208
0.154770 0.154969 0.155296
0.151416 0.152460 0.151256
0.117151 0.116223 0.115723
0.100596 0.101355 0.101286
0.140356 0.139828 0.138768
0.172709 0.173518 0.173504
0.143776 0.143914 0.143791
0.117522 0.118112 0.119092
0.090894 0.091209 0.094122
0.091931 0.090245 0.090472
0.124935 0.124528 0.120122
0.123653 0.123248 0.122776
0.119514 0.119467 0.119875
0.115716 0.116060 0.116612
0.106367 0.104918 0.105740
0.158549 0.158301 0.158093
0.181264 0.181467 0.180357
0.109426 0.109674 0.109822
0.093783 0.095474 0.111904
0.116685 0.119098 0.119886
0.158665 0.158092 0.156217
0.134075 0.134248 0.136200
0.155174 0.153879 0.156948
0.203963 0.203250 0.201654
0.117755 0.117738 0.117368
0.153283 0.153259 0.151479
0.171476 0.172378 0.172652
0.109917 0.107490 0.108434
0.124659 0.127954 0.129653
0.158035 0.157568 0.160416
0.123755 0.123715 0.122827
0.107371 0.107446 0.108092
0.134643 0.135133 0.135630
0.162526 0.161989 0.160996
0.155086 0.154999 0.155311
0.148075 0.150330 0.150322
0.053880 0.053895 0.053068
0.132877 0.133179 0.132912
0.128011 0.128504 0.131182
0.104007 0.103536 0.102981
0.094676 0.092780 0.093319
0.100104 0.100084 0.100284
0.111710 0.112725 0.112915
0.125944 0.124524 0.124844
0.113010 0.112145 0.111764
0.157020 0.157088 0.156703
0.169942 0.169671 0.169070
0.131341 0.131278 0.131240
0.099954 0.099728 0.099631
0.126309 0.126372 0.126471
0.112438 0.112201 0.112231
0.092837 0.093803 0.093915
0.109860 0.110495 0.110364
0.095950 0.099033 0.099956
0.140442 0.140796 0.140641
0.154323 0.154669 0.154373
0.154250 0.154359 0.154706
0.102644 0.102807 0.103534
0.136561 0.135370 0.135001
0.154838 0.154825 0.154433
0.168651 0.168860 0.169092
0.191526 0.191704 0.191873
0.126696 0.124720 0.124452
0.104310 0.104061 0.103626
0.165470 0.161500 0.167926
0.108484 0.108431 0.111647
0.112033 0.113662 0.113505
0.128836 0.128556 0.129474
0.128903 0.128161 0.127930
0.155556 0.154272 0.153795
0.155348 0.153465 0.153102
0.139005 0.142147 0.143201
0.169877 0.170078 0.169958
0.135100 0.135802 0.138023
0.160094 0.162470 0.167594
0.128488 0.128566 0.128547
0.150704 0.151754 0.152349
0.182699 0.182546 0.182526
0.123588 0.123382 0.122302
0.176603 0.173186 0.172521
0.173656 0.168473 0.169073
0.169818 0.170001 0.169931
0.125072 0.125342 0.125151
0.102693 0.101908 0.102192
0.102902 0.101810 0.101829
0.121889 0.122318 0.122959
0.143670 0.143721 0.144298
0.134180 0.129312 0.129705
0.124524 0.124844 0.125508
0.166620 0.161626 0.160989
0.076895 0.076479 0.076704
0.152735 0.153216 0.154882
0.161632 0.164530 0.164302
0.111570 0.112605 0.113527
0.179733 0.179746 0.180134
0.157115 0.155509 0.155032
0.150690 0.150220 0.148619
0.089634 0.089706 0.090104
0.120446 0.119111 0.120471
0.153431 0.153621 0.154031
0.110885 0.112317 0.112242
0.108978 0.106060 0.104701
0.110359 0.110750 0.111351
0.169550 0.169645 0.169993
0.099443 0.099368 0.099032
0.150053 0.150425 0.150673
0.116021 0.116725 0.116406
0.117571 0.118635 0.119163
0.115505 0.115014 0.111195
0.141610 0.142995 0.143718
0.192312 0.192492 0.191755
0.104723 0.104790 0.103808
0.118808 0.118932 0.118780
0.166515 0.167281 0.167333
0.101952 0.101963 0.101980
0.108244 0.108018 0.110196
0.171307 0.173189 0.173122
0.103432 0.103060 0.100995
0.120411 0.121319 0.122440
0.169592 0.169463 0.168079
0.121958 0.121159 0.120625
0.169039 0.170553 0.171221
0.099833 0.097560 0.097267
0.113847 0.113104 0.112696
0.103118 0.102632 0.102417
0.142256 0.143738 0.143639
0.132391 0.132819 0.132865
0.123750 0.124129 0.124383
0.132608 0.132978 0.132975
0.145416 0.146813 0.147084
0.159597 0.158057 0.158161
0.130307 0.130111 0.129746
0.106979 0.107288 0.107000
0.105419 0.107102 0.105740
0.105699 0.105709 0.105453
0.103092 0.103316 0.103047
0.097723 0.095684 0.095556
0.197481 0.198001 0.205293
0.140456 0.140682 0.141080
0.105028 0.104468 0.105124
0.086126 0.086221 0.086228
0.119032 0.118935 0.119407
0.184963 0.185930 0.186450
0.111453 0.111205 0.110961
0.111534 0.110813 0.110741
0.139777 0.141036 0.141586
0.128514 0.128535 0.128523
0.129192 0.128421 0.129679
0.118531 0.117336 0.117317
0.159624 0.159183 0.158894
0.142393 0.142710 0.145463
0.115609 0.114791 0.117423
0.111075 0.111204 0.110972
0.132206 0.131015 0.130644
0.109515 0.108714 0.108670
0.155533 0.155655 0.157419
0.125121 0.125465 0.125723
0.168336 0.168845 0.168148
0.067150 0.066956 0.066774
0.109814 0.109594 0.110297
0.101083 0.100909 0.100433
0.105661 0.104992 0.104972
0.110836 0.110875 0.110782
0.157676 0.157440 0.157345
0.109595 0.109816 0.109485
0.135881 0.136425 0.136583
0.111917 0.111413 0.112350
0.105198 0.106531 0.108253
0.205692 0.208107 0.211872
0.138436 0.138268 0.138307
0.126914 0.126314 0.124791
0.111910 0.111989 0.112126
0.104663 0.105155 0.105564
0.175095 0.175476 0.176595
0.123618 0.116993 0.116004
0.106060 0.105593 0.109326
0.209167 0.206292 0.205605
0.174059 0.173768 0.173605
0.143707 0.144114 0.145015
0.109282 0.109515 0.108714
0.152048 0.151591 0.151345
0.089171 0.089736 0.089747
0.124383 0.124363 0.124498
0.103745 0.103609 0.103803
0.130829 0.133522 0.133703
0.125776 0.125928 0.127720
0.139439 0.139984 0.139952
0.118452 0.118581 0.118617
0.085239 0.084880 0.084813
0.097159 0.096730 0.096462
0.083706 0.083743 0.083286
0.175069 0.175809 0.175846
0.067669 0.067819 0.067764
0.102020 0.101907 0.102138
0.111682 0.111492 0.113609
0.116900 0.119526 0.120618
0.158022 0.157985 0.157945
0.100203 0.100980 0.101329
0.130315 0.128339 0.125786
0.115244 0.116876 0.116966
0.149977 0.150677 0.151065
0.110567 0.111107 0.111028
0.161211 0.158419 0.156922
0.161905 0.161627 0.161761
0.158635 0.158250 0.156351
0.107899 0.107545 0.106067
0.156618 0.156730 0.156761
0.152907 0.153420 0.153557
0.142579 0.142798 0.142891
0.114937 0.115712 0.115530
0.087819 0.087116 0.087232
0.102669 0.103293 0.104287
0.157719 0.156455 0.157652
0.150763 0.151441 0.154770
0.109899 0.110529 0.111026
0.117862 0.117610 0.117269
0.180342 0.181665 0.181884
0.180270 0.178622 0.177676
0.125533 0.124526 0.125183
0.125803 0.126762 0.126546
0.162373 0.161920 0.160904
0.096728 0.096699 0.097212
0.110409 0.110001 0.110787
0.105997 0.105898 0.104767
0.169353 0.168254 0.166588
0.112225 0.112649 0.113372
0.163112 0.167589 0.167260
0.169511 0.166665 0.166352
0.118398 0.119377 0.119644
0.102959 0.100871 0.101276
0.113734 0.114603 0.115572
0.119019 0.118809 0.118886
0.102404 0.102981 0.103518
0.195055 0.195002 0.195186
0.119066 0.120839 0.122428
0.162570 0.161390 0.159659
0.114616 0.114189 0.114464
0.182663 0.181352 0.178961
0.157572 0.160036 0.160710
0.110715 0.110732 0.110495
0.173659 0.173487 0.173588
0.120770 0.120373 0.120440
0.209213 0.211738 0.210739
0.110189 0.110083 0.110143
0.120249 0.119914 0.120312
0.186086 0.184641 0.183240
0.136331 0.135398 0.136359
0.123547 0.124087 0.126548
0.124516 0.124624 0.125470
0.117106 0.117574 0.118317
0.150119 0.154102 0.154043
0.107888 0.108261 0.108121
0.103703 0.105537 0.105687
0.113503 0.113700 0.113295
0.146025 0.146091 0.146239
0.118104 0.119532 0.120471
0.150035 0.148767 0.143638
0.104885 0.105124 0.105394
0.161990 0.163155 0.163595
0.149074 0.148891 0.148795
0.150592 0.150549 0.149233
0.175476 0.176595 0.176524
0.109816 0.108993 0.108657
0.102817 0.102652 0.102917
0.085896 0.086098 0.086090
0.160022 0.162912 0.162943
0.086569 0.086312 0.086032
0.210553 0.210915 0.211691
0.149044 0.149072 0.150105
0.111366 0.110760 0.110666
0.158960 0.158767 0.157887
0.127942 0.127426 0.123279
0.137384 0.137414 0.137435
0.118943 0.119118 0.119666
0.185672 0.184124 0.180119
0.115357 0.118752 0.119475
0.145259 0.145352 0.144968
0.153938 0.154352 0.152647
0.150309 0.149219 0.148228
0.154706 0.154622 0.155296
0.153977 0.153717 0.154469
0.155938 0.157126 0.156720
0.164441 0.164199 0.163317
0.158829 0.158021 0.156348
0.106687 0.107381 0.112508
0.162066 0.161661 0.161638
0.166014 0.165351 0.164135
0.133729 0.133879 0.135389
0.124942 0.125331 0.125780
0.104898 0.104741 0.104098
0.137450 0.137441 0.138840
0.087404 0.087407 0.087199
0.147007 0.145538 0.144774
0.158980 0.158737 0.154207
0.188385 0.186737 0.187061
0.097567 0.097933 0.097928
0.122582 0.121872 0.120421
0.099443 0.099836 0.100232
0.102738 0.102423 0.099816
0.160964 0.161389 0.161628
0.133435 0.133101 0.132025
0.101105 0.101276 0.101221
0.162385 0.161844 0.162484
0.159834 0.159607 0.158661
0.104563 0.104466 0.105002
0.165839 0.167453 0.160792
0.133600 0.133188 0.133703
0.132529 0.134017 0.134135
0.182409 0.179008 0.176486
0.161061 0.161310 0.163148
0.192541 0.193039 0.194438
0.158767 0.157887 0.157821
0.118229 0.117566 0.117089
0.188025 0.187006 0.187202
0.213845 0.213897 0.215497
0.085933 0.085340 0.085514
0.195473 0.195042 0.194397
0.181694 0.181312 0.174891
0.119513 0.119092 0.117244
0.096070 0.096104 0.096156
0.139007 0.139591 0.140751
0.099769 0.100891 0.100998
0.143181 0.142986 0.143543
0.142682 0.142669 0.142674
0.175087 0.178288 0.179134
0.131986 0.133673 0.134765
0.152183 0.152445 0.154272
0.135636 0.136525 0.138033
0.101981 0.102517 0.103584
0.111895 0.110668 0.110441
0.171925 0.171341 0.170659
0.112065 0.112643 0.112947
0.093319 0.095058 0.094980
0.103864 0.106979 0.107288
0.117417 0.117195 0.116512
0.107163 0.107399 0.107397
0.165135 0.164597 0.163820
0.170231 0.170071 0.169364
0.119111 0.120471 0.120440
0.124356 0.124276 0.124602
0.111309 0.109124 0.110020
0.154715 0.154304 0.153339
0.140789 0.141634 0.141961
0.114400 0.114343 0.114511
0.102944 0.101312 0.100842
0.064353 0.064495 0.064546
0.103025 0.101716 0.099672
0.146332 0.146441 0.146248
0.183705 0.182226 0.190095
0.114555 0.115245 0.116065
0.118980 0.118971 0.119321
0.113401 0.113656 0.113749
0.122884 0.122917 0.123479
0.187098 0.187718 0.187584
0.161679 0.163716 0.162326
0.114131 0.115464 0.115487
0.120371 0.122636 0.121376
0.154594 0.154665 0.154526
0.133497 0.136011 0.134542
0.108321 0.108093 0.108482
0.095079 0.095238 0.095130
0.137084 0.136905 0.136751
0.155237 0.154341 0.153711
0.092239 0.092251 0.090663
0.134425 0.134468 0.134111
0.102529 0.102593 0.103071
0.136331 0.135836 0.138773
0.119015 0.118781 0.118454
0.164975 0.163388 0.163388
0.156700 0.156770 0.156110
0.157490 0.157444 0.156845
0.136055 0.136080 0.136868
0.100983 0.100683 0.100429
0.096272 0.095869 0.096714
0.157600 0.158088 0.158071
0.114638 0.117198 0.118106
0.132857 0.129000 0.129294
0.099960 0.100119 0.100356
0.186335 0.187582 0.187316
0.118049 0.118028 0.118331
0.074513 0.075497 0.076412
0.116396 0.114393 0.114478
0.179994 0.181572 0.181540
0.129018 0.128373 0.131173
0.165929 0.166275 0.165982
0.113829 0.113450 0.112993
0.153738 0.152091 0.151935
0.086592 0.085765 0.085448
0.116779 0.116513 0.116604
0.152679 0.153592 0.151775
0.109474 0.108329 0.109599
0.111720 0.111366 0.110760
0.158208 0.158940 0.159639
0.115898 0.115264 0.114153
0.069619 0.072352 0.072814
0.108516 0.107595 0.107598
0.119891 0.119256 0.119021
0.077619 0.077001 0.076415
0.085284 0.085293 0.084883
0.136913 0.136314 0.135486
0.150442 0.152535 0.152287
0.110558 0.110313 0.111897
0.168863 0.168183 0.168369
0.056790 0.059413 0.060528
0.150159 0.151330 0.151441
0.170914 0.170113 0.171123
0.208498 0.207714 0.207019
0.101591 0.101322 0.101547
0.084385 0.084219 0.084478
0.123201 0.122398 0.122453
0.123738 0.123601 0.123595
0.111158 0.110860 0.110826
0.124297 0.124756 0.124398
0.158649 0.158831 0.159002
0.148065 0.147227 0.147337
0.133131 0.133027 0.132833
0.157529 0.157674 0.157257
0.102605 0.100596 0.098652
0.106301 0.105562 0.105468
0.160760 0.161349 0.161237
0.194438 0.194919 0.197699
0.100027 0.099443 0.099220
0.155891 0.156260 0.158792
0.139752 0.139699 0.139870
0.131162 0.133046 0.133369
0.134067 0.134288 0.134825
0.176079 0.174761 0.178157
0.179873 0.173257 0.173003
0.159728 0.159461 0.158367
0.153202 0.152677 0.152964
0.131566 0.132780 0.132847
0.070935 0.070961 0.070936
0.155185 0.154488 0.153947
0.111911 0.112096 0.112639
0.148801 0.147803 0.147665
0.154942 0.157486 0.156956
0.135881 0.134883 0.134649
0.113278 0.113334 0.114766
0.103317 0.103506 0.101394
0.130557 0.133391 0.134657
0.176984 0.173241 0.172609
0.110239 0.109724 0.106333
0.112424 0.111339 0.110672
0.168229 0.168723 0.168690
0.051076 0.050548 0.050213
0.136650 0.136459 0.136090
0.098998 0.098734 0.098829
0.136059 0.135421 0.135032
0.117698 0.118720 0.118424
0.157167 0.157179 0.155416
0.111110 0.111551 0.111501
0.163757 0.165331 0.172256
0.169598 0.168552 0.169183
0.085631 0.086023 0.086410
0.150251 0.149948 0.147038
0.193805 0.196514 0.196549
0.134594 0.135615 0.136605
0.100322 0.101228 0.101293
0.170416 0.167540 0.166714
0.191526 0.191519 0.191466
0.064070 0.065253 0.065536
0.110784 0.110377 0.110213
0.102882 0.103217 0.103400
0.100532 0.100964 0.101397
0.157952 0.159145 0.159183
0.111535 0.112466 0.112999
0.097635 0.096865 0.096257
0.108113 0.107093 0.106555
0.150706 0.150535 0.151006
0.106685 0.106561 0.106599
0.100303 0.099909 0.097644
0.072171 0.071801 0.071198
0.139570 0.139439 0.139984
0.101626 0.104517 0.104096
0.105355 0.105609 0.105220
0.112161 0.113204 0.114159
0.088502 0.088190 0.086634
0.155265 0.155637 0.154743
0.156065 0.156448 0.156375
0.117867 0.117716 0.117417
0.115885 0.115860 0.116013
0.191619 0.191965 0.191518
0.163241 0.163911 0.164230
0.140633 0.141212 0.141118
0.100275 0.099932 0.099539
0.121950 0.117909 0.116770
0.168424 0.168749 0.168898
0.112140 0.112251 0.112309
0.141523 0.143643 0.145570
0.128514 0.128343 0.128492
0.128645 0.130183 0.130828
0.116973 0.117620 0.119267
0.158093 0.157705 0.157335
0.149612 0.150059 0.150182
0.134568 0.133857 0.134089
0.137983 0.139077 0.139063
0.084872 0.084696 0.084083
0.127784 0.128182 0.128383
0.120098 0.119898 0.119307
0.181665 0.181884 0.181694
0.139127 0.140735 0.141611
0.123955 0.125079 0.125671
0.119266 0.119471 0.116032
0.107993 0.107880 0.107662
0.151780 0.152182 0.152340
0.101986 0.101714 0.101916
0.088945 0.088871 0.087892
0.119803 0.118985 0.120085
0.187312 0.186184 0.186064
0.168575 0.167649 0.167621
0.095304 0.095546 0.095207
0.159946 0.158672 0.157959
0.119602 0.119605 0.119053
0.099912 0.098210 0.096480
0.153423 0.151301 0.153362
0.142275 0.142395 0.145340
0.167614 0.169105 0.162324
0.094781 0.095013 0.095285
0.098883 0.099408 0.099497
0.147229 0.146941 0.146871
0.117845 0.117982 0.117301
0.152787 0.154008 0.154269
0.070909 0.070865 0.070518
0.115286 0.115747 0.116370
0.151096 0.150520 0.152526
0.139963 0.141465 0.141813
0.169968 0.169877 0.170078
0.098620 0.099030 0.100576
0.151382 0.151935 0.151353
0.134110 0.134363 0.134603
0.104839 0.102789 0.102818
0.138490 0.138358 0.141911
0.159594 0.160397 0.160746
0.179630 0.180043 0.179819
0.140561 0.140731 0.140904
0.193470 0.191981 0.191902
0.125167 0.125630 0.126257
0.112329 0.112114 0.111822
0.119486 0.120663 0.120760
0.110651 0.110346 0.112935
0.099505 0.099106 0.096418
0.140723 0.141244 0.142552
0.151621 0.152115 0.152255
0.125949 0.126708 0.127123
0.106396 0.106425 0.106087
0.175087 0.174990 0.175066
0.118080 0.118690 0.118916
0.136838 0.136089 0.135092
0.116841 0.116713 0.116233
0.156416 0.157049 0.157418
0.147692 0.146933 0.147027
0.122945 0.124493 0.126752
0.177347 0.178273 0.177053
0.102060 0.102216 0.102140
0.164864 0.164899 0.164736
0.176219 0.176192 0.176468
0.102437 0.101569 0.100330
0.152931 0.155850 0.155450
0.113532 0.113284 0.114767
0.105318 0.103484 0.103420
0.104408 0.103963 0.104110
0.163456 0.161513 0.161099
0.147464 0.145115 0.151042
0.108409 0.108223 0.109566
0.064668 0.063705 0.059402
0.172419 0.170660 0.169057
0.107880 0.109426 0.109674
0.183015 0.183117 0.184360
0.159828 0.160237 0.162382
0.183383 0.183981 0.184197
0.165995 0.165601 0.163637
0.149043 0.148761 0.148843
0.157930 0.158368 0.158729
0.129787 0.129998 0.130118
0.164268 0.164917 0.164500
0.137745 0.139060 0.139189
0.150162 0.149923 0.149871
0.158391 0.158737 0.157942
0.164228 0.166146 0.166269
0.113809 0.113923 0.113856
0.103719 0.103568 0.101840
0.084835 0.085697 0.085415
0.178380 0.178074 0.174159
0.159854 0.160975 0.162801
0.103646 0.103943 0.104254
0.113787 0.113440 0.113190
0.101226 0.102002 0.102011
0.159023 0.157972 0.159168
0.153847 0.154363 0.154132
0.122257 0.121921 0.122827
0.134731 0.134510 0.134068
0.113028 0.113732 0.114657
0.163373 0.163346 0.163077
0.144969 0.147737 0.147539
0.155056 0.155318 0.155694
0.171745 0.172255 0.172715
0.109425 0.109632 0.109904
0.101806 0.102642 0.102367
0.157583 0.158271 0.159124
0.157266 0.156043 0.156502
0.143162 0.142225 0.139400
0.144129 0.144140 0.144194
0.142516 0.141557 0.138736
0.142379 0.141444 0.142393
0.115309 0.115525 0.115509
0.120819 0.121312 0.122932
0.147468 0.147910 0.145626
0.123076 0.123811 0.123758
0.136314 0.135486 0.135399
0.206304 0.206883 0.207674
0.157513 0.157572 0.157492
0.132125 0.133140 0.130963
0.153595 0.153651 0.153863
0.176269 0.174985 0.174506
0.186316 0.186034 0.186542
0.118249 0.119018 0.118322
0.120684 0.119788 0.119821
0.132503 0.132246 0.131714
0.141381 0.142221 0.143319
0.164169 0.166068 0.172535
0.110256 0.110006 0.110683
0.100320 0.101198 0.101284
0.110916 0.111767 0.112548
0.143248 0.143173 0.143240
0.108743 0.108642 0.108602
0.147947 0.148071 0.148540
0.110455 0.105734 0.105495
0.100578 0.100664 0.101468
0.126198 0.126097 0.126272
0.100490 0.100613 0.100744
0.079432 0.079267 0.079204
0.164580 0.164646 0.164905
0.101311 0.100320 0.101198
0.169201 0.168585 0.168642
0.163995 0.163404 0.162795
0.161540 0.159170 0.158858
0.102965 0.103023 0.101761
0.126510 0.126536 0.125860
0.119849 0.120652 0.121353
0.101277 0.101247 0.100781
0.104978 0.105369 0.106009
0.111150 0.110825 0.110931
0.156165 0.161316 0.163069
0.120948 0.121308 0.121612
0.159290 0.159235 0.158073
0.102537 0.100643 0.100759
0.075925 0.075970 0.076040
0.103157 0.103373 0.103003
0.161984 0.159473 0.162744
0.109458 0.108605 0.108527
0.098560 0.099556 0.098682
0.108374 0.106385 0.106199
0.070458 0.070186 0.068280
0.109000 0.111196 0.112150
0.116143 0.116431 0.116351
0.120894 0.121232 0.120139
0.160232 0.160233 0.162097
0.140527 0.140152 0.139413
0.113529 0.113834 0.112892
0.160586 0.149480 0.149037
0.166555 0.162969 0.160036
0.098187 0.098054 0.097969
0.143137 0.143908 0.144503
0.162463 0.163757 0.165331
0.176734 0.176588 0.174074
0.115417 0.116063 0.115209
0.137440 0.137919 0.139080
0.112102 0.111942 0.112190
0.149316 0.148831 0.149108
0.157188 0.158341 0.158191
0.163506 0.162611 0.163741
0.177264 0.176677 0.173045
0.107359 0.107443 0.105493
0.161510 0.159209 0.159095
0.175266 0.176256 0.176269
0.106518 0.106433 0.106545
0.155814 0.154250 0.153900
0.120817 0.121274 0.121205
0.112631 0.111956 0.113308
0.119760 0.120131 0.120289
0.101568 0.101862 0.102176
0.149098 0.148128 0.148055
0.151458 0.151495 0.151487
0.137770 0.138669 0.139053
0.117767 0.118567 0.118154
0.088117 0.087439 0.086713
0.144329 0.144382 0.144949
0.146996 0.147785 0.145496
0.146569 0.146556 0.145727
0.165572 0.165484 0.165038
0.119668 0.119954 0.120070
0.180649 0.178649 0.177965
0.120112 0.118502 0.116887
0.139558 0.137476 0.134427
0.107541 0.105985 0.105718
0.114447 0.114495 0.114145
0.154278 0.152592 0.153283
0.116136 0.116089 0.117520
0.112880 0.110883 0.110526
0.135722 0.135595 0.135609
0.103642 0.104092 0.103880
0.144980 0.145010 0.144815
0.167210 0.167478 0.166759
0.174559 0.175145 0.173871
0.175619 0.170830 0.172263
0.098099 0.099791 0.100132
0.114400 0.114679 0.114570
0.149030 0.149120 0.149039
0.140601 0.139292 0.138081
0.103760 0.104185 0.102529
0.122599 0.121716 0.121455
0.132279 0.132724 0.131829
0.104806 0.104895 0.104893
0.151755 0.152278 0.152735
0.120168 0.122808 0.124679
0.100555 0.101015 0.100624
0.163665 0.163109 0.163396
0.128239 0.126671 0.126655
0.160018 0.158587 0.158468
0.108826 0.108157 0.108358
0.161367 0.161419 0.160710
0.120461 0.121772 0.122350
0.112267 0.111595 0.112167
0.124377 0.124750 0.124894
0.145959 0.145254 0.145207
0.117043 0.116651 0.116956
0.100790 0.101264 0.100998
0.124369 0.122316 0.121365
0.169209 0.168732 0.168481
0.112747 0.114116 0.114951
0.108808 0.108596 0.110343
0.188315 0.187134 0.186902
0.146649 0.143750 0.144284
0.096104 0.096156 0.096228
0.148816 0.148167 0.147007
0.153163 0.152619 0.152387
0.107978 0.109013 0.108640
0.103599 0.102919 0.102617
0.149936 0.149718 0.149365
0.164049 0.166793 0.167061
0.145542 0.145658 0.146256
0.169695 0.169920 0.175222
0.110767 0.113570 0.112188
0.101416 0.102030 0.102052
0.156849 0.153763 0.153575
0.157233 0.158831 0.158557
0.095686 0.095975 0.096126
0.090790 0.090687 0.090940
0.104691 0.104801 0.104641
0.056215 0.055748 0.054388
0.132543 0.133143 0.133586
0.167064 0.167492 0.166915
0.139145 0.137675 0.137564
0.150698 0.149621 0.149402
0.150954 0.151421 0.151343
0.078888 0.078749 0.079065
0.177823 0.177093 0.177060
0.183713 0.182416 0.190544
0.113881 0.113474 0.113901
0.139157 0.138470 0.138280
0.102507 0.101730 0.101348
0.152360 0.153717 0.153655
0.099919 0.100523 0.100648
0.135982 0.132204 0.130411
0.101076 0.101930 0.101525
0.142975 0.143304 0.143798
0.160256 0.159672 0.160135
0.102267 0.101798 0.102120
0.109135 0.109803 0.109934
0.088659 0.088859 0.088642
0.134539 0.135534 0.135415
0.084462 0.084214 0.083303
0.132350 0.132885 0.134326
0.140286 0.139435 0.140494
0.108558 0.108633 0.109018
0.110129 0.109263 0.109349
0.176250 0.176527 0.178296
0.086571 0.089006 0.089981
0.145671 0.144590 0.144856
0.089063 0.089086 0.088812
0.169197 0.169571 0.170332
0.103949 0.106355 0.106619
0.140099 0.139750 0.139302
0.173216 0.172866 0.169642
0.142147 0.143201 0.143986
0.131605 0.131210 0.129838
0.103582 0.103568 0.101517
0.131584 0.131818 0.132767
0.111376 0.111208 0.111133
0.099195 0.099370 0.099135
0.160943 0.160890 0.161540
0.106010 0.106621 0.106760
0.096209 0.096232 0.099839
0.147360 0.147495 0.147894
0.103709 0.103365 0.103542
0.080519 0.079119 0.079195
0.151958 0.150300 0.150251
0.111343 0.111062 0.110981
0.106068 0.106322 0.106687
0.118365 0.118411 0.117913
0.129320 0.129570 0.130079
0.097916 0.097280 0.096623
0.103536 0.102981 0.101840
0.164143 0.163167 0.163027
0.064556 0.064707 0.064785
0.100119 0.099378 0.099243
0.116301 0.116453 0.116301
0.120910 0.121143 0.121525
0.143311 0.143847 0.144469
0.103611 0.103342 0.103387
0.139227 0.138922 0.139071
0.112815 0.117761 0.117482
0.092771 0.092315 0.091962
0.100745 0.101258 0.101328
0.164782 0.164980 0.165646
0.112325 0.112719 0.113962
0.163209 0.162202 0.161803
0.077522 0.077209 0.077024
0.129682 0.130049 0.130663
0.111663 0.111698 0.111298
0.111955 0.111891 0.111888
0.086771 0.086523 0.086698
0.174122 0.173978 0.173936
0.083895 0.083627 0.083676
0.138927 0.139145 0.139587
0.099872 0.100883 0.101294
0.123257 0.124036 0.125622
0.142195 0.142058 0.140708
0.094212 0.092576 0.092292
0.147006 0.147234 0.160638
0.153872 0.155332 0.155321
0.139551 0.139700 0.140352
0.126645 0.126400 0.126881
0.111379 0.111353 0.110761
0.158233 0.159357 0.159538
0.084136 0.082857 0.085351
0.105593 0.105419 0.105119
0.154113 0.153803 0.154232
0.147854 0.147723 0.148083
0.120865 0.120471 0.120503
0.120040 0.120520 0.121107
0.129801 0.130961 0.130711
0.177807 0.182879 0.184195
0.118655 0.115818 0.115830
0.163939 0.162141 0.162585
0.112140 0.112026 0.112097
0.173952 0.173686 0.167282
0.103554 0.103450 0.104375
0.144255 0.145878 0.146994
0.067030 0.066313 0.057716
0.054161 0.054000 0.053822
0.103098 0.103093 0.102958
0.092547 0.092672 0.093235
0.155255 0.156724 0.157806
0.140222 0.140842 0.140614
0.121247 0.121278 0.121402
0.186617 0.186665 0.186944
0.174657 0.173908 0.171250
0.159486 0.157438 0.158155
0.155370 0.154506 0.153743
0.113697 0.113638 0.111842
0.104053 0.104283 0.104196
0.122775 0.121246 0.120698
0.156532 0.155993 0.155887
0.115194 0.114569 0.117938
0.117057 0.116807 0.116372
0.098778 0.094928 0.094186
0.101025 0.100985 0.101320
0.119283 0.119395 0.119509
0.140633 0.140853 0.140214
0.126507 0.128246 0.128038
0.096042 0.096194 0.096225
0.173677 0.173495 0.172642
0.113559 0.113037 0.112184
0.117672 0.117138 0.116810
0.163343 0.162961 0.162347
0.179966 0.180621 0.180327
0.101838 0.102415 0.100823
0.131107 0.132326 0.132126
0.151452 0.151519 0.153343
0.107906 0.107824 0.107708
