0.052274 0.052253 0.052098
0.059408 0.060120 0.060876
0.054974 0.055556 0.055693
0.053069 0.053076 0.053206
0.060757 0.061253 0.061504
0.058163 0.057985 0.058871
0.069688 0.069473 0.069301
0.050521 0.050277 0.050437
0.090473 0.089119 0.088804
0.090070 0.090374 0.090026
0.098559 0.098296 0.098030
0.093407 0.092033 0.092154
0.069957 0.070058 0.069767
0.062815 0.061826 0.062113
0.062423 0.062393 0.062079
0.058171 0.057845 0.058262
0.062988 0.063253 0.063293
0.059139 0.059241 0.059607
0.059415 0.059520 0.059270
0.056675 0.055615 0.055478
0.067619 0.067090 0.066906
0.059935 0.059806 0.059703
0.050942 0.050499 0.050430
0.094115 0.094159 0.094644
0.087515 0.088316 0.088347
0.059539 0.060139 0.060402
0.072936 0.073082 0.072760
0.086408 0.085786 0.085676
0.087567 0.086995 0.087611
0.069482 0.069494 0.069510
0.060371 0.060342 0.060547
0.053013 0.052861 0.053139
0.097936 0.098425 0.098717
0.097827 0.097731 0.098051
0.057820 0.057479 0.057084
0.094158 0.094513 0.094083
0.080986 0.080974 0.080475
0.068048 0.067205 0.067379
0.056002 0.056114 0.056008
0.095920 0.096110 0.096987
0.064802 0.064360 0.064764
0.056180 0.056944 0.057207
0.098593 0.098155 0.097956
0.069719 0.069780 0.068277
0.091505 0.091015 0.092330
0.090967 0.091305 0.091465
0.059222 0.059172 0.059105
0.071102 0.071112 0.071394
0.088165 0.087751 0.087951
0.090494 0.090526 0.091378
0.109538 0.110399 0.111266
0.060214 0.059575 0.059185
0.102295 0.101815 0.101993
0.100623 0.100224 0.100872
0.076657 0.077153 0.077210
0.065947 0.066279 0.066298
0.054646 0.054405 0.054376
0.114285 0.113850 0.114027
0.129863 0.128744 0.129215
0.066272 0.066470 0.065953
0.062667 0.062692 0.062516
0.059053 0.060581 0.062060
0.047917 0.047858 0.048710
0.096533 0.096131 0.095982
0.112874 0.112677 0.114009
0.070576 0.071327 0.071708
0.092195 0.092166 0.091991
0.106053 0.104958 0.105193
0.067757 0.068554 0.068428
0.057625 0.057924 0.058270
0.063081 0.063304 0.063221
0.061907 0.061785 0.062232
0.094091 0.094710 0.095037
0.104346 0.103871 0.104627
0.083726 0.083224 0.083351
0.104985 0.104857 0.104851
0.078206 0.078790 0.078875
0.059483 0.060377 0.060951
0.065180 0.065203 0.065002
0.071319 0.071226 0.070883
0.058200 0.058259 0.057328
0.059554 0.059299 0.059204
0.061832 0.061599 0.061895
0.063403 0.063807 0.063730
0.088781 0.087801 0.087550
0.094684 0.093674 0.093440
0.057089 0.056962 0.056911
0.068334 0.068633 0.068316
0.101133 0.101740 0.101870
0.059324 0.058736 0.058883
0.051567 0.051687 0.051493
0.075577 0.075915 0.075638
0.103375 0.102742 0.102467
0.104562 0.105217 0.105184
0.060396 0.060433 0.060418
0.105856 0.105599 0.105934
0.081007 0.080506 0.079480
0.089170 0.088589 0.088543
0.098071 0.097886 0.097802
0.056681 0.054414 0.054075
0.097141 0.096712 0.096888
0.064138 0.063737 0.062982
0.103449 0.103426 0.103566
0.066584 0.065463 0.064092
0.069221 0.069213 0.068981
0.062558 0.062656 0.062779
0.059548 0.059650 0.059406
0.056851 0.056754 0.056294
0.095425 0.095594 0.095888
0.056118 0.055842 0.055827
0.062622 0.061928 0.061909
0.058432 0.058177 0.057314
0.101636 0.101995 0.102266
0.056909 0.057150 0.057388
0.095048 0.094520 0.094482
0.053186 0.053311 0.053408
0.054923 0.055144 0.055702
0.075770 0.075527 0.075255
0.072885 0.073368 0.073751
0.063568 0.063553 0.063562
0.062991 0.063166 0.063297
0.084649 0.083687 0.083961
0.103497 0.104622 0.104870
0.060577 0.060868 0.060789
0.098307 0.099781 0.100438
0.049599 0.049417 0.049545
0.108050 0.107762 0.105801
0.055585 0.055522 0.055786
0.114000 0.113988 0.114588
0.058106 0.057986 0.057188
0.086783 0.086830 0.088797
0.098078 0.098185 0.098140
0.067598 0.067682 0.067544
0.076787 0.076605 0.076625
0.057898 0.057313 0.057098
0.057129 0.057258 0.057705
0.049280 0.048735 0.048419
0.064793 0.065080 0.064780
0.100429 0.100168 0.100753
0.108852 0.109360 0.109163
0.082354 0.083275 0.084003
0.058823 0.058627 0.058732
0.099731 0.099977 0.099891
0.094902 0.095253 0.095363
0.101957 0.102084 0.102226
0.064572 0.064562 0.064784
0.058311 0.058240 0.058577
0.094951 0.095031 0.095835
0.054630 0.053987 0.053993
0.056185 0.056101 0.055959
0.126356 0.126326 0.126732
0.097221 0.097495 0.097356
0.053635 0.053688 0.053507
0.066472 0.066200 0.066525
0.059577 0.059517 0.059056
0.065158 0.064698 0.063878
0.058284 0.058534 0.057760
0.097139 0.096929 0.096695
0.057159 0.057143 0.056449
0.068206 0.066174 0.066474
0.068184 0.068478 0.068926
0.071486 0.071161 0.071209
0.125268 0.125457 0.125268
0.105885 0.105938 0.106302
0.075092 0.074889 0.075087
0.058063 0.057586 0.057561
0.098101 0.098332 0.097961
0.067655 0.067523 0.067026
0.102242 0.104695 0.104508
0.091880 0.092693 0.092971
0.056540 0.055986 0.055360
0.098977 0.098738 0.098873
0.052455 0.051627 0.051367
0.104369 0.103946 0.103937
0.057188 0.057328 0.057451
0.096527 0.096886 0.097400
0.090609 0.091447 0.093008
0.106286 0.106398 0.105434
0.062342 0.062260 0.062536
0.066290 0.066336 0.066298
0.052299 0.052079 0.052143
0.092724 0.093004 0.093386
0.064619 0.064597 0.066208
0.096411 0.095334 0.095332
0.056651 0.056970 0.057011
0.058855 0.058820 0.059138
0.059177 0.059266 0.059105
0.094263 0.095178 0.093376
0.048445 0.048528 0.047919
0.093973 0.094237 0.094182
0.070849 0.070558 0.071121
0.053930 0.053849 0.053973
0.076609 0.076360 0.075893
0.060243 0.060282 0.060533
0.090534 0.089784 0.089513
0.067442 0.068398 0.068529
0.102142 0.101746 0.101005
0.060347 0.059117 0.059120
0.083201 0.082653 0.081967
0.078909 0.077895 0.076972
0.080003 0.079515 0.079345
0.105234 0.104679 0.103298
0.096998 0.097592 0.097675
0.081337 0.081590 0.081316
0.057078 0.057256 0.057309
0.053129 0.054162 0.054494
0.084505 0.084405 0.084144
0.050499 0.050430 0.049817
0.067702 0.068175 0.068187
0.064248 0.064159 0.063391
0.093547 0.093917 0.093049
0.068123 0.067588 0.067365
0.058586 0.057912 0.057146
0.055862 0.055674 0.055623
0.106775 0.107160 0.107630
0.061253 0.061504 0.061430
0.060227 0.059987 0.060415
0.109411 0.109320 0.108773
0.059771 0.059718 0.059398
0.056592 0.056878 0.057342
0.099562 0.098794 0.098376
0.076312 0.077057 0.077936
0.099032 0.099104 0.099452
0.087724 0.087884 0.087984
0.072139 0.072337 0.071184
0.059295 0.059413 0.059388
0.075016 0.075314 0.075782
0.089667 0.089165 0.089263
0.097023 0.095958 0.096059
0.092965 0.092574 0.091571
0.123761 0.123319 0.123349
0.087723 0.086107 0.084967
0.061806 0.061496 0.061731
0.084915 0.084556 0.084588
0.094291 0.094565 0.094439
0.100721 0.100978 0.100732
0.056823 0.057188 0.057918
0.062551 0.062705 0.062646
0.069184 0.068697 0.068077
0.107257 0.107478 0.107049
0.058708 0.058723 0.058559
0.068911 0.068388 0.068767
0.069620 0.068201 0.068372
0.055305 0.055320 0.055875
0.103189 0.103119 0.102991
0.069715 0.068823 0.069409
0.092971 0.093029 0.093691
0.076353 0.076666 0.076576
0.062439 0.062852 0.063118
0.093477 0.091982 0.090605
0.084812 0.085074 0.084566
0.104041 0.103075 0.103143
0.111675 0.115685 0.115933
0.070686 0.070986 0.071402
0.063942 0.063965 0.063649
0.057208 0.057597 0.057460
0.106574 0.105907 0.106363
0.053174 0.053027 0.053054
0.056824 0.056760 0.056796
0.070800 0.070173 0.070507
0.056660 0.056049 0.055152
0.058577 0.058341 0.058449
0.067477 0.067619 0.067090
0.064665 0.064550 0.066400
0.117409 0.117241 0.115556
0.060527 0.059441 0.059940
0.104390 0.104263 0.103847
0.067022 0.066896 0.067089
0.060044 0.059491 0.059211
0.097488 0.097436 0.097318
0.088931 0.090085 0.092439
0.084186 0.084098 0.084913
0.092005 0.091675 0.091354
0.053150 0.053094 0.053523
0.054855 0.054950 0.055140
0.090047 0.088271 0.087786
0.060892 0.060073 0.059794
0.096472 0.099298 0.100029
0.070083 0.070259 0.070701
0.075787 0.075548 0.075229
0.056434 0.056351 0.056449
0.089768 0.090063 0.091592
0.068129 0.068874 0.069806
0.066386 0.066204 0.065688
0.061111 0.061628 0.061953
0.069314 0.069544 0.068723
0.063598 0.064339 0.064103
0.058926 0.058959 0.058844
0.052634 0.052600 0.053038
0.090150 0.090782 0.091049
0.101993 0.101969 0.102351
0.104025 0.103612 0.103131
0.062432 0.062831 0.062838
0.078563 0.078308 0.078223
0.061864 0.062343 0.062831
0.089025 0.089287 0.089062
0.088866 0.088391 0.088641
0.106596 0.105692 0.105530
0.083885 0.084446 0.084834
0.096475 0.096812 0.098109
0.053322 0.053247 0.053300
0.079855 0.083953 0.084548
0.055482 0.055576 0.055004
0.095928 0.095363 0.095009
0.095288 0.094895 0.094412
0.075415 0.074935 0.070722
0.056225 0.056412 0.056616
0.099701 0.099254 0.098518
0.075910 0.076129 0.076516
0.112659 0.113732 0.112290
0.107448 0.107032 0.106676
0.069443 0.069387 0.069424
0.070636 0.070791 0.070807
0.067149 0.067173 0.067089
0.098970 0.099169 0.099164
0.096916 0.096000 0.096178
0.097883 0.097756 0.097652
0.094448 0.095037 0.094714
0.107522 0.107754 0.108147
0.065687 0.065696 0.065624
0.056661 0.057207 0.057451
0.056276 0.057224 0.057898
0.102500 0.101669 0.100521
0.057384 0.057315 0.057220
0.056135 0.055691 0.055300
0.057958 0.057863 0.057725
0.118869 0.119159 0.119654
0.108244 0.107865 0.106563
0.056569 0.056674 0.056365
0.095921 0.095653 0.095738
0.105888 0.105729 0.105768
0.102462 0.102986 0.103573
0.088174 0.088469 0.088626
0.061889 0.061944 0.062009
0.102165 0.101962 0.102239
0.075481 0.075141 0.074898
0.057014 0.056778 0.056793
0.092055 0.091256 0.091700
0.057110 0.055927 0.055899
0.091640 0.091340 0.091274
0.104409 0.101530 0.101381
0.103213 0.102972 0.102581
0.055361 0.055606 0.055536
0.066722 0.067317 0.068096
0.100408 0.100681 0.100857
0.102732 0.102816 0.102940
0.091415 0.091401 0.091218
0.072473 0.072332 0.072622
0.060354 0.060403 0.060337
0.059508 0.059768 0.059265
0.080540 0.080529 0.080531
0.065813 0.065578 0.065258
0.066750 0.066704 0.066619
0.061580 0.060881 0.061191
0.092445 0.091710 0.091366
0.057206 0.057209 0.057138
0.093778 0.093200 0.093093
0.098986 0.099799 0.099677
0.088832 0.088576 0.090846
0.098210 0.098835 0.098946
0.069215 0.069268 0.068924
0.060509 0.060498 0.060757
0.058408 0.058684 0.058057
0.091640 0.092637 0.093145
0.100233 0.100128 0.100441
0.095900 0.096015 0.096493
0.092856 0.092604 0.092529
0.055895 0.054805 0.054454
0.093444 0.093351 0.097863
0.070489 0.071062 0.071580
0.057937 0.057618 0.057586
0.113720 0.113647 0.113721
0.071129 0.071277 0.071380
0.048192 0.048396 0.049695
0.055390 0.055250 0.055166
0.068723 0.068205 0.068133
0.102172 0.101817 0.100875
0.095237 0.095309 0.094889
0.066012 0.065100 0.065630
0.106487 0.106749 0.106861
0.053036 0.053503 0.053778
0.094215 0.094773 0.094922
0.089560 0.089975 0.089403
0.060426 0.060906 0.060832
0.060597 0.061948 0.062300
0.094236 0.094315 0.093716
0.096005 0.095502 0.093994
0.047349 0.047547 0.047461
0.049569 0.049416 0.049279
0.096679 0.097296 0.097936
0.060459 0.060379 0.060520
0.057961 0.058782 0.059370
0.103297 0.102467 0.102491
0.119076 0.119123 0.119209
0.049638 0.049672 0.048853
0.057629 0.057891 0.057974
0.084891 0.084508 0.084568
0.082734 0.082109 0.080078
0.097719 0.097030 0.096736
0.092682 0.092628 0.092106
0.068601 0.068969 0.069143
0.077379 0.077815 0.076559
0.089697 0.090088 0.090474
0.090218 0.090581 0.092103
0.077372 0.077550 0.077157
0.099275 0.098784 0.098823
0.059637 0.059315 0.059487
0.060194 0.060503 0.060414
0.068309 0.070466 0.070369
0.056391 0.056544 0.056679
0.101172 0.101127 0.101034
0.083986 0.083743 0.083037
0.068339 0.068208 0.068364
0.058878 0.058909 0.059220
0.105415 0.105462 0.106165
0.059700 0.059455 0.059505
0.057874 0.058262 0.059080
0.068113 0.068768 0.068829
0.098182 0.097952 0.100172
0.064254 0.063924 0.063846
0.069964 0.070419 0.070046
0.055056 0.055155 0.055645
0.092157 0.091991 0.091725
0.063027 0.063583 0.063809
0.112482 0.112620 0.111755
0.054327 0.054552 0.054868
0.066387 0.065862 0.065852
0.090918 0.090307 0.090055
0.055433 0.055318 0.055142
0.056012 0.056349 0.056793
0.053867 0.054025 0.054273
0.103229 0.103184 0.102995
0.059487 0.059910 0.060004
0.055007 0.055021 0.055135
0.115328 0.115187 0.114925
0.087918 0.088142 0.088653
0.100922 0.100934 0.101084
0.058381 0.058020 0.058354
0.094161 0.092907 0.092561
0.060128 0.059810 0.059174
0.068951 0.066122 0.066393
0.097755 0.097392 0.097618
0.105535 0.105897 0.106286
0.090877 0.090401 0.091006
0.059608 0.059601 0.058667
0.056967 0.056537 0.056453
0.047979 0.048053 0.048122
0.070314 0.070755 0.070779
0.059689 0.059468 0.059645
0.096914 0.096991 0.097344
0.104614 0.104441 0.104041
0.096194 0.096371 0.095925
0.094013 0.093395 0.093568
0.103006 0.103125 0.103382
0.068296 0.068440 0.068003
0.093595 0.093813 0.093787
0.079280 0.079816 0.080165
0.061176 0.060299 0.059770
0.058033 0.057945 0.057674
0.062241 0.062432 0.062326
0.060018 0.060005 0.060222
0.067580 0.066772 0.066831
0.059670 0.059635 0.059963
0.062314 0.062734 0.062355
0.054162 0.054355 0.054295
0.073176 0.073050 0.073450
0.066917 0.066597 0.066950
0.065448 0.065734 0.065583
0.074556 0.075217 0.077220
0.064553 0.064607 0.064534
0.056320 0.056280 0.056548
0.063602 0.063237 0.063090
0.053156 0.053437 0.054742
0.109015 0.109342 0.112532
0.070110 0.070101 0.069595
0.088039 0.087754 0.087582
0.065387 0.065003 0.065100
0.058843 0.059093 0.058990
0.057938 0.057592 0.057751
0.089630 0.089814 0.090097
0.055431 0.055087 0.055622
0.082400 0.082150 0.081550
0.058021 0.058134 0.057719
0.088112 0.087822 0.087222
0.064904 0.064885 0.065359
0.057879 0.058264 0.058945
0.067842 0.067614 0.067723
0.109886 0.108531 0.108682
0.077461 0.077192 0.077307
0.100072 0.099890 0.100082
0.051649 0.051611 0.051734
0.061665 0.061447 0.061666
0.105583 0.103251 0.103381
0.106025 0.105748 0.104905
0.054759 0.054314 0.054294
0.054025 0.054273 0.053934
0.082155 0.081877 0.081088
0.052147 0.052004 0.052211
0.100934 0.099811 0.099225
0.099485 0.099535 0.099405
0.099974 0.100151 0.099685
0.096994 0.097333 0.096086
0.067794 0.067600 0.067848
0.103982 0.105123 0.104638
0.093168 0.093642 0.093734
0.053651 0.053349 0.053197
0.099061 0.099005 0.099190
0.070411 0.070342 0.070525
0.061929 0.061884 0.062266
0.093332 0.094211 0.094089
0.091545 0.091140 0.091305
0.092896 0.093073 0.094260
0.077060 0.076839 0.077364
0.058748 0.058341 0.057999
0.066931 0.067775 0.067719
0.065560 0.065467 0.065334
0.062980 0.062622 0.062736
0.054764 0.053907 0.052999
0.109251 0.109482 0.108946
0.080170 0.080586 0.080490
0.057319 0.057242 0.056877
0.062981 0.063130 0.063063
0.067407 0.068030 0.067886
0.103161 0.103003 0.103645
0.089245 0.089012 0.089279
0.053436 0.053123 0.052427
0.073184 0.074033 0.073284
0.069844 0.069802 0.069547
0.092053 0.092752 0.092877
0.059291 0.059159 0.059036
0.080835 0.080664 0.080638
0.056933 0.057267 0.057232
0.062279 0.061849 0.061945
0.058330 0.057258 0.057117
0.099543 0.099202 0.099741
0.073071 0.073156 0.073528
0.061245 0.061589 0.061277
0.058163 0.058128 0.058364
0.123283 0.122970 0.122972
0.060328 0.060670 0.060824
0.053932 0.053524 0.053413
0.105824 0.105625 0.105615
0.053917 0.053832 0.054155
0.056601 0.056195 0.055035
0.058517 0.058617 0.058763
0.092716 0.092167 0.093260
0.064404 0.063930 0.064071
0.102743 0.102830 0.102999
0.067833 0.067266 0.067142
0.055334 0.054630 0.053987
0.078701 0.078578 0.078538
0.101904 0.099993 0.098200
0.070242 0.069921 0.069595
0.061764 0.061671 0.061503
0.084059 0.084055 0.083934
0.094022 0.094043 0.094092
0.063134 0.063198 0.063545
0.101538 0.101172 0.100635
0.123747 0.122261 0.122268
0.052728 0.053424 0.053487
0.104559 0.103976 0.104581
0.094922 0.094622 0.095242
0.098560 0.098301 0.098109
0.061985 0.061508 0.061232
0.096837 0.096738 0.097752
0.099505 0.099562 0.099576
0.121963 0.121806 0.123752
0.070837 0.070417 0.069954
0.070018 0.069378 0.069164
0.096941 0.096903 0.096837
0.071834 0.071820 0.071725
0.099941 0.100581 0.101665
0.062831 0.062838 0.062640
0.102679 0.102592 0.103736
0.052858 0.052618 0.052367
0.066386 0.066591 0.066586
0.081970 0.081082 0.079377
0.095178 0.093376 0.092903
0.108905 0.108647 0.109114
0.122996 0.122935 0.122993
0.069047 0.069173 0.069360
0.094178 0.094513 0.094405
0.055730 0.055743 0.056286
0.059651 0.059419 0.059514
0.070715 0.069981 0.070264
0.087786 0.087778 0.087856
0.049654 0.049452 0.050247
0.061357 0.060428 0.060579
0.091794 0.091869 0.091892
0.062040 0.062506 0.063334
0.048313 0.048271 0.048293
0.105292 0.105463 0.105342
0.099254 0.099317 0.099289
0.059031 0.059190 0.059282
0.096583 0.096894 0.097550
0.062855 0.063093 0.063204
0.056909 0.056466 0.056128
0.085233 0.085340 0.085314
0.052632 0.052526 0.052419
0.102482 0.102535 0.102514
0.098223 0.097918 0.097067
0.060987 0.060578 0.060829
0.057730 0.057377 0.057208
0.097149 0.097176 0.097166
0.062541 0.062492 0.062666
0.103599 0.103178 0.103064
0.095402 0.097468 0.097402
0.074956 0.070744 0.070337
0.054357 0.053822 0.053689
0.060855 0.061062 0.061362
0.055347 0.056966 0.057184
0.051202 0.051265 0.051361
0.059861 0.059858 0.059421
0.065802 0.066027 0.066307
0.083591 0.083508 0.083797
0.088635 0.088266 0.089295
0.053836 0.054052 0.054619
0.055394 0.054648 0.054370
0.050640 0.050311 0.050371
0.059354 0.059703 0.059319
0.073241 0.073378 0.074103
0.054043 0.054265 0.054127
0.049629 0.049825 0.050066
0.053021 0.052978 0.053006
0.081609 0.080622 0.080403
0.055445 0.055659 0.055781
0.075591 0.077180 0.076941
0.061282 0.061197 0.061188
0.056139 0.056223 0.056521
0.089579 0.089158 0.088724
0.080157 0.079384 0.079450
0.094255 0.095208 0.094738
0.055422 0.055106 0.055273
0.127421 0.126860 0.126422
0.086558 0.086881 0.086634
0.104093 0.103472 0.104045
0.049399 0.049550 0.050275
0.053986 0.053822 0.053949
0.062175 0.062121 0.062323
0.075150 0.075103 0.075595
0.057857 0.057242 0.057431
0.105023 0.104944 0.104739
0.065061 0.065236 0.065241
0.061058 0.061254 0.061325
0.059613 0.059993 0.059734
0.115482 0.115345 0.114376
0.071127 0.071171 0.071146
0.066804 0.067198 0.068542
0.097935 0.097630 0.097979
0.100573 0.100919 0.101046
0.069461 0.069395 0.069540
0.095646 0.095860 0.096110
0.053623 0.053413 0.053536
0.066098 0.065002 0.065386
0.073579 0.074012 0.073819
0.057859 0.057560 0.057771
0.058941 0.058871 0.058163
0.068476 0.069357 0.069946
0.053746 0.054072 0.053974
0.059210 0.059288 0.059659
0.097693 0.099193 0.099124
0.062696 0.063132 0.063164
0.056599 0.056660 0.056049
0.095821 0.096621 0.097902
0.066464 0.066252 0.066162
0.059933 0.059547 0.059829
0.057826 0.058017 0.057929
0.095818 0.094732 0.094947
0.056760 0.056899 0.056872
0.056934 0.056884 0.056632
0.088010 0.088221 0.088452
0.087856 0.087715 0.086414
0.061025 0.060435 0.060547
0.051169 0.051463 0.051136
0.059584 0.059399 0.059191
0.059911 0.060214 0.059575
0.066476 0.066643 0.066867
0.104555 0.105362 0.107452
0.096806 0.095653 0.096004
0.072720 0.073166 0.073762
0.058806 0.058882 0.058648
0.055871 0.055808 0.055596
0.085932 0.085011 0.084683
0.057544 0.057014 0.056806
0.057065 0.056813 0.057372
0.053807 0.054114 0.054741
0.100190 0.100536 0.101230
0.060455 0.060152 0.060580
0.062770 0.062645 0.062298
0.068255 0.068449 0.068579
0.054271 0.054090 0.053863
0.086040 0.085865 0.086258
0.081218 0.081293 0.080800
0.107393 0.107786 0.107761
0.054450 0.054428 0.054459
0.063830 0.064272 0.064913
0.077522 0.077620 0.077140
0.061685 0.062007 0.061700
0.076839 0.077364 0.077794
0.073134 0.073223 0.073306
0.094691 0.094529 0.095844
0.094920 0.095292 0.095588
0.121898 0.121726 0.121618
0.077245 0.075856 0.076139
0.048618 0.048484 0.048674
0.062153 0.061911 0.061265
0.059211 0.059048 0.059440
0.056702 0.056560 0.056366
0.090048 0.091081 0.092058
0.055522 0.055604 0.055855
0.063709 0.063801 0.063891
0.053523 0.053205 0.052932
0.063460 0.064060 0.064083
0.056611 0.056507 0.056063
0.089310 0.088898 0.088697
0.071863 0.072253 0.072204
0.102632 0.102463 0.102846
0.126605 0.126468 0.126534
0.059741 0.060439 0.060119
0.059115 0.059489 0.059562
0.092151 0.090982 0.090815
0.081743 0.081652 0.081369
0.096155 0.096234 0.094971
0.109212 0.109106 0.109413
0.099775 0.098476 0.098665
0.050510 0.050457 0.050092
0.078155 0.078193 0.078137
0.071752 0.071641 0.072480
0.102949 0.102755 0.102183
0.104792 0.105165 0.104209
0.052604 0.052599 0.052680
0.070770 0.070363 0.070364
0.089229 0.089453 0.089474
0.108305 0.109881 0.109711
0.091540 0.091651 0.092339
0.058082 0.057813 0.058282
0.064365 0.064562 0.066689
0.096282 0.096675 0.097578
0.094411 0.094846 0.094876
0.055604 0.055729 0.055358
0.061781 0.064265 0.064701
0.084452 0.083629 0.083063
0.059641 0.060136 0.060410
0.100491 0.100673 0.100510
0.103779 0.103807 0.104538
0.052624 0.052621 0.052902
0.066173 0.067049 0.067224
0.059914 0.060417 0.060213
0.070511 0.069904 0.069002
0.060759 0.061052 0.061221
0.092339 0.092474 0.092178
0.086626 0.086548 0.086655
0.055602 0.055453 0.055541
0.053642 0.053590 0.053625
0.105267 0.105704 0.105955
0.069000 0.069242 0.069190
0.110741 0.110689 0.109724
0.105771 0.105546 0.104869
0.084237 0.083960 0.083955
0.093544 0.093724 0.093278
0.056482 0.055827 0.055758
0.095786 0.096326 0.096355
0.052913 0.052579 0.052624
0.051607 0.051591 0.051611
0.055662 0.056068 0.056471
0.070689 0.070734 0.070390
0.091652 0.091926 0.092587
0.052789 0.053900 0.054149
0.076559 0.076378 0.075900
0.059272 0.059810 0.059680
0.108627 0.109840 0.110519
0.083876 0.083193 0.083159
0.062279 0.063006 0.064005
0.058893 0.058885 0.059050
0.062264 0.062156 0.062326
0.097046 0.096107 0.096018
0.107209 0.107158 0.107113
0.099141 0.098358 0.098279
0.102732 0.102747 0.102614
0.071032 0.071401 0.072311
0.080778 0.080498 0.079787
0.057867 0.057769 0.057823
0.052230 0.052211 0.052203
0.058959 0.060480 0.060426
0.053628 0.053583 0.053743
0.096593 0.096468 0.096462
0.057823 0.057776 0.057623
0.061759 0.062096 0.062101
0.055913 0.055453 0.055084
0.106689 0.106732 0.105205
0.096838 0.097014 0.096733
0.060893 0.061072 0.060543
0.102178 0.102244 0.102242
0.099439 0.099340 0.099555
0.059650 0.059840 0.059907
0.063846 0.063725 0.063615
0.054214 0.053967 0.054047
0.058526 0.057876 0.057895
0.069561 0.069257 0.068938
0.049351 0.049559 0.049910
0.098712 0.098716 0.098924
0.056502 0.056580 0.056651
0.060951 0.060472 0.060654
0.058631 0.058825 0.059176
0.092478 0.092372 0.093719
0.069783 0.068538 0.068452
0.063494 0.063546 0.063726
0.061545 0.060500 0.058959
0.049374 0.048583 0.048035
0.063628 0.064043 0.064278
0.059007 0.059176 0.059186
0.082319 0.082876 0.082764
0.107122 0.107400 0.107012
0.079930 0.076769 0.075332
0.086191 0.086270 0.085840
0.055387 0.054987 0.054642
0.055296 0.055700 0.056017
0.098325 0.097499 0.097299
0.097313 0.098736 0.098923
0.061571 0.062277 0.062275
0.102418 0.102962 0.105826
0.063209 0.062866 0.062816
0.061135 0.061568 0.061788
0.101971 0.102247 0.102284
0.062220 0.061743 0.061908
0.058260 0.057959 0.057866
0.103855 0.103815 0.103958
0.077423 0.077714 0.077551
0.110030 0.110399 0.109965
0.062805 0.062759 0.063003
0.092871 0.093167 0.093461
0.069645 0.069420 0.069414
0.053191 0.053027 0.053284
0.068378 0.068898 0.068770
0.059304 0.059651 0.059498
0.105104 0.105154 0.105771
0.081748 0.081394 0.081050
0.071149 0.071343 0.071219
0.050064 0.050778 0.051734
0.061472 0.060707 0.060564
0.097469 0.097372 0.099987
0.080180 0.079685 0.078826
0.061101 0.060918 0.059532
0.058698 0.058485 0.058147
0.085687 0.086201 0.087635
0.068515 0.068288 0.068101
0.061116 0.060699 0.060741
0.055192 0.055466 0.055751
0.104622 0.104870 0.105343
0.102810 0.102905 0.102269
0.090548 0.092461 0.092701
0.100612 0.100000 0.098872
0.057046 0.057038 0.056991
0.110390 0.110755 0.112671
0.049585 0.049679 0.048840
0.075735 0.075505 0.075174
0.081099 0.080851 0.080582
0.071254 0.071327 0.071317
0.110449 0.109702 0.109624
0.090389 0.089922 0.089911
0.117486 0.117203 0.115934
0.057603 0.057274 0.057331
0.094334 0.095813 0.096031
0.058753 0.057770 0.057093
0.058085 0.057991 0.057986
0.051929 0.051347 0.051417
0.107216 0.106947 0.106842
0.088058 0.088834 0.089475
0.050827 0.050775 0.050967
0.090294 0.089712 0.090003
0.114487 0.114779 0.115390
0.065085 0.063740 0.063860
0.059315 0.059487 0.059910
0.104572 0.104483 0.104291
0.059563 0.059638 0.059027
0.059149 0.059185 0.059463
0.115508 0.116331 0.116824
0.054392 0.054633 0.054943
0.060274 0.059869 0.059505
0.062940 0.062634 0.062596
0.057641 0.058076 0.058217
0.055949 0.055429 0.055543
0.060517 0.059969 0.059901
0.113777 0.113477 0.113290
0.067742 0.068062 0.067788
0.056910 0.056790 0.056840
0.055361 0.055549 0.055930
0.054230 0.054131 0.054290
0.054607 0.054654 0.054451
0.089117 0.087397 0.086831
0.086394 0.084175 0.084669
0.056788 0.056800 0.056653
0.117211 0.117027 0.115420
0.099984 0.101018 0.101700
0.064769 0.065544 0.066381
0.053257 0.053170 0.053056
0.109743 0.108566 0.108875
0.100419 0.102394 0.102053
0.084727 0.084815 0.084252
0.085057 0.083810 0.084026
0.111123 0.110639 0.111210
0.086655 0.086408 0.085677
0.055135 0.054226 0.052980
0.109239 0.109480 0.108076
0.062668 0.061939 0.062171
0.092486 0.092149 0.092185
0.100998 0.100853 0.101614
0.056471 0.056409 0.056358
0.087449 0.088009 0.088555
0.061920 0.061760 0.062126
0.070343 0.070286 0.069999
0.106634 0.106870 0.106958
0.059390 0.059220 0.059222
0.061946 0.062264 0.062117
0.066505 0.066254 0.065960
0.071135 0.071412 0.071510
0.065403 0.065383 0.065451
0.056779 0.056458 0.056301
0.073521 0.073727 0.073913
0.062521 0.062270 0.061787
0.092423 0.092126 0.092219
0.050472 0.051144 0.050944
0.098958 0.099609 0.099912
0.053991 0.054217 0.054252
0.091970 0.092364 0.090008
0.057847 0.058253 0.058469
0.065080 0.064780 0.064355
0.095827 0.095443 0.095185
0.085699 0.085084 0.084109
0.060677 0.061208 0.061414
0.063918 0.063557 0.064125
0.064282 0.064140 0.063332
0.099193 0.099124 0.098934
0.124958 0.124586 0.123679
0.053370 0.053381 0.053454
0.071202 0.071164 0.071459
0.054110 0.054348 0.053944
0.072233 0.072010 0.071716
0.057537 0.057481 0.057175
0.107110 0.107417 0.106807
0.064047 0.063960 0.064071
0.106646 0.107082 0.106203
0.052203 0.051506 0.051700
0.058972 0.058968 0.058985
0.065120 0.065026 0.064907
0.101798 0.100989 0.101298
0.091844 0.090964 0.090698
0.067293 0.066955 0.067429
0.097427 0.097870 0.098137
0.093849 0.094891 0.094730
0.090037 0.089273 0.089438
0.051625 0.051867 0.051645
0.066918 0.067263 0.067107
0.089601 0.089634 0.089333
0.070785 0.070543 0.070372
0.067489 0.065196 0.065222
0.062533 0.062528 0.060849
0.057719 0.057805 0.058339
0.056996 0.057357 0.057225
0.105929 0.106568 0.104738
0.063126 0.063096 0.062862
0.069295 0.069166 0.069672
0.052847 0.052983 0.052802
0.062483 0.062030 0.062077
0.116457 0.116494 0.116899
0.053293 0.053128 0.052994
0.055593 0.055452 0.055349
0.068092 0.066539 0.066265
0.058744 0.058830 0.058884
0.073940 0.077129 0.078102
0.101552 0.102005 0.102687
0.106896 0.105424 0.105079
0.091997 0.092589 0.093484
0.055303 0.055422 0.055429
0.070764 0.070970 0.071085
0.095150 0.094933 0.094820
0.057902 0.057776 0.057637
0.054664 0.054561 0.054456
0.060469 0.060321 0.060625
0.063142 0.063210 0.063211
0.059814 0.059290 0.059074
0.056778 0.055722 0.056375
0.071187 0.071241 0.071092
0.091034 0.090717 0.091185
0.080727 0.077046 0.078227
0.074550 0.073735 0.073588
0.117288 0.119156 0.119096
0.085203 0.084954 0.084754
0.051990 0.052104 0.052273
0.054327 0.054994 0.054971
0.056648 0.056768 0.057327
0.089584 0.089601 0.089634
0.056000 0.056016 0.054999
0.095711 0.095897 0.095997
0.064566 0.064633 0.067401
0.062663 0.062176 0.061830
0.076598 0.076040 0.076152
0.068131 0.068836 0.069800
0.093933 0.093741 0.093689
0.055422 0.055429 0.055351
