0.191900 0.196661 0.196962
0.181516 0.181394 0.182324
0.066668 0.074918 0.079236
0.254662 0.257674 0.258484
0.018981 0.017868 0.017032
0.015985 0.015961 0.016056
0.020360 0.028645 0.030767
0.215558 0.213885 0.202700
0.015581 0.015644 0.015887
0.113343 0.113262 0.112897
0.019083 0.019109 0.019283
0.291366 0.292018 0.292207
0.033639 0.033678 0.033676
0.016254 0.016048 0.016018
0.014268 0.014201 0.014211
0.052418 0.048165 0.047825
0.014070 0.014138 0.014139
0.016567 0.016343 0.016329
0.157174 0.158398 0.158681
0.045595 0.045591 0.045606
0.042801 0.042817 0.042812
0.014736 0.014750 0.014695
0.016394 0.016372 0.016401
0.183178 0.181864 0.178782
0.248669 0.248984 0.248828
0.018249 0.018288 0.018283
0.167682 0.166679 0.159492
0.285157 0.285327 0.285214
0.194766 0.193577 0.190517
0.018101 0.018178 0.018221
0.203863 0.200788 0.198748
0.057121 0.057060 0.056909
0.220499 0.221128 0.221795
0.014523 0.014500 0.014602
0.202201 0.200974 0.201466
0.016591 0.016363 0.016306
0.047242 0.047238 0.047254
0.202948 0.202485 0.202314
0.018725 0.018331 0.018233
0.023361 0.023402 0.023392
0.015292 0.015218 0.015217
0.156078 0.155771 0.155024
0.032847 0.032843 0.032841
0.016217 0.016136 0.016043
0.189761 0.189881 0.190051
0.018295 0.018146 0.017849
0.135063 0.135365 0.135159
0.143424 0.141278 0.139495
0.192395 0.178934 0.178124
0.021408 0.021812 0.021913
0.015487 0.015409 0.015415
0.259957 0.258317 0.257562
0.022687 0.022063 0.021630
0.016342 0.016328 0.016389
0.174308 0.175136 0.177179
0.043900 0.044204 0.044759
0.176380 0.176445 0.181690
0.012815 0.012828 0.012932
0.255505 0.254305 0.253811
0.014234 0.014313 0.014338
0.195161 0.194898 0.195941
0.257034 0.255416 0.255280
0.016799 0.017344 0.017414
0.253072 0.251448 0.251660
0.176539 0.176295 0.176064
0.014088 0.014123 0.014105
0.158705 0.158953 0.159163
0.252946 0.251600 0.249032
0.233476 0.233682 0.237905
0.032816 0.032815 0.032793
0.073856 0.074516 0.075019
0.157046 0.156000 0.159160
0.195646 0.194420 0.193752
0.221965 0.222297 0.220920
0.185763 0.182717 0.186481
0.087281 0.087925 0.090579
0.091100 0.090440 0.089957
0.021501 0.021518 0.021547
0.015563 0.015448 0.015348
0.287992 0.288604 0.289709
0.169443 0.172054 0.172104
0.033171 0.033157 0.033088
0.120118 0.120618 0.120678
0.017952 0.018058 0.017994
0.181052 0.182201 0.182900
0.128097 0.142996 0.153547
0.056620 0.056802 0.056893
0.197867 0.203627 0.206386
0.013793 0.013717 0.013735
0.016160 0.016147 0.016179
0.030464 0.030476 0.030453
0.238011 0.238285 0.238197
0.071906 0.068668 0.058115
0.160356 0.161533 0.162492
0.030564 0.030633 0.031268
0.016062 0.016724 0.017849
0.210508 0.211663 0.212255
0.016191 0.016200 0.016236
0.151403 0.155051 0.155072
0.016427 0.016263 0.015940
0.046672 0.046958 0.047094
0.242971 0.243289 0.243920
0.015361 0.015427 0.015420
0.018004 0.018195 0.018312
0.016866 0.016918 0.016766
0.015442 0.015351 0.015385
0.015233 0.015117 0.014873
0.017919 0.017979 0.017919
0.032841 0.032838 0.032895
0.014891 0.014831 0.014809
0.185229 0.187127 0.192995
0.228034 0.227827 0.230178
0.158673 0.159925 0.159073
0.016408 0.016584 0.016713
0.246211 0.253543 0.255028
0.289367 0.281120 0.279134
0.016905 0.016949 0.017001
0.017010 0.017121 0.017157
0.255142 0.257238 0.257441
0.197231 0.197283 0.197258
0.014641 0.014885 0.014852
0.015297 0.015319 0.015329
0.027725 0.027455 0.027061
0.014211 0.014236 0.014332
0.149689 0.147634 0.138866
0.221142 0.220471 0.218921
0.014322 0.014383 0.014600
0.152491 0.152265 0.153411
0.015192 0.015255 0.015366
0.018126 0.018051 0.018005
0.016538 0.016497 0.016367
0.015902 0.015859 0.015766
0.014568 0.014455 0.014467
0.174104 0.172608 0.172732
0.255015 0.255082 0.255769
0.021232 0.021566 0.021344
0.020187 0.020171 0.020302
0.032814 0.032848 0.032820
0.015323 0.015312 0.015219
0.290541 0.290878 0.290919
0.203562 0.213611 0.217612
0.056214 0.056526 0.056698
0.017097 0.017071 0.017089
0.176423 0.175979 0.176495
0.014472 0.014390 0.014376
0.016003 0.015975 0.015991
0.018204 0.018231 0.018235
0.048016 0.050291 0.059224
0.151255 0.149948 0.149472
0.095029 0.095308 0.098837
0.195588 0.193751 0.180221
0.016815 0.016584 0.016630
0.252022 0.250846 0.248262
0.015361 0.015319 0.015327
0.159122 0.159128 0.158992
0.022010 0.022161 0.022464
0.016344 0.016323 0.016400
0.015131 0.015462 0.015609
0.239074 0.238684 0.238180
0.205584 0.206108 0.206657
0.015042 0.014951 0.015019
0.016202 0.016086 0.015953
0.157828 0.158411 0.163985
0.015993 0.016019 0.016001
0.021228 0.021050 0.021093
0.017106 0.017079 0.017435
0.014086 0.014102 0.014129
0.159143 0.160884 0.160887
0.093089 0.092664 0.087040
0.186390 0.186526 0.184562
0.166371 0.167116 0.167598
0.018344 0.018449 0.018615
0.016012 0.015987 0.015340
0.227937 0.227136 0.226439
0.115141 0.114864 0.114106
0.071010 0.070974 0.070929
0.186083 0.186186 0.186151
0.166746 0.164198 0.157351
0.027748 0.027657 0.027584
0.014533 0.014532 0.014368
0.033461 0.033453 0.033413
0.014719 0.014723 0.015244
0.252360 0.251734 0.248407
0.014567 0.014563 0.014474
0.262802 0.257411 0.254076
0.190648 0.190085 0.189771
0.015359 0.015390 0.015369
0.251409 0.251895 0.251861
0.116790 0.116771 0.111583
0.195752 0.195275 0.195117
0.156270 0.156769 0.156822
0.189693 0.189688 0.189675
0.201767 0.200812 0.200633
0.219495 0.217661 0.217562
0.077458 0.070282 0.059715
0.182297 0.181204 0.169674
0.213520 0.216087 0.215193
0.098035 0.098091 0.098094
0.015787 0.015770 0.015604
0.228437 0.228340 0.228445
0.033300 0.033306 0.033237
0.017526 0.017486 0.017665
0.214444 0.212917 0.210623
0.108738 0.107601 0.106903
0.015218 0.015310 0.015231
0.273928 0.274490 0.274842
0.016925 0.016916 0.016950
0.274252 0.279278 0.280207
0.017017 0.016801 0.016866
0.185529 0.185123 0.184794
0.015959 0.016022 0.015976
0.015773 0.015961 0.016012
0.015811 0.015760 0.015776
0.225987 0.225798 0.225728
0.223637 0.223642 0.224536
0.018025 0.017990 0.018101
0.015217 0.015132 0.015179
0.015178 0.015184 0.015141
0.211233 0.211900 0.211002
0.188503 0.186168 0.185526
0.014884 0.014681 0.014755
0.014094 0.014157 0.014134
0.014566 0.014594 0.014616
0.198824 0.199289 0.201748
0.154149 0.149673 0.149562
0.202552 0.194300 0.190103
0.190096 0.191268 0.190353
0.021873 0.021636 0.021589
0.243354 0.241670 0.240677
0.275699 0.275890 0.274825
0.168727 0.168784 0.169366
0.014594 0.014603 0.014615
0.153462 0.148485 0.146721
0.211986 0.214938 0.214795
0.149309 0.149705 0.149279
0.246965 0.245323 0.242593
0.129400 0.130936 0.131484
0.033139 0.033261 0.033324
0.100608 0.100590 0.100096
0.211186 0.212703 0.211597
0.015238 0.015318 0.015451
0.161319 0.159078 0.160339
0.173927 0.174369 0.177444
0.203693 0.203923 0.204021
0.014137 0.014158 0.014154
0.237764 0.238346 0.238235
0.195884 0.195751 0.194766
0.158322 0.160141 0.159927
0.242828 0.244179 0.245504
0.159135 0.159181 0.159310
0.033147 0.033237 0.033330
0.104995 0.099816 0.098485
0.279546 0.282428 0.283251
0.199467 0.199653 0.200817
0.017206 0.017105 0.016987
0.239276 0.240380 0.240489
0.215325 0.215631 0.217088
0.248407 0.248253 0.247100
0.029362 0.029242 0.029307
0.084476 0.084463 0.084403
0.185327 0.185717 0.182700
0.182787 0.183344 0.182734
0.015921 0.015937 0.016076
0.016317 0.016320 0.016197
0.018443 0.018611 0.018685
0.016026 0.015765 0.015677
0.147902 0.147389 0.146539
0.245277 0.246649 0.248339
0.016437 0.016498 0.016430
0.133752 0.132625 0.130619
0.014504 0.014589 0.014384
0.153976 0.156872 0.156813
0.179332 0.178484 0.174499
0.014459 0.014429 0.014270
0.071078 0.071035 0.071046
0.042770 0.042856 0.042870
0.015456 0.015458 0.015330
0.016072 0.016085 0.016178
0.248605 0.243224 0.243242
0.017704 0.017546 0.017382
0.163812 0.163167 0.162475
0.015738 0.015691 0.015728
0.017529 0.017368 0.017475
0.171159 0.168237 0.167305
0.188467 0.188694 0.188417
0.152681 0.150663 0.148873
0.016273 0.016402 0.016584
0.156710 0.164715 0.158948
0.015078 0.015021 0.015278
0.202553 0.199543 0.200535
0.030864 0.030422 0.029721
0.172735 0.173131 0.171863
0.224144 0.227782 0.228094
0.278844 0.277207 0.278158
0.015550 0.015593 0.015571
0.148052 0.149134 0.147934
0.014361 0.014271 0.014295
0.015231 0.015253 0.015207
0.015720 0.015686 0.015709
0.016010 0.016172 0.016093
0.130785 0.128910 0.117464
0.016566 0.016749 0.016710
0.015310 0.015229 0.015262
0.253180 0.253866 0.254856
0.056379 0.056636 0.056898
0.227494 0.228570 0.227386
0.027497 0.027570 0.027172
0.152794 0.151653 0.151017
0.014418 0.014413 0.014172
0.242582 0.241559 0.237694
0.026335 0.022335 0.019735
0.015693 0.015776 0.015826
0.016700 0.016800 0.016525
0.109478 0.108637 0.108347
0.209800 0.210741 0.211752
0.013906 0.014035 0.014006
0.157128 0.159635 0.160351
0.021001 0.020797 0.020721
0.014217 0.014212 0.014128
0.204748 0.211063 0.208756
0.184890 0.184581 0.184063
0.190353 0.190989 0.193196
0.015198 0.015410 0.015386
0.015476 0.015477 0.015456
0.016216 0.015957 0.016013
0.015946 0.015866 0.015810
0.209439 0.209441 0.209474
0.016439 0.016291 0.016349
0.014681 0.014755 0.014676
0.015886 0.015911 0.015851
0.164537 0.164804 0.164142
0.157691 0.157333 0.155996
0.072147 0.072152 0.072151
0.206694 0.203368 0.203188
0.016430 0.016517 0.016657
0.156869 0.157451 0.155839
0.014550 0.014536 0.014810
0.241127 0.240197 0.237413
0.014517 0.014576 0.014578
0.249494 0.249383 0.248874
0.015827 0.015825 0.015815
0.016506 0.016417 0.016279
0.021532 0.021561 0.021555
0.017521 0.017591 0.017616
0.014540 0.014571 0.014556
0.179132 0.177695 0.174481
0.188071 0.188009 0.187966
0.012828 0.012825 0.013070
0.246366 0.244242 0.244106
0.017991 0.018019 0.017890
0.015655 0.015675 0.015693
0.193393 0.194831 0.195842
0.014503 0.014453 0.014555
0.262145 0.256482 0.255809
0.142504 0.142757 0.142819
0.015355 0.015284 0.015195
0.015609 0.015581 0.015510
0.033290 0.034980 0.035699
0.041322 0.041204 0.041213
0.175506 0.177115 0.176989
0.196248 0.198882 0.203654
0.071079 0.071097 0.071111
0.231163 0.231505 0.231436
0.014515 0.014480 0.014335
0.168340 0.166107 0.163719
0.161722 0.161177 0.160899
0.026955 0.027195 0.027232
0.139984 0.139561 0.138908
0.210208 0.207416 0.205738
0.253337 0.253461 0.254261
0.016300 0.016404 0.016271
0.036636 0.036565 0.036366
0.177797 0.177469 0.177549
0.015270 0.015280 0.014950
0.177267 0.176757 0.172465
0.041266 0.041471 0.042943
0.016364 0.016161 0.015963
0.247449 0.246999 0.246312
0.221595 0.217797 0.220379
0.220871 0.219337 0.217603
0.015372 0.015347 0.015430
0.016467 0.016768 0.016795
0.130209 0.128457 0.127599
0.160251 0.160379 0.160666
0.253073 0.251261 0.249794
0.197335 0.200291 0.199127
0.179387 0.180109 0.189438
0.014606 0.014514 0.014535
0.055123 0.050368 0.047940
0.154871 0.154675 0.154784
0.181240 0.181105 0.181126
0.016653 0.016819 0.016861
0.016610 0.016613 0.016424
0.015310 0.015378 0.015498
0.168379 0.168191 0.165062
0.188696 0.185096 0.185030
0.015545 0.015599 0.015617
0.014261 0.014268 0.014373
0.157049 0.158077 0.158494
0.017597 0.017813 0.018039
0.197616 0.197528 0.197914
0.019808 0.020259 0.020900
0.015710 0.015742 0.015814
0.162535 0.162437 0.161760
0.014628 0.014733 0.014750
0.206751 0.206705 0.207987
0.016101 0.016183 0.016193
0.015924 0.015921 0.016022
0.016703 0.016742 0.016770
0.016498 0.016634 0.016575
0.016075 0.015771 0.015652
0.071371 0.066062 0.059136
0.066448 0.064196 0.063008
0.021281 0.021388 0.021205
0.221108 0.222997 0.223430
0.289995 0.290431 0.290425
0.290909 0.290698 0.290507
0.015555 0.015564 0.015659
0.137763 0.137084 0.138400
0.247643 0.245317 0.235721
0.015070 0.015486 0.015413
0.048162 0.048230 0.048236
0.153199 0.153282 0.153421
0.120401 0.119326 0.118308
0.094744 0.094607 0.094620
0.017965 0.017979 0.017970
0.021527 0.021436 0.020493
0.013886 0.013889 0.013890
0.017932 0.018058 0.017987
0.021353 0.020839 0.020906
0.259107 0.258699 0.256329
0.138882 0.138519 0.135365
0.183916 0.184013 0.183821
0.013586 0.013574 0.013685
0.191753 0.192127 0.192639
0.044620 0.039820 0.037954
0.017344 0.017227 0.017160
0.231066 0.232973 0.233325
0.014324 0.014308 0.014134
0.021278 0.021281 0.021429
0.021568 0.021343 0.021278
0.192615 0.189804 0.191045
0.015982 0.015855 0.015904
0.254762 0.256347 0.255505
0.016558 0.016752 0.016762
0.214496 0.214704 0.214757
0.149010 0.147971 0.147973
0.209456 0.211462 0.211084
0.154088 0.153232 0.153305
0.171166 0.169999 0.160457
0.133664 0.133507 0.133535
0.015138 0.015435 0.015520
0.240442 0.241835 0.241553
0.156714 0.157047 0.157429
0.285862 0.288316 0.298101
0.240479 0.241395 0.240916
0.018450 0.018594 0.018570
0.023643 0.022621 0.022346
0.015406 0.015377 0.015311
0.022553 0.022514 0.022554
0.206627 0.205904 0.199493
0.160923 0.160485 0.164584
0.175479 0.175318 0.173341
0.235960 0.234063 0.234571
0.099701 0.098969 0.097058
0.016441 0.016450 0.016618
0.256637 0.256867 0.252712
0.033004 0.033049 0.033123
0.189683 0.189683 0.189694
0.015425 0.015248 0.015171
0.253171 0.253535 0.253521
0.159012 0.159053 0.157727
0.033655 0.033798 0.033821
0.274141 0.274834 0.275716
0.146795 0.146360 0.144659
0.128972 0.117486 0.116002
0.177916 0.179269 0.185477
0.210404 0.209725 0.209551
0.213803 0.215817 0.215948
0.116291 0.115413 0.116159
0.215541 0.214589 0.208907
0.016875 0.016888 0.016831
0.171555 0.172505 0.173674
0.176803 0.176246 0.175915
0.020295 0.020422 0.020693
0.014338 0.014288 0.014292
0.282665 0.284024 0.284593
0.015735 0.015938 0.015938
0.019272 0.019127 0.019180
0.015277 0.015143 0.015146
0.160519 0.163040 0.163388
0.169317 0.168461 0.167818
0.016496 0.016509 0.016580
0.014576 0.014540 0.014552
0.033486 0.033528 0.033547
0.231737 0.230505 0.228555
0.149290 0.148372 0.146307
0.100066 0.100235 0.100376
0.021390 0.021457 0.021530
0.017204 0.017006 0.017188
0.112041 0.109220 0.104995
0.093763 0.094811 0.095195
0.015973 0.015974 0.015990
0.014828 0.014733 0.014760
0.045258 0.044277 0.038473
0.017167 0.016893 0.016963
0.022218 0.022276 0.022379
0.016905 0.016725 0.016498
0.212533 0.212998 0.214616
0.023139 0.026123 0.032416
0.169078 0.169513 0.169614
0.016179 0.016131 0.016062
0.044907 0.042801 0.041083
0.161333 0.162398 0.162611
0.238197 0.238843 0.236179
0.054471 0.060930 0.071782
0.059995 0.067464 0.071399
0.268663 0.269986 0.271270
0.196936 0.196916 0.197069
0.167210 0.166899 0.166681
0.269771 0.270112 0.270243
0.017513 0.017713 0.018104
0.244155 0.243074 0.241881
0.032611 0.031717 0.023504
0.227715 0.225076 0.224838
0.020394 0.020415 0.020619
0.149103 0.151047 0.153425
0.231509 0.231487 0.231481
0.015325 0.015354 0.015019
0.248770 0.249691 0.249648
0.214906 0.214963 0.212557
0.180406 0.179999 0.182710
0.220331 0.219604 0.215250
0.042862 0.042843 0.042825
0.253535 0.253521 0.253340
0.195366 0.194858 0.195445
0.190235 0.193185 0.195382
0.221805 0.222430 0.223719
0.102444 0.102038 0.101779
0.208876 0.208473 0.207900
0.171277 0.172134 0.173846
0.022205 0.022201 0.022218
0.061655 0.062589 0.069335
0.259680 0.256245 0.254316
0.013811 0.013847 0.013822
0.198602 0.195717 0.196705
0.080547 0.081879 0.081189
0.017969 0.017964 0.017689
0.015474 0.015481 0.015608
0.222513 0.227605 0.241119
0.113715 0.113727 0.113741
0.274067 0.275254 0.276242
0.252695 0.246649 0.247585
0.311671 0.303572 0.295594
0.123986 0.126849 0.127248
0.120615 0.120713 0.121013
0.016240 0.016242 0.016189
0.137150 0.138190 0.139298
0.163994 0.167518 0.169054
0.030643 0.030535 0.030464
0.015285 0.015261 0.015347
0.022088 0.022168 0.022171
0.018046 0.018254 0.018255
0.234818 0.234855 0.236674
0.247624 0.249506 0.250189
0.015999 0.015759 0.015748
0.016668 0.016755 0.016775
0.016177 0.016294 0.016134
0.211161 0.207902 0.207158
0.155500 0.155784 0.155646
0.022473 0.022346 0.022314
0.176892 0.177270 0.181075
0.221220 0.220719 0.220902
0.017521 0.017708 0.017900
0.020900 0.021015 0.021278
0.014580 0.014598 0.014613
0.239608 0.242660 0.244536
0.188560 0.187533 0.184702
0.128946 0.129431 0.129608
0.046597 0.048954 0.050173
0.015323 0.015252 0.015156
0.153493 0.153613 0.153948
0.244908 0.248367 0.249473
0.251462 0.251129 0.250313
0.167304 0.167302 0.167271
0.240544 0.240900 0.239277
0.115910 0.110809 0.110532
0.212061 0.213361 0.214751
0.014991 0.014987 0.014995
0.018631 0.018586 0.018529
0.014734 0.014682 0.014774
0.164821 0.165688 0.165365
0.173031 0.172794 0.172817
0.015859 0.016034 0.016281
0.226500 0.225938 0.223434
0.231634 0.230296 0.228972
0.138431 0.138186 0.136743
0.210220 0.207164 0.208238
0.143596 0.143612 0.143871
0.015604 0.015554 0.015497
0.222562 0.225189 0.224848
0.014798 0.014736 0.014876
0.015418 0.015427 0.015422
0.235255 0.232548 0.229987
0.218981 0.219382 0.219769
0.016227 0.016323 0.016330
0.214838 0.215270 0.212713
0.016345 0.016377 0.016428
0.160073 0.160147 0.160225
0.163865 0.160117 0.155412
0.092034 0.091957 0.090916
0.110809 0.110532 0.110434
0.215120 0.215578 0.216968
0.020007 0.018830 0.018111
0.221566 0.221872 0.222582
0.160302 0.160615 0.165150
0.129674 0.122554 0.124813
0.098206 0.098319 0.098238
0.228394 0.230043 0.230892
0.018570 0.018613 0.018595
0.063752 0.061911 0.048656
0.042154 0.045573 0.046774
0.121325 0.120440 0.120254
0.021505 0.021505 0.021530
0.278075 0.277613 0.278195
0.016106 0.016273 0.016402
0.016093 0.016027 0.016057
0.202995 0.209562 0.211994
0.014559 0.014539 0.014563
0.024367 0.020020 0.018173
0.169540 0.169601 0.169523
0.222231 0.222192 0.223779
0.052826 0.052853 0.052846
0.015574 0.015466 0.015438
0.016861 0.016834 0.016807
0.028997 0.031871 0.040504
0.231590 0.231532 0.231492
0.268399 0.268538 0.269039
0.016319 0.016768 0.017214
0.126972 0.126679 0.126554
0.017409 0.017452 0.017699
0.112001 0.116058 0.119950
0.281598 0.281776 0.282605
0.013990 0.014008 0.014100
0.016057 0.016006 0.016204
0.052931 0.052847 0.052822
0.191408 0.191012 0.190186
0.077803 0.076937 0.076913
0.219299 0.219135 0.218418
0.016749 0.016888 0.016890
0.243343 0.248238 0.250594
0.027647 0.026327 0.025497
0.209223 0.212160 0.215120
0.052340 0.053546 0.055294
0.013630 0.013588 0.013472
0.243308 0.247237 0.248952
0.014556 0.014463 0.014488
0.015201 0.015323 0.015298
0.171578 0.190250 0.199258
0.279601 0.280388 0.281485
0.021185 0.021129 0.021118
0.061179 0.061124 0.061039
0.231505 0.231489 0.231542
0.015353 0.015409 0.015462
0.031380 0.031799 0.031932
0.033235 0.033210 0.033290
0.143157 0.143318 0.143686
0.197224 0.196236 0.196300
0.196572 0.195781 0.196107
0.083579 0.083444 0.083473
0.033303 0.033263 0.032969
0.014555 0.014720 0.014782
0.020968 0.021068 0.021001
0.018686 0.018533 0.018444
0.121160 0.121486 0.121380
0.200326 0.200764 0.201489
0.259161 0.258170 0.258195
0.177590 0.177674 0.176980
0.182774 0.182955 0.178505
0.176703 0.175752 0.175468
0.014691 0.014688 0.014771
0.270997 0.271906 0.274252
0.175958 0.184920 0.186350
0.234857 0.235764 0.235767
0.017153 0.017084 0.017047
0.241584 0.245747 0.252562
0.015332 0.015345 0.015310
0.208818 0.211289 0.211122
0.163949 0.163087 0.163527
0.014250 0.014243 0.014346
0.250175 0.250359 0.253148
0.076498 0.076505 0.076492
0.202398 0.192553 0.194637
0.181379 0.172588 0.170602
0.231288 0.228446 0.228133
0.238564 0.237842 0.236638
0.116447 0.117925 0.118111
0.078994 0.076829 0.076755
0.150443 0.150288 0.150122
0.239726 0.239632 0.243428
0.152195 0.151390 0.150710
0.015394 0.015420 0.015500
0.169772 0.169496 0.167739
0.017939 0.017942 0.017780
0.015087 0.015139 0.015416
0.202314 0.200783 0.200548
0.015653 0.015659 0.015696
0.016672 0.016588 0.016671
0.189684 0.189080 0.187460
0.205187 0.206652 0.208389
0.014701 0.014638 0.014726
0.014904 0.015577 0.015739
0.057054 0.057077 0.057082
0.016029 0.015981 0.016209
0.015298 0.015340 0.015338
0.214874 0.214295 0.213996
0.015397 0.015390 0.015297
0.219127 0.216463 0.202876
0.157245 0.157230 0.156275
0.196682 0.194731 0.195558
0.259247 0.259150 0.248293
0.015290 0.015241 0.015287
0.252707 0.252841 0.253159
0.015493 0.015607 0.015640
0.015298 0.015183 0.015069
0.021707 0.021634 0.021685
0.189686 0.189694 0.189709
0.251009 0.249418 0.250234
0.254551 0.254662 0.257674
0.015215 0.015260 0.015208
0.237797 0.238460 0.239496
0.055323 0.056190 0.056860
0.016002 0.015977 0.016238
0.031517 0.031445 0.031120
0.026287 0.026154 0.025974
0.183458 0.183831 0.190913
0.217471 0.215818 0.216262
0.018515 0.018579 0.018552
0.242919 0.245802 0.245774
0.148777 0.149062 0.149666
0.130555 0.129647 0.128871
0.072943 0.073856 0.074516
0.015247 0.015139 0.015161
0.013378 0.013473 0.013677
0.176851 0.181955 0.184715
0.170478 0.170121 0.169207
0.029378 0.033631 0.035707
0.014641 0.014694 0.014627
0.015494 0.015571 0.015650
0.015323 0.015359 0.015347
0.074430 0.074924 0.075416
0.016678 0.017093 0.017029
0.101488 0.100655 0.099145
0.157693 0.159306 0.160160
0.013860 0.013825 0.013730
0.013788 0.013810 0.013867
0.173324 0.172821 0.168340
0.179427 0.179375 0.178884
0.153282 0.153421 0.153938
0.016169 0.016478 0.016881
0.136681 0.137752 0.139465
0.019109 0.018822 0.019083
0.236361 0.236213 0.237182
0.202475 0.202397 0.202708
0.044196 0.043935 0.043922
0.229141 0.229555 0.230309
0.170992 0.168204 0.167243
0.158473 0.157680 0.156726
0.248984 0.248828 0.251741
0.224670 0.226381 0.230221
0.014347 0.014425 0.014450
0.017458 0.017324 0.017331
0.185526 0.185072 0.184819
0.017950 0.017840 0.017977
0.184789 0.188690 0.189113
0.191695 0.187147 0.187116
0.266766 0.269616 0.270327
0.033413 0.033394 0.033356
0.161513 0.161730 0.161552
0.014685 0.014693 0.014849
0.154803 0.154650 0.155364
0.017576 0.017592 0.017554
0.200248 0.205468 0.205921
0.244195 0.243132 0.245317
0.171132 0.171999 0.170913
0.016190 0.016250 0.016561
0.198931 0.199061 0.198427
0.039828 0.038445 0.037786
0.015371 0.015348 0.015312
0.015872 0.015856 0.016105
0.015382 0.015351 0.015218
0.016147 0.016052 0.015826
0.016762 0.016773 0.016564
0.027380 0.028360 0.030209
0.014861 0.014846 0.014800
0.282530 0.283123 0.283695
0.176632 0.176724 0.176749
0.018762 0.019142 0.019669
0.194221 0.194215 0.193812
0.048655 0.048916 0.049080
0.016795 0.016811 0.016793
0.208670 0.210754 0.211324
0.202893 0.212119 0.211527
0.281748 0.282742 0.283693
0.017219 0.017048 0.017087
0.129293 0.128207 0.123645
0.215133 0.212720 0.213140
0.233848 0.231466 0.230616
0.149162 0.149264 0.148497
0.159239 0.155024 0.155164
0.207158 0.205952 0.205773
0.053492 0.055000 0.055323
0.197284 0.196625 0.194342
0.015166 0.015013 0.015051
0.086758 0.087281 0.087925
0.137099 0.135877 0.134663
0.208763 0.207451 0.203104
0.196872 0.199216 0.199728
0.205519 0.205745 0.205451
0.014627 0.014594 0.014627
0.015439 0.015391 0.015409
0.250293 0.246214 0.239045
0.021643 0.021702 0.021764
0.220932 0.213523 0.212514
0.285081 0.285200 0.285316
0.225370 0.222792 0.223342
0.149374 0.149396 0.149152
0.017038 0.017484 0.017835
0.198530 0.197799 0.197558
0.193883 0.194255 0.193555
0.018322 0.018462 0.018450
0.201605 0.203907 0.204913
0.041294 0.041165 0.041210
0.198569 0.197589 0.197291
0.121477 0.122144 0.123014
0.014332 0.014443 0.014482
0.057523 0.057722 0.058293
0.147960 0.147677 0.148473
0.229629 0.232845 0.233011
0.177472 0.177564 0.177701
0.019921 0.019735 0.019121
0.038445 0.037786 0.037555
0.140678 0.140526 0.140336
0.159785 0.159353 0.160668
0.149652 0.150125 0.149339
0.067985 0.067630 0.067073
0.090684 0.098548 0.106087
0.185037 0.184995 0.183855
0.014344 0.014379 0.014314
0.015887 0.015725 0.015720
0.248318 0.246308 0.245414
0.239216 0.242722 0.244945
0.130213 0.120128 0.115842
0.019250 0.019362 0.019417
0.017202 0.017483 0.017673
0.142846 0.142888 0.142923
0.185195 0.181836 0.179747
0.261482 0.261920 0.262261
0.018779 0.019343 0.019463
0.015102 0.015243 0.015188
0.147701 0.146600 0.141667
0.267232 0.270126 0.273331
0.147527 0.149839 0.152130
0.217595 0.219079 0.221467
0.024808 0.026170 0.026210
0.019120 0.019197 0.019362
0.016291 0.016328 0.016241
0.194600 0.195113 0.197872
0.309939 0.310031 0.310345
0.142877 0.142914 0.143151
0.016287 0.016249 0.016205
0.214144 0.204002 0.201624
0.018576 0.018285 0.018403
0.049013 0.050121 0.050603
0.015685 0.015707 0.015589
0.218616 0.219245 0.219380
0.015486 0.015557 0.015690
0.191283 0.192204 0.192287
0.018773 0.018564 0.018597
0.211613 0.211932 0.214102
0.015518 0.015374 0.015354
0.142690 0.143979 0.146623
0.013916 0.014129 0.014272
0.266110 0.268243 0.269153
0.016510 0.016764 0.016797
0.031937 0.030884 0.030701
0.029717 0.034154 0.036357
0.021124 0.020985 0.020983
0.014963 0.014959 0.015089
0.017456 0.017431 0.017477
0.253159 0.251138 0.251308
0.169563 0.168403 0.167961
0.033545 0.033461 0.033453
0.209346 0.208876 0.208473
0.217858 0.218923 0.218996
0.047284 0.047284 0.047263
0.018897 0.018899 0.019110
0.150001 0.149177 0.138568
0.033275 0.033282 0.033282
0.015350 0.015223 0.015272
0.155823 0.157790 0.159316
0.169579 0.171547 0.172441
0.139023 0.138933 0.138816
0.169366 0.169740 0.163760
0.015442 0.015570 0.015594
0.211479 0.211968 0.209999
0.022061 0.022650 0.024865
0.021715 0.021776 0.021647
0.134128 0.135356 0.136971
0.015772 0.015881 0.015946
0.090205 0.098350 0.101288
0.016530 0.016484 0.016428
0.016146 0.015973 0.015951
0.015030 0.015158 0.015184
0.156579 0.155166 0.154914
0.021776 0.021637 0.021683
0.047467 0.047361 0.047356
0.015338 0.015230 0.015154
0.015468 0.015495 0.015669
0.185308 0.185040 0.184746
0.015218 0.015232 0.015233
0.015656 0.015699 0.015841
0.208756 0.207182 0.201379
0.144956 0.147781 0.150195
0.070657 0.070658 0.070678
0.204325 0.204568 0.204495
0.111583 0.111246 0.111785
0.016526 0.016576 0.016536
0.258324 0.258371 0.256348
0.211048 0.209085 0.208535
0.101748 0.099735 0.098346
0.179640 0.180382 0.180060
0.224034 0.220820 0.219702
0.018662 0.018705 0.018686
0.169603 0.171152 0.170290
0.020839 0.020906 0.021006
0.196000 0.195019 0.193891
0.015704 0.015536 0.015385
0.204321 0.204534 0.203788
0.016239 0.016302 0.016258
0.089619 0.088705 0.086291
0.202818 0.194651 0.193165
0.019051 0.018911 0.018651
0.169512 0.169681 0.171281
0.015143 0.015073 0.014876
0.201972 0.199247 0.193622
0.194092 0.193648 0.194737
0.213165 0.211225 0.209535
0.243820 0.244788 0.246005
0.057275 0.057514 0.057712
0.253139 0.253610 0.253752
0.018182 0.019306 0.020692
0.017348 0.017388 0.017854
0.193641 0.193985 0.195000
0.016031 0.016210 0.020028
0.247403 0.248403 0.256360
0.018256 0.018287 0.018560
0.171054 0.172602 0.176470
0.167059 0.166193 0.166044
0.254668 0.258512 0.257983
0.177073 0.174098 0.172485
0.045535 0.045901 0.047079
0.147204 0.144031 0.137358
0.033520 0.033650 0.033818
0.014465 0.014498 0.014506
0.189685 0.189690 0.189689
0.020947 0.020759 0.020548
0.014805 0.014736 0.014877
0.045607 0.045612 0.045613
0.192328 0.194079 0.195324
0.042898 0.042829 0.042825
0.021201 0.021212 0.021371
0.112968 0.113224 0.113457
0.015504 0.015442 0.015402
0.014411 0.014434 0.014522
0.037149 0.037095 0.036403
0.014999 0.015058 0.015205
0.015097 0.015131 0.015159
0.189953 0.184414 0.185303
0.169396 0.170427 0.163153
0.240808 0.240425 0.240543
0.223112 0.222781 0.221483
0.203228 0.202836 0.203568
0.015386 0.015432 0.015508
0.014534 0.014614 0.014716
0.013742 0.013816 0.013841
0.100087 0.100150 0.100128
0.172002 0.170194 0.169736
0.193027 0.193226 0.189167
0.018181 0.018161 0.018209
0.192789 0.196780 0.198546
0.013844 0.013792 0.013708
0.016077 0.016019 0.016010
0.018705 0.018686 0.018428
0.141425 0.141138 0.140881
0.225941 0.227680 0.230623
0.022227 0.022205 0.022201
0.170590 0.171126 0.171202
0.225337 0.225399 0.225199
0.301250 0.301692 0.302031
