0.203149 0.202419 0.201628
0.080372 0.080009 0.079791
0.159727 0.158066 0.159684
0.055802 0.056058 0.056039
0.065628 0.062718 0.061883
0.270184 0.269015 0.271803
0.404742 0.410253 0.415481
0.077749 0.077936 0.078572
0.075427 0.075434 0.074841
0.134325 0.134888 0.135276
0.444908 0.446046 0.445639
0.078231 0.077853 0.077503
0.076643 0.076975 0.077746
0.066618 0.066553 0.066317
0.087949 0.089357 0.089444
0.384144 0.383516 0.383085
0.246232 0.244505 0.240611
0.076895 0.078446 0.077568
0.318473 0.317129 0.317155
0.061037 0.061167 0.061258
0.482700 0.485360 0.487155
0.075038 0.072414 0.071713
0.453785 0.447177 0.446173
0.090343 0.089751 0.089321
0.195758 0.196754 0.197002
0.172835 0.171446 0.169778
0.180213 0.176863 0.177830
0.077094 0.077446 0.077235
0.055402 0.055469 0.055327
0.153276 0.153400 0.153573
0.069198 0.069102 0.069112
0.077753 0.078003 0.077508
0.223751 0.221883 0.222371
0.086897 0.087360 0.087824
0.271855 0.271999 0.271406
0.239008 0.238814 0.238914
0.191080 0.190895 0.189476
0.092208 0.092299 0.092209
0.190800 0.192644 0.194207
0.071412 0.071932 0.072679
0.062536 0.062315 0.061741
0.061000 0.060497 0.059704
0.051368 0.050665 0.049744
0.048972 0.048923 0.048846
0.065367 0.065706 0.066322
0.394308 0.400021 0.402623
0.235765 0.235658 0.235553
0.060291 0.060300 0.060358
0.207151 0.205573 0.201451
0.083193 0.083011 0.082081
0.085095 0.084955 0.084837
0.073223 0.073531 0.074311
0.079421 0.079639 0.079778
0.133561 0.132797 0.132820
0.057020 0.057992 0.058794
0.068171 0.068154 0.067314
0.225503 0.221313 0.220815
0.075564 0.075320 0.075681
0.329692 0.334249 0.334299
0.088421 0.087645 0.087057
0.268769 0.266038 0.265935
0.097880 0.097908 0.096277
0.057584 0.057400 0.057331
0.064015 0.063941 0.063832
0.270946 0.270821 0.270617
0.502111 0.499527 0.499010
0.070014 0.069830 0.070061
0.361386 0.362094 0.360941
0.507628 0.504927 0.508727
0.123948 0.118743 0.118029
0.061964 0.062450 0.062464
0.197158 0.196628 0.196535
0.087515 0.089658 0.089986
0.105349 0.105855 0.105950
0.213168 0.212209 0.211856
0.388019 0.390747 0.390042
0.157722 0.157355 0.158164
0.237653 0.236815 0.236794
0.057412 0.058528 0.058640
0.050331 0.050144 0.050292
0.083477 0.083003 0.082931
0.209029 0.214312 0.216901
0.361906 0.360754 0.360590
0.226671 0.238029 0.236755
0.227980 0.227006 0.225118
0.509497 0.518620 0.519715
0.084146 0.083692 0.083408
0.091992 0.092914 0.096917
0.237104 0.236169 0.235075
0.237391 0.238988 0.241078
0.378711 0.378427 0.378876
0.142378 0.142399 0.142679
0.262412 0.262302 0.264643
0.074277 0.073514 0.073207
0.173521 0.173193 0.172798
0.048631 0.048402 0.048147
0.136197 0.136102 0.136172
0.245346 0.244823 0.244418
0.269809 0.274084 0.274478
0.059844 0.060532 0.060813
0.046287 0.046341 0.046883
0.207339 0.205908 0.204497
0.081941 0.081606 0.081296
0.301294 0.302410 0.304760
0.062026 0.062128 0.062238
0.161988 0.161054 0.157255
0.242210 0.253204 0.255132
0.049168 0.048584 0.048700
0.068973 0.069156 0.068939
0.143520 0.148712 0.151538
0.066676 0.066746 0.066264
0.062696 0.062608 0.062917
0.075140 0.075483 0.075687
0.077999 0.077937 0.078515
0.059395 0.059421 0.059422
0.083387 0.084236 0.085802
0.076808 0.076885 0.076906
0.076656 0.076879 0.077359
0.088465 0.088791 0.090174
0.080165 0.078680 0.078427
0.277586 0.281461 0.288382
0.257913 0.262066 0.264233
0.110200 0.108544 0.114200
0.306919 0.306595 0.305998
0.065621 0.065281 0.065431
0.050915 0.051035 0.051133
0.088836 0.087553 0.087972
0.244517 0.243410 0.240709
0.055414 0.054829 0.054578
0.271665 0.269170 0.263449
0.262532 0.266348 0.270731
0.059155 0.059291 0.059491
0.061192 0.061316 0.061817
0.070175 0.069646 0.068333
0.061207 0.061231 0.061531
0.216440 0.223071 0.226225
0.118281 0.118607 0.118755
0.374455 0.371562 0.369564
0.070940 0.070664 0.070504
0.511035 0.506891 0.502440
0.064925 0.065154 0.065513
0.422725 0.422747 0.423083
0.058996 0.058634 0.058195
0.079874 0.079791 0.078350
0.538057 0.526969 0.527430
0.194169 0.193789 0.192034
0.047433 0.048599 0.049393
0.062265 0.062253 0.063118
0.300271 0.300346 0.299165
0.263931 0.249069 0.246312
0.185570 0.187310 0.187453
0.153442 0.153548 0.155490
0.095889 0.095947 0.096763
0.068290 0.067534 0.067241
0.264736 0.266045 0.265159
0.458234 0.465321 0.465684
0.058485 0.058298 0.056949
0.059446 0.059245 0.059402
0.063558 0.063714 0.063811
0.090166 0.090188 0.088898
0.060615 0.060418 0.059171
0.238134 0.236453 0.235278
0.169472 0.169470 0.168897
0.087039 0.086525 0.086139
0.209067 0.207483 0.203433
0.080575 0.081494 0.081793
0.059437 0.059692 0.059753
0.089001 0.089365 0.089764
0.266909 0.267356 0.267208
0.052647 0.051724 0.052291
0.060388 0.060829 0.061187
0.060511 0.060614 0.061205
0.193230 0.193236 0.193795
0.164332 0.164464 0.164389
0.370693 0.365590 0.360060
0.087602 0.087487 0.087193
0.266501 0.266497 0.267209
0.125742 0.125922 0.125865
0.200484 0.200295 0.200213
0.253543 0.264637 0.265147
0.369351 0.370907 0.370578
0.077797 0.077054 0.077509
0.175997 0.176745 0.177769
0.276613 0.278577 0.281453
0.188137 0.191138 0.201192
0.049155 0.049112 0.048683
0.270025 0.269577 0.267993
0.078961 0.079368 0.079702
0.081348 0.081476 0.080860
0.532737 0.533175 0.535429
0.083711 0.084848 0.086206
0.063491 0.063703 0.062706
0.428357 0.429193 0.432305
0.059392 0.059381 0.059816
0.055062 0.055147 0.055265
0.198167 0.198443 0.198525
0.224355 0.223933 0.224227
0.095935 0.094637 0.094355
0.255043 0.254392 0.251731
0.179897 0.185194 0.185665
0.081967 0.082470 0.082763
0.224768 0.224016 0.223941
0.260634 0.258654 0.257478
0.331755 0.330733 0.331803
0.069895 0.070004 0.070186
0.224163 0.226784 0.250610
0.429874 0.423605 0.413135
0.197190 0.197774 0.198608
0.092769 0.094197 0.095369
0.082330 0.082703 0.082594
0.059073 0.059861 0.060228
0.098859 0.096729 0.096795
0.117895 0.115347 0.114626
0.256035 0.255763 0.255602
0.147581 0.147591 0.147417
0.090539 0.090659 0.090633
0.069056 0.068575 0.067448
0.086683 0.086985 0.086953
0.054428 0.054853 0.054725
0.087990 0.087519 0.087297
0.068903 0.066961 0.066416
0.183412 0.183461 0.183479
0.054388 0.054365 0.053919
0.067250 0.067546 0.067253
0.054134 0.053888 0.053533
0.079967 0.080060 0.080462
0.216199 0.215685 0.215872
0.075876 0.075767 0.075338
0.187635 0.185660 0.183548
0.271490 0.270549 0.269752
0.270637 0.272649 0.276195
0.055310 0.055419 0.055402
0.264579 0.264415 0.263865
0.474539 0.477006 0.478166
0.186551 0.184691 0.183986
0.263609 0.263582 0.263047
0.081853 0.084611 0.085269
0.059393 0.059402 0.059580
0.162829 0.162701 0.162792
0.123311 0.122534 0.122470
0.317845 0.316405 0.315194
0.270565 0.269752 0.268854
0.265598 0.264943 0.260452
0.049441 0.049737 0.049870
0.090208 0.089882 0.089893
0.405704 0.407275 0.409525
0.060608 0.060785 0.061851
0.247249 0.248462 0.248778
0.237807 0.236209 0.233722
0.143582 0.144360 0.146943
0.235671 0.237454 0.240000
0.062581 0.062080 0.061622
0.073524 0.076825 0.077287
0.273801 0.275021 0.274310
0.093303 0.093026 0.093402
0.058086 0.057697 0.057351
0.209621 0.221689 0.223082
0.203591 0.203375 0.203026
0.060028 0.058786 0.058613
0.260810 0.260042 0.258800
0.056700 0.056827 0.056857
0.080807 0.082288 0.082974
0.066567 0.065805 0.065341
0.176757 0.176887 0.177006
0.228178 0.227879 0.228259
0.051788 0.051784 0.051293
0.158304 0.156559 0.150068
0.056581 0.056478 0.056218
0.093930 0.093805 0.093535
0.082741 0.083686 0.083335
0.487678 0.487324 0.486700
0.306989 0.305646 0.305397
0.364606 0.362440 0.361524
0.303832 0.312314 0.319190
0.046986 0.046991 0.047426
0.062015 0.061924 0.062368
0.052659 0.052450 0.051368
0.451234 0.450028 0.455631
0.119846 0.118124 0.121983
0.081868 0.081457 0.081129
0.180690 0.179411 0.178539
0.083001 0.083210 0.083443
0.142751 0.143090 0.143067
0.060910 0.061031 0.060964
0.153135 0.156825 0.157482
0.147598 0.145658 0.143839
0.054022 0.054087 0.053369
0.062395 0.062719 0.063021
0.522266 0.522583 0.523345
0.070095 0.069626 0.069172
0.268868 0.270248 0.271039
0.135306 0.133373 0.131230
0.214587 0.214400 0.214789
0.095166 0.095441 0.095780
0.278344 0.279283 0.279029
0.171952 0.169572 0.169754
0.243121 0.244317 0.248753
0.080897 0.080216 0.080840
0.233387 0.233016 0.233311
0.220369 0.219471 0.218434
0.189738 0.190691 0.192719
0.176053 0.177961 0.180044
0.137388 0.136218 0.135424
0.147519 0.148074 0.149553
0.282127 0.282537 0.284626
0.060588 0.060536 0.060789
0.065475 0.066226 0.066717
0.269122 0.269595 0.269323
0.224676 0.224304 0.223921
0.043190 0.042348 0.042359
0.055621 0.054875 0.054881
0.092521 0.092547 0.091867
0.081969 0.081803 0.082149
0.123949 0.126777 0.127586
0.286352 0.286858 0.287156
0.147544 0.147332 0.147315
0.086190 0.086807 0.086884
0.080900 0.080500 0.080119
0.093244 0.092900 0.092486
0.089436 0.090501 0.091783
0.201796 0.202172 0.203999
0.058998 0.059235 0.059163
0.060773 0.060634 0.060588
0.145249 0.144968 0.145142
0.077726 0.077188 0.077286
0.064943 0.064956 0.065801
0.053716 0.053906 0.053710
0.325393 0.325349 0.329482
0.489745 0.496837 0.498358
0.390421 0.384756 0.384230
0.072178 0.072138 0.072288
0.044068 0.044198 0.043861
0.066330 0.066280 0.066640
0.086953 0.086922 0.087102
0.224074 0.224160 0.224304
0.064143 0.063796 0.064035
0.061536 0.060710 0.060388
0.087952 0.087345 0.087035
0.058176 0.058613 0.058152
0.075419 0.075466 0.074332
0.271780 0.270905 0.270733
0.237763 0.232660 0.229399
0.224959 0.225202 0.225262
0.443980 0.439732 0.427968
0.308479 0.309526 0.309566
0.357445 0.358510 0.358031
0.057077 0.057130 0.056577
0.495391 0.493361 0.477987
0.230423 0.230763 0.230935
0.473439 0.473447 0.475750
0.107210 0.107511 0.108028
0.057198 0.057412 0.058528
0.132197 0.133234 0.134130
0.228181 0.225227 0.224487
0.053958 0.053838 0.053795
0.205513 0.207114 0.208235
0.129896 0.132250 0.135432
0.377525 0.376744 0.376212
0.188097 0.185305 0.181912
0.062752 0.062784 0.062402
0.060108 0.059556 0.059596
0.048805 0.048795 0.048447
0.095836 0.095803 0.096351
0.406286 0.406028 0.398419
0.243469 0.241403 0.236836
0.074359 0.074165 0.073351
0.052970 0.053438 0.053196
0.059864 0.059742 0.060085
0.086554 0.085386 0.084974
0.447562 0.441834 0.433167
0.194120 0.195392 0.194275
0.078342 0.077506 0.078274
0.232016 0.232162 0.231761
0.375776 0.375991 0.375667
0.060804 0.060528 0.060585
0.096836 0.096887 0.097814
0.069945 0.069637 0.069859
0.384067 0.384269 0.383552
0.230107 0.227808 0.226387
0.242147 0.244325 0.242807
0.372317 0.380960 0.388719
0.462160 0.464224 0.467408
0.061219 0.061333 0.061830
0.069762 0.069620 0.069725
0.159681 0.159921 0.159068
0.123005 0.123300 0.123518
0.266762 0.265089 0.262984
0.397999 0.402011 0.411467
0.283398 0.281265 0.277581
0.237807 0.238189 0.238513
0.175347 0.170766 0.169192
0.396389 0.394727 0.394219
0.062027 0.062201 0.062995
0.446511 0.450553 0.468815
0.497149 0.497680 0.494169
0.069395 0.069372 0.069223
0.082447 0.082822 0.083702
0.233783 0.206663 0.201853
0.163479 0.164985 0.172705
0.060118 0.060327 0.060502
0.058512 0.057886 0.057533
0.176784 0.176872 0.176991
0.061192 0.061324 0.061367
0.107133 0.107507 0.107397
0.064619 0.064284 0.063685
0.062862 0.062801 0.062786
0.066149 0.065806 0.065775
0.157219 0.160346 0.162542
0.182791 0.184310 0.186295
0.174566 0.175436 0.175108
0.380605 0.379660 0.378752
0.066155 0.066122 0.066188
0.400858 0.392899 0.388920
0.262189 0.263997 0.265425
0.061286 0.061149 0.060980
0.091128 0.094320 0.096815
0.158365 0.160945 0.163025
0.224662 0.223947 0.223956
0.077192 0.077244 0.077282
0.308876 0.306184 0.305722
0.078773 0.078422 0.078310
0.165276 0.164323 0.163241
0.419151 0.420682 0.421863
0.450933 0.450513 0.450920
0.090713 0.089252 0.087962
0.061167 0.061258 0.061348
0.429180 0.436023 0.447000
0.237240 0.233559 0.230152
0.245786 0.246057 0.245932
0.299838 0.298336 0.297937
0.518808 0.517754 0.515144
0.197909 0.197466 0.196354
0.147208 0.147310 0.147542
0.077011 0.076593 0.076978
0.302647 0.303341 0.306424
0.138180 0.135724 0.133561
0.196837 0.201796 0.202172
0.088809 0.090004 0.090138
0.062169 0.062202 0.062275
0.107383 0.107413 0.107331
0.063663 0.063615 0.063670
0.135326 0.135099 0.134996
0.512756 0.501018 0.495425
0.177564 0.176358 0.175980
0.055419 0.055402 0.054978
0.298903 0.294424 0.289663
0.253424 0.252443 0.251337
0.051417 0.051117 0.050715
0.054022 0.054162 0.054708
0.043328 0.043197 0.042599
0.168531 0.167444 0.163690
0.377009 0.371430 0.365940
0.108266 0.107824 0.107523
0.059922 0.060086 0.059205
0.261679 0.259659 0.258269
0.092464 0.092633 0.092942
0.176056 0.176178 0.174084
0.146500 0.145466 0.145463
0.440010 0.436824 0.431681
0.058649 0.058420 0.057748
0.081498 0.081695 0.081597
0.205664 0.204535 0.204653
0.325484 0.325870 0.324788
0.043562 0.043506 0.043045
0.074344 0.074209 0.074286
0.107339 0.107200 0.107034
0.230177 0.229681 0.231520
0.063601 0.066804 0.071662
0.064660 0.064793 0.065073
0.185338 0.185877 0.186393
0.157570 0.156104 0.154337
0.214102 0.208127 0.207402
0.524130 0.527511 0.536136
0.071140 0.070992 0.070680
0.284228 0.286519 0.286873
0.065346 0.065408 0.065749
0.267064 0.267617 0.269283
0.073712 0.074903 0.075251
0.253486 0.253326 0.252115
0.099316 0.099495 0.101071
0.370636 0.370605 0.370470
0.161349 0.162217 0.162813
0.522158 0.522391 0.517604
0.266719 0.267372 0.267350
0.094355 0.094388 0.092877
0.422666 0.422719 0.422714
0.267391 0.273137 0.272233
0.106593 0.107050 0.107591
0.083038 0.081515 0.080720
0.227665 0.225610 0.224338
0.364525 0.359825 0.353385
0.200999 0.200509 0.199143
0.229949 0.229301 0.228756
0.064585 0.064753 0.064217
0.202111 0.202508 0.203408
0.086669 0.086359 0.086333
0.323721 0.326387 0.328142
0.045142 0.045312 0.046226
0.113684 0.113855 0.114168
0.422759 0.430109 0.433315
0.274168 0.273371 0.275232
0.237932 0.240274 0.248989
0.226671 0.227409 0.227466
0.169600 0.169359 0.169297
0.393817 0.393246 0.391994
0.235940 0.236641 0.238494
0.070200 0.070888 0.071140
0.474980 0.473161 0.469885
0.354666 0.349252 0.348194
0.089936 0.090035 0.089865
0.052450 0.051368 0.050665
0.067330 0.067268 0.067185
0.283371 0.281773 0.278667
0.452041 0.456794 0.457558
0.270574 0.271541 0.269041
0.107398 0.107529 0.108021
0.060929 0.062407 0.062976
0.062912 0.063741 0.063228
0.054452 0.055279 0.055711
0.183403 0.183464 0.183420
0.073935 0.073734 0.075045
0.109979 0.110123 0.110435
0.214400 0.214789 0.214488
0.118607 0.118755 0.120608
0.164671 0.163206 0.161209
0.194207 0.195357 0.197268
0.332271 0.327822 0.325897
0.177247 0.178216 0.178999
0.103861 0.100345 0.098960
0.396525 0.397388 0.402037
0.213994 0.216172 0.214553
0.521529 0.520470 0.518863
0.089958 0.089273 0.088174
0.237139 0.236901 0.236914
0.115889 0.118281 0.118607
0.225880 0.225219 0.226260
0.180161 0.180334 0.179689
0.223753 0.224985 0.227038
0.333330 0.332100 0.330982
0.093761 0.093871 0.093175
0.146782 0.144832 0.143654
0.219270 0.219810 0.219150
0.498258 0.499894 0.500341
0.090081 0.089990 0.089862
0.062685 0.061965 0.061357
0.342162 0.353639 0.365415
0.192968 0.195775 0.199219
0.426241 0.424250 0.422536
0.059361 0.059495 0.059362
0.259346 0.257771 0.258456
0.534878 0.530923 0.525166
0.204815 0.204572 0.205521
0.237346 0.238583 0.245111
0.402876 0.402326 0.400849
0.057493 0.056768 0.056804
0.456839 0.450771 0.450041
0.240889 0.239178 0.238736
0.061731 0.061682 0.061661
0.063159 0.062978 0.062408
0.175470 0.175603 0.174014
0.222015 0.222901 0.225270
0.226998 0.227246 0.224956
0.275002 0.271395 0.270170
0.176966 0.176680 0.175901
0.369805 0.372341 0.375790
0.046866 0.046986 0.046991
0.127592 0.115082 0.109732
0.063640 0.063793 0.065176
0.066631 0.066388 0.066006
0.143658 0.142006 0.142956
0.056733 0.056870 0.056848
0.079691 0.079331 0.079219
0.053693 0.053846 0.053681
0.248911 0.247800 0.248793
0.253046 0.252372 0.253944
0.080930 0.081058 0.081087
0.090247 0.089724 0.089686
0.248155 0.247938 0.247981
0.054446 0.054200 0.053984
0.204038 0.203558 0.200309
0.068492 0.068254 0.068381
0.054006 0.055191 0.056499
0.266469 0.266835 0.268100
0.273260 0.272071 0.270409
0.359791 0.360811 0.362204
0.271690 0.273326 0.271562
0.060385 0.060040 0.058955
0.278536 0.273636 0.272519
0.191045 0.190149 0.188625
0.064035 0.064073 0.063994
0.080310 0.079257 0.079288
0.054715 0.054561 0.054713
0.588585 0.588701 0.589811
0.074577 0.075111 0.075387
0.238410 0.238171 0.244164
0.153822 0.153779 0.152353
0.109091 0.109867 0.110281
0.264642 0.263418 0.263286
0.063045 0.063374 0.063394
0.148086 0.147938 0.149384
0.197163 0.191635 0.189660
0.154261 0.154676 0.154977
0.248519 0.249473 0.250666
0.350550 0.343439 0.342536
0.058391 0.058161 0.056899
0.486900 0.482306 0.481991
0.064902 0.065053 0.065900
0.158067 0.158407 0.161712
0.515677 0.515382 0.513777
0.062603 0.062016 0.061426
0.065005 0.065398 0.065301
0.142108 0.142334 0.142251
0.075023 0.075130 0.075003
0.417147 0.414843 0.411180
0.126071 0.126031 0.126135
0.053133 0.053223 0.053296
0.072237 0.072560 0.073301
0.061388 0.061182 0.061406
0.223792 0.225031 0.223634
0.076737 0.076491 0.076504
0.074808 0.074912 0.075009
0.148790 0.148082 0.147976
0.249186 0.239151 0.240647
0.061057 0.060865 0.061157
0.066721 0.066763 0.067226
0.183648 0.184991 0.185276
0.582645 0.583793 0.584006
0.064316 0.063977 0.063680
0.440513 0.429156 0.425880
0.239279 0.239589 0.241064
0.087115 0.088188 0.087805
0.222291 0.222957 0.224165
0.354020 0.353838 0.355112
0.083873 0.085788 0.086855
0.205521 0.205458 0.205241
0.067718 0.066996 0.066874
0.067499 0.067884 0.068226
0.047778 0.047573 0.047275
0.295896 0.296772 0.298427
0.216873 0.217138 0.217467
0.173730 0.173724 0.173621
0.057112 0.057104 0.058935
0.089683 0.089369 0.088498
0.380417 0.379633 0.377556
0.267614 0.266512 0.267391
0.270423 0.268848 0.268955
0.236522 0.232719 0.230944
0.247901 0.248778 0.248259
0.070122 0.070021 0.069624
0.133435 0.131341 0.126464
0.213161 0.213122 0.212223
0.298476 0.298214 0.298973
0.228209 0.230181 0.232728
0.054390 0.054593 0.054871
0.161295 0.163268 0.163892
0.148453 0.148191 0.147564
0.065291 0.065200 0.065366
0.244593 0.244433 0.244462
0.300669 0.300042 0.299355
0.258314 0.258677 0.257103
0.069152 0.069035 0.068635
0.212209 0.211856 0.211812
0.449697 0.452326 0.469195
0.182804 0.182893 0.182982
0.286457 0.289013 0.304159
0.517388 0.519845 0.519063
0.068836 0.069324 0.069307
0.299527 0.298903 0.294424
0.088790 0.088595 0.088750
0.256345 0.253685 0.251873
0.062197 0.061439 0.061433
0.226702 0.226503 0.225468
0.079409 0.079386 0.079419
0.082984 0.083677 0.085123
0.304293 0.304967 0.303876
0.107118 0.107145 0.106852
0.260313 0.258999 0.255827
0.301544 0.300494 0.301764
0.072683 0.072822 0.072487
0.319420 0.320570 0.321660
0.198155 0.198831 0.199656
0.204685 0.203406 0.203615
0.070683 0.070893 0.071354
0.210383 0.212876 0.215009
0.081665 0.081233 0.081867
0.045045 0.044976 0.045950
0.121925 0.122193 0.121605
0.134128 0.135530 0.135791
0.317129 0.317155 0.316461
0.056149 0.055080 0.054290
0.363873 0.360940 0.358968
0.068431 0.067905 0.067884
0.338088 0.332825 0.331620
0.061315 0.061743 0.061662
0.059164 0.059202 0.059238
0.085785 0.085817 0.086477
0.080874 0.080368 0.080551
0.059311 0.059361 0.059397
0.261588 0.261110 0.258773
0.422717 0.421548 0.413202
0.060921 0.060910 0.061031
0.062013 0.061971 0.061955
0.242457 0.239785 0.237734
0.423791 0.423671 0.423910
0.075892 0.075903 0.075503
0.088849 0.089560 0.090034
0.056642 0.056686 0.056665
0.046415 0.046317 0.046163
0.072871 0.072796 0.073015
0.148236 0.148297 0.149286
0.062749 0.062925 0.063003
0.515754 0.514410 0.512756
0.243160 0.241987 0.241446
0.422735 0.419421 0.409294
0.089622 0.089531 0.089293
0.061031 0.060964 0.061124
0.358309 0.350464 0.346673
0.053798 0.053338 0.052905
0.076872 0.076739 0.076591
0.150115 0.148169 0.147358
0.089120 0.089155 0.089066
0.182646 0.182653 0.182423
0.048996 0.048852 0.048529
0.069612 0.069561 0.068815
0.163163 0.162260 0.159743
0.392101 0.395521 0.398215
0.263830 0.264990 0.265440
0.186484 0.186600 0.188320
0.104453 0.104477 0.104280
0.107418 0.107255 0.106755
0.156355 0.155188 0.153878
0.280845 0.278022 0.276552
0.088932 0.088705 0.088599
0.061988 0.062191 0.062236
0.217355 0.216509 0.212107
0.253023 0.252409 0.254109
0.208753 0.209457 0.210125
0.064916 0.064976 0.064659
0.071182 0.071140 0.070992
0.076063 0.076572 0.076555
0.081571 0.081502 0.081580
0.307193 0.311833 0.315012
0.075949 0.076103 0.076141
0.056870 0.056947 0.057746
0.350377 0.368122 0.379520
0.217556 0.206974 0.206645
0.438821 0.440010 0.442066
0.064378 0.064624 0.065192
0.077403 0.077264 0.077759
0.168309 0.165383 0.162695
0.295702 0.296484 0.298639
0.303706 0.301957 0.302706
0.183062 0.182584 0.181528
0.061336 0.061427 0.061947
0.148239 0.148806 0.149659
0.084962 0.084836 0.085474
0.247245 0.247031 0.247771
0.052950 0.053758 0.054659
0.072822 0.073230 0.072773
0.584838 0.586259 0.586405
0.231851 0.227079 0.225756
0.098175 0.099047 0.099210
0.266646 0.262063 0.260294
0.066004 0.066936 0.067175
0.157164 0.160058 0.161167
0.258689 0.258507 0.255549
0.162957 0.163558 0.163627
0.252409 0.254109 0.254518
0.061170 0.061388 0.061287
0.239087 0.239470 0.240015
0.090128 0.091426 0.091691
0.194185 0.195409 0.197272
0.065183 0.064226 0.064377
0.148088 0.146647 0.144832
0.059485 0.059374 0.059113
0.443328 0.435992 0.424498
0.066458 0.065818 0.066151
0.242727 0.238467 0.236928
0.054997 0.055208 0.055357
0.202143 0.201306 0.205757
0.218234 0.219798 0.221094
0.091243 0.091530 0.091721
0.313819 0.313564 0.321805
0.069664 0.069496 0.070082
0.067568 0.066811 0.065799
0.193132 0.191889 0.190337
0.173041 0.172919 0.176760
0.275723 0.276478 0.277265
0.282324 0.285964 0.285113
0.083917 0.083916 0.084019
0.164822 0.164332 0.164464
0.107003 0.107277 0.107527
0.091020 0.091012 0.090975
0.487585 0.487288 0.486512
0.244772 0.245051 0.244951
0.223941 0.224059 0.224193
0.081849 0.081840 0.081898
0.084138 0.084722 0.085521
0.272103 0.270974 0.271032
0.453499 0.453973 0.457030
0.075588 0.075330 0.075232
0.063540 0.064781 0.067023
0.085604 0.085764 0.084871
0.080786 0.080858 0.080730
0.199111 0.199052 0.198406
0.067825 0.067467 0.067537
0.122919 0.125621 0.144061
0.070237 0.070479 0.070558
0.265612 0.268046 0.266524
0.065322 0.064629 0.062995
0.082617 0.084183 0.084999
0.068158 0.068102 0.068244
0.056774 0.056454 0.057132
0.349337 0.351879 0.353011
0.147675 0.153048 0.156384
0.151967 0.152290 0.152106
0.067472 0.067193 0.067528
0.046979 0.046829 0.047000
0.063762 0.063348 0.063398
0.054714 0.054664 0.054536
0.111846 0.110019 0.108294
0.089534 0.089837 0.089862
0.167167 0.166775 0.166615
0.074992 0.074315 0.073420
0.213961 0.214898 0.213052
0.153579 0.155343 0.155555
0.230178 0.230000 0.231604
0.263348 0.259538 0.258480
0.060775 0.060262 0.060399
0.046559 0.046189 0.046263
0.186234 0.188121 0.189609
0.084786 0.085338 0.086035
0.269166 0.269232 0.269514
0.244601 0.246443 0.247219
0.444387 0.443932 0.449570
0.231693 0.230778 0.226868
0.073611 0.074215 0.074773
0.495293 0.486328 0.477963
0.055171 0.054741 0.054508
0.454194 0.454963 0.459376
0.251406 0.251545 0.252718
0.092400 0.092291 0.092603
0.090924 0.090776 0.090879
0.142543 0.143623 0.144938
0.071323 0.071585 0.071984
0.092243 0.092126 0.092205
0.183881 0.187278 0.190548
0.069316 0.069112 0.069119
0.058946 0.058839 0.058986
0.151829 0.150343 0.151293
0.297561 0.298556 0.301416
0.081754 0.082086 0.083552
0.092094 0.092208 0.092299
0.322208 0.322304 0.323681
0.063752 0.065139 0.066013
0.230572 0.230618 0.230745
0.206792 0.209652 0.214263
0.069753 0.070055 0.070142
0.417889 0.416444 0.414694
0.192034 0.191053 0.189389
0.088434 0.088610 0.088922
0.157984 0.159927 0.159364
0.285662 0.285002 0.285328
0.076480 0.077395 0.077585
0.196958 0.197302 0.197274
0.086205 0.086276 0.086028
0.138915 0.136819 0.136068
0.077304 0.069911 0.068857
0.121266 0.123348 0.131422
0.224365 0.224292 0.223076
0.239376 0.238431 0.238423
0.183763 0.185319 0.185171
0.061539 0.061240 0.060816
0.064564 0.064370 0.064391
0.315164 0.319657 0.320023
0.055834 0.056365 0.056299
0.075914 0.075952 0.076814
0.549482 0.548265 0.546529
0.058938 0.058823 0.059464
0.069722 0.069679 0.069706
0.047681 0.047081 0.047356
0.232663 0.232301 0.232872
0.089133 0.089579 0.089629
0.061795 0.061358 0.061056
0.074797 0.075011 0.075059
0.469179 0.464280 0.462982
0.078197 0.078419 0.077913
0.058323 0.058322 0.058506
0.054245 0.054176 0.054452
0.061471 0.061922 0.061871
0.087633 0.087458 0.087093
0.081380 0.081397 0.081249
0.201773 0.201445 0.199597
0.441878 0.439255 0.436766
0.258783 0.262878 0.264784
0.305008 0.303756 0.303233
0.089708 0.090500 0.090696
0.359030 0.360023 0.360800
0.192248 0.192968 0.196176
0.152064 0.152822 0.153336
0.062840 0.062144 0.062217
0.044505 0.044106 0.044206
0.423925 0.423486 0.423027
0.148768 0.147072 0.147429
0.080978 0.081075 0.080814
0.482596 0.480224 0.479146
0.247574 0.246324 0.245594
0.430165 0.430073 0.429874
0.062176 0.061569 0.061103
0.500753 0.491939 0.485006
0.494134 0.493991 0.491349
0.423911 0.420934 0.422145
0.135311 0.137497 0.136848
0.196539 0.197507 0.196989
0.083248 0.083431 0.082848
0.118265 0.118713 0.119801
0.325275 0.328914 0.330860
0.276230 0.281966 0.290620
0.050788 0.050934 0.050857
0.300346 0.299165 0.298479
0.302769 0.302899 0.302374
0.066141 0.066215 0.066048
0.193829 0.194878 0.194296
0.054750 0.054894 0.054958
0.582110 0.582176 0.582703
0.158387 0.150495 0.143766
0.099581 0.097763 0.095604
0.073021 0.072606 0.072178
0.273842 0.271582 0.276283
0.176057 0.175237 0.175525
0.373780 0.370683 0.369403
0.169996 0.171662 0.173304
0.227953 0.227655 0.225979
0.542022 0.527616 0.526659
0.061996 0.061983 0.061717
0.204198 0.203111 0.203847
0.060764 0.060953 0.060746
0.200847 0.195883 0.189498
0.157929 0.155128 0.153964
0.076906 0.076048 0.074405
0.209070 0.208092 0.203526
0.108151 0.106363 0.099196
0.065404 0.065332 0.065825
0.450994 0.450645 0.451212
0.064838 0.064986 0.065684
0.248774 0.248099 0.248167
0.059551 0.059469 0.059439
0.373147 0.371381 0.367736
0.459711 0.465739 0.465885
0.070968 0.071004 0.070730
0.061116 0.061285 0.061048
0.076753 0.076977 0.077075
0.263535 0.263893 0.263535
0.281446 0.281181 0.281272
0.090658 0.090720 0.090736
0.278133 0.278383 0.278149
0.076471 0.078844 0.078961
0.073801 0.077144 0.077409
0.075402 0.075535 0.075930
0.062740 0.062375 0.062155
0.043005 0.043111 0.042599
0.046474 0.046798 0.047465
0.225075 0.222070 0.222285
0.546344 0.548820 0.549361
0.068942 0.069127 0.069945
0.365958 0.365523 0.367338
0.063498 0.063735 0.062657
0.096417 0.096990 0.097700
0.075820 0.075412 0.074992
0.061543 0.061554 0.060644
0.086180 0.085887 0.085768
0.084676 0.085770 0.086993
0.204825 0.205353 0.206136
0.255880 0.253543 0.258158
0.229354 0.229444 0.230766
0.050748 0.051165 0.051616
0.077825 0.077957 0.077594
0.234565 0.235774 0.235748
0.047530 0.047622 0.047806
0.152972 0.153027 0.152985
0.168901 0.169524 0.169470
0.213934 0.213919 0.214251
0.139124 0.139937 0.141109
0.455854 0.446932 0.446431
0.068321 0.068126 0.067437
0.076968 0.077539 0.077705
0.243163 0.234338 0.226345
0.075982 0.075533 0.075237
0.546370 0.547259 0.548939
0.246579 0.246993 0.246183
0.051202 0.051170 0.050803
0.081389 0.081972 0.081959
0.154116 0.154177 0.154057
0.255763 0.262393 0.267395
0.259106 0.258404 0.258466
0.059305 0.059225 0.059232
0.106820 0.107271 0.106981
0.223956 0.223876 0.224338
0.457826 0.457019 0.454232
0.091942 0.091380 0.092022
