0.233422 0.232312 0.234478
0.200305 0.203259 0.203872
0.318472 0.310019 0.309147
0.243168 0.244911 0.245434
0.289455 0.290207 0.292366
0.261089 0.260507 0.260368
0.316366 0.317141 0.319366
0.315888 0.316164 0.316216
0.314629 0.323130 0.323728
0.273869 0.271950 0.271205
0.299889 0.298874 0.298156
0.355212 0.362837 0.364044
0.179091 0.177756 0.177203
0.236129 0.235772 0.235474
0.439392 0.443451 0.433029
0.526036 0.526865 0.529161
0.319292 0.319205 0.319140
0.258457 0.258088 0.257861
0.199374 0.198453 0.199579
0.333416 0.335282 0.336159
0.259041 0.253894 0.252468
0.219500 0.218604 0.218570
0.276204 0.273657 0.272210
0.301217 0.299039 0.298262
0.353475 0.349573 0.350730
0.344842 0.342673 0.341899
0.303587 0.299630 0.298572
0.327531 0.318169 0.318192
0.344895 0.345210 0.337430
0.314963 0.314439 0.314661
0.258820 0.255253 0.254234
0.422607 0.418764 0.418529
0.249971 0.266704 0.268058
0.291063 0.291104 0.292117
0.368973 0.373775 0.376988
0.213117 0.208551 0.207902
0.278125 0.278393 0.279513
0.305439 0.303509 0.299128
0.216990 0.215542 0.212653
0.332325 0.330650 0.329492
0.315336 0.316231 0.318824
0.298755 0.297037 0.294093
0.453246 0.452662 0.448799
0.263854 0.261013 0.253149
0.507477 0.490463 0.453956
0.282054 0.281927 0.282746
0.312697 0.313072 0.313548
0.282669 0.277517 0.275475
0.267847 0.267732 0.267794
0.408954 0.412510 0.414060
0.333830 0.337222 0.339131
0.408746 0.408992 0.410301
0.408012 0.407894 0.405702
0.211421 0.209688 0.208038
0.257227 0.258142 0.256164
0.331426 0.328077 0.327661
0.255865 0.258729 0.259857
0.208139 0.207639 0.207225
0.316198 0.315522 0.318579
0.347051 0.349659 0.349369
0.206052 0.206024 0.205839
0.323386 0.314125 0.302925
0.222431 0.227425 0.229519
0.324775 0.320987 0.315297
0.242485 0.247689 0.248778
0.279589 0.279693 0.279367
0.248858 0.246416 0.244196
0.425542 0.425279 0.424134
0.209201 0.207083 0.205952
0.254357 0.246320 0.242511
0.245501 0.243914 0.245718
0.387086 0.388247 0.394448
0.304456 0.302739 0.301187
0.355594 0.351891 0.351498
0.392193 0.391864 0.395412
0.301412 0.301843 0.304135
0.263949 0.260894 0.261084
0.355629 0.357223 0.355296
0.346517 0.345966 0.346619
0.359149 0.362435 0.364570
0.268216 0.264802 0.263705
0.448385 0.447814 0.449159
0.497523 0.500006 0.511402
0.150535 0.150161 0.149774
0.231776 0.235546 0.237620
0.350773 0.356041 0.357098
0.285722 0.285812 0.284497
0.262657 0.256539 0.246688
0.225386 0.226142 0.222956
0.455682 0.457460 0.458840
0.295924 0.297738 0.298356
0.273009 0.272308 0.275836
0.246550 0.247072 0.246194
0.242767 0.247726 0.251528
0.405981 0.403435 0.392710
0.296874 0.304414 0.305607
0.199137 0.199570 0.199068
0.356979 0.344570 0.336326
0.327272 0.326467 0.318442
0.249485 0.247463 0.245741
0.345503 0.345332 0.345391
0.283514 0.282771 0.282651
0.320211 0.320832 0.321825
0.350240 0.349655 0.351637
0.328253 0.330290 0.328105
0.319574 0.319620 0.320026
0.311491 0.312697 0.313072
0.315093 0.315077 0.314541
0.292505 0.289891 0.289638
0.352874 0.354800 0.355281
0.289705 0.287593 0.286137
0.314935 0.316765 0.320699
0.323735 0.323996 0.320808
0.373592 0.371520 0.367179
0.256396 0.256716 0.257368
0.235253 0.234891 0.233406
0.317031 0.320596 0.320837
0.297436 0.296717 0.297688
0.387855 0.385141 0.382399
0.373620 0.371825 0.369573
0.433371 0.431442 0.431370
0.239442 0.239709 0.241274
0.385027 0.388871 0.394480
0.396374 0.392895 0.392198
0.351754 0.327646 0.313938
0.292038 0.291658 0.295185
0.291670 0.290181 0.281539
0.280981 0.281194 0.281979
0.376714 0.377283 0.376580
0.255655 0.256433 0.256346
0.326095 0.328642 0.329193
0.249953 0.252339 0.251700
0.239464 0.237389 0.238772
0.326374 0.325806 0.324034
0.266763 0.266409 0.266257
0.193030 0.190210 0.189450
0.231490 0.234154 0.239032
0.307618 0.307822 0.307805
0.315069 0.300034 0.297462
0.278778 0.279883 0.280686
0.275071 0.275015 0.277979
0.345675 0.346290 0.348039
0.327575 0.326123 0.320836
0.310691 0.310394 0.309648
0.362513 0.363036 0.363732
0.209255 0.210154 0.211771
0.386220 0.388170 0.386004
0.279116 0.278904 0.280668
0.313818 0.312963 0.313054
0.322794 0.320559 0.318645
0.273448 0.273387 0.274796
0.271014 0.274910 0.275511
0.217584 0.216546 0.217136
0.322418 0.322734 0.323743
0.299282 0.298801 0.295651
0.355286 0.359371 0.362440
0.309082 0.309687 0.310830
0.313092 0.313412 0.314454
0.340551 0.341331 0.339415
0.343882 0.344807 0.344231
0.314882 0.315361 0.316037
0.416490 0.412484 0.411131
0.397353 0.420194 0.434983
0.373517 0.374310 0.377694
0.293146 0.293156 0.294561
0.320191 0.310459 0.308899
0.359209 0.368818 0.371840
0.321681 0.319715 0.319431
0.320628 0.319255 0.320060
0.328398 0.327969 0.324286
0.308480 0.310448 0.310457
0.245752 0.241491 0.239289
0.349999 0.354187 0.353525
0.219305 0.224707 0.226989
0.230927 0.228567 0.229415
0.239402 0.240066 0.241356
0.261716 0.260764 0.260365
0.311748 0.310203 0.308939
0.283389 0.281022 0.275823
0.342604 0.339969 0.336757
0.208446 0.213671 0.216429
0.226484 0.226777 0.226268
0.220666 0.224335 0.223936
0.182941 0.183292 0.183772
0.290940 0.293324 0.294868
0.258880 0.258604 0.258545
0.248424 0.250322 0.252625
0.359365 0.362912 0.365129
0.269418 0.275676 0.275798
0.449359 0.451266 0.451391
0.272668 0.272323 0.270621
0.322177 0.319536 0.311852
0.256546 0.265467 0.264640
0.313898 0.313773 0.315003
0.328758 0.329893 0.329989
0.302369 0.303273 0.307693
0.263128 0.265124 0.266819
0.231926 0.231948 0.231242
0.244719 0.244960 0.245126
0.255899 0.252611 0.250253
0.228374 0.226911 0.227024
0.302622 0.302333 0.298928
0.230748 0.227094 0.223507
0.252635 0.252797 0.255593
0.342598 0.341446 0.343902
0.241849 0.241330 0.240267
0.251652 0.252385 0.253967
0.285216 0.281420 0.279321
0.274342 0.272874 0.271509
0.259796 0.259492 0.258387
0.246403 0.248118 0.250185
0.323475 0.322963 0.327700
0.224034 0.223473 0.221893
0.253156 0.253302 0.245626
0.405744 0.401644 0.381561
0.355221 0.353353 0.351662
0.237163 0.237046 0.232500
0.335192 0.335951 0.336224
0.251840 0.251520 0.250514
0.301933 0.302573 0.301785
0.250503 0.251193 0.250966
0.261922 0.262016 0.261863
0.301053 0.302776 0.302226
0.260280 0.259423 0.260003
0.357798 0.360460 0.360616
0.395223 0.397917 0.396749
0.291633 0.291869 0.293675
0.169853 0.176290 0.176499
0.328546 0.317240 0.315775
0.269528 0.271151 0.274947
0.281194 0.281979 0.282707
0.193084 0.193898 0.194380
0.327969 0.328564 0.328021
0.227329 0.230355 0.232622
0.298113 0.302597 0.303463
0.229961 0.229939 0.229957
0.551129 0.548870 0.548490
0.362985 0.363167 0.362816
0.313883 0.312488 0.308438
0.314066 0.314397 0.318629
0.394064 0.420854 0.422697
0.305301 0.304422 0.304538
0.252423 0.252056 0.250925
0.316786 0.317842 0.321712
0.319125 0.320286 0.322209
0.273846 0.275234 0.275808
0.313559 0.312831 0.314779
0.342778 0.346346 0.346408
0.260382 0.259831 0.247882
0.333085 0.325454 0.320726
0.371635 0.372132 0.373094
0.349493 0.349772 0.350204
0.390818 0.393516 0.394883
0.224973 0.222563 0.220773
0.352603 0.346884 0.343299
0.282437 0.282560 0.280590
0.452337 0.444623 0.442622
0.293392 0.294691 0.296154
0.310337 0.305530 0.299498
0.263291 0.262812 0.262085
0.174027 0.185050 0.184068
0.261333 0.259461 0.262626
0.303828 0.297096 0.293460
0.318312 0.327626 0.329623
0.386326 0.382492 0.377942
0.286670 0.285132 0.284543
0.244847 0.244907 0.243708
0.327236 0.316632 0.315164
0.316054 0.316126 0.316546
0.307459 0.310942 0.322661
0.275824 0.272821 0.269767
0.237535 0.236921 0.235543
0.266490 0.266144 0.265217
0.392575 0.388112 0.387521
0.386753 0.381642 0.382704
0.404694 0.402515 0.404513
0.262478 0.261698 0.261567
0.332071 0.329489 0.324879
0.258306 0.257784 0.259269
0.347172 0.346728 0.342437
0.288406 0.286354 0.284937
0.261866 0.264659 0.267786
0.234000 0.233923 0.233841
0.286023 0.286589 0.293640
0.221868 0.219315 0.225790
0.576369 0.576440 0.576957
0.380905 0.379743 0.376880
0.318216 0.318226 0.318251
0.318216 0.319615 0.328192
0.378118 0.379607 0.378470
0.306475 0.303975 0.303017
0.177520 0.179215 0.179756
0.307524 0.304807 0.305301
0.295163 0.291270 0.290939
0.215881 0.216534 0.212953
0.319336 0.317808 0.315039
0.393888 0.393582 0.390166
0.350813 0.355629 0.357223
0.414915 0.419643 0.419818
0.266552 0.265959 0.261765
0.206024 0.211512 0.211978
0.230660 0.230410 0.230174
0.368649 0.368452 0.368193
0.384903 0.388597 0.391271
0.349732 0.348886 0.349390
0.282639 0.282098 0.282247
0.394880 0.394244 0.391241
0.535966 0.535419 0.542135
0.467584 0.468978 0.469420
0.261995 0.262427 0.262389
0.309568 0.308127 0.306979
0.265556 0.266641 0.269068
0.291932 0.290255 0.292811
0.298077 0.297106 0.296775
0.316800 0.316464 0.315782
0.344278 0.332161 0.329015
0.526399 0.526052 0.528871
0.249308 0.249344 0.249237
0.210058 0.207568 0.207547
0.416010 0.415955 0.415516
0.349625 0.360248 0.362391
0.321733 0.319655 0.316651
0.261601 0.259413 0.258915
0.378099 0.388919 0.371429
0.368493 0.360633 0.359478
0.288551 0.281483 0.280687
0.293410 0.292833 0.291241
0.314591 0.316278 0.316412
0.278362 0.278389 0.285913
0.359428 0.359390 0.359438
0.322858 0.324015 0.323772
0.334316 0.334284 0.334585
0.345040 0.344576 0.345854
0.334836 0.333146 0.333384
0.367568 0.365661 0.365668
0.331815 0.331977 0.334163
0.266154 0.266301 0.268051
0.340716 0.339432 0.337843
0.351291 0.351555 0.351864
0.244496 0.244291 0.244711
0.356657 0.365034 0.370348
0.199974 0.199610 0.195227
0.207423 0.206618 0.209196
0.410194 0.409894 0.410222
0.315972 0.315669 0.322077
0.315058 0.312442 0.305412
0.226476 0.226594 0.226140
0.193283 0.192806 0.193535
0.309012 0.308754 0.309096
0.333841 0.333186 0.333633
0.349095 0.350613 0.350063
0.347135 0.347263 0.344808
0.332958 0.331549 0.329111
0.264031 0.264392 0.269791
0.212481 0.212273 0.212259
0.261852 0.262064 0.262595
0.281149 0.283164 0.292054
0.387141 0.387226 0.386127
0.260813 0.260666 0.260929
0.322865 0.324680 0.325242
0.325636 0.326636 0.328130
0.333153 0.334389 0.334292
0.218604 0.220823 0.223067
0.350283 0.350017 0.350956
0.321346 0.317485 0.316110
0.250258 0.249370 0.249767
0.393763 0.394159 0.396545
0.234265 0.236836 0.239268
0.249824 0.247952 0.250473
0.215729 0.218245 0.220719
0.335504 0.335841 0.335410
0.449924 0.451229 0.451400
0.306479 0.295028 0.292753
0.394590 0.390859 0.390990
0.264618 0.263089 0.263003
0.339534 0.339998 0.340059
0.336960 0.337933 0.338372
0.365258 0.366652 0.368853
0.196818 0.199288 0.200453
0.334294 0.335379 0.334749
0.215732 0.210071 0.209546
0.360278 0.359885 0.359600
0.227566 0.225328 0.222181
0.254315 0.255127 0.258611
0.316327 0.315847 0.315662
0.201840 0.201823 0.202022
0.261499 0.260126 0.256945
0.244736 0.244404 0.242187
0.292657 0.303676 0.310407
0.244474 0.239750 0.238806
0.323955 0.325485 0.326267
0.310008 0.311155 0.311786
0.354729 0.354592 0.356145
0.317963 0.321421 0.323071
0.177468 0.179202 0.179600
0.344365 0.343953 0.343125
0.300552 0.300993 0.297740
0.437129 0.430297 0.428818
0.293460 0.288346 0.285025
0.261950 0.259081 0.258286
0.327732 0.325380 0.325104
0.300674 0.302673 0.303544
0.289470 0.290712 0.299757
0.194738 0.194043 0.193675
0.287889 0.287935 0.287807
0.294526 0.294242 0.293668
0.263959 0.264431 0.269191
0.343369 0.343014 0.345054
0.413166 0.413427 0.413774
0.269847 0.271101 0.271171
0.381694 0.381638 0.383514
0.272450 0.273696 0.272876
0.391056 0.396098 0.411884
0.412138 0.398286 0.391856
0.199005 0.208145 0.211420
0.317255 0.321147 0.326369
0.350312 0.347670 0.346273
0.456584 0.452815 0.448096
0.324959 0.327672 0.330217
0.219851 0.219767 0.220107
0.299066 0.300150 0.305461
0.279688 0.283165 0.283555
0.279909 0.283057 0.284389
0.194474 0.194679 0.194783
0.227193 0.227037 0.226716
0.355952 0.356888 0.356343
0.261822 0.258794 0.258268
0.212274 0.211953 0.212053
0.385084 0.385049 0.384010
0.248183 0.246936 0.244424
0.196532 0.196564 0.193177
0.342061 0.340693 0.337068
0.258646 0.258578 0.258175
0.352858 0.351649 0.348868
0.313711 0.315402 0.315408
0.372931 0.373266 0.373071
0.328466 0.328076 0.327503
0.160332 0.159008 0.158753
0.283401 0.283032 0.283127
0.217228 0.217652 0.219607
0.246140 0.247232 0.248030
0.316913 0.323024 0.328765
0.249979 0.251976 0.254693
0.279928 0.280972 0.281594
0.435029 0.435762 0.437928
0.223728 0.224034 0.223473
0.394505 0.391314 0.392466
0.270240 0.273956 0.275862
0.258230 0.259031 0.260122
0.252468 0.253967 0.254326
0.280507 0.281978 0.282892
0.364056 0.362986 0.362477
0.213157 0.212050 0.207056
0.375289 0.375817 0.373400
0.215487 0.216328 0.219537
0.329180 0.329248 0.329218
0.224707 0.226989 0.228351
0.303996 0.302141 0.295863
0.314686 0.304708 0.297948
0.225786 0.225575 0.226074
0.208182 0.207981 0.207129
0.324398 0.325250 0.327669
0.373426 0.374308 0.375539
0.241908 0.241649 0.241853
0.423832 0.424202 0.424322
0.278226 0.278825 0.278864
0.214512 0.214540 0.214562
0.177187 0.179105 0.181229
0.243548 0.243241 0.237724
0.303824 0.299624 0.297874
0.230415 0.229312 0.225936
0.269321 0.271768 0.271914
0.335478 0.336265 0.336824
0.385196 0.384124 0.379355
0.330650 0.329492 0.329601
0.364534 0.363297 0.364389
0.204549 0.203912 0.203105
0.334133 0.335070 0.331100
0.356454 0.355989 0.357659
0.351347 0.352881 0.350118
0.327147 0.336660 0.338277
0.289202 0.291193 0.292227
0.216360 0.213717 0.211902
0.256143 0.252737 0.249358
0.331382 0.331731 0.333364
0.383786 0.384834 0.384112
0.397034 0.396191 0.389221
0.326561 0.325907 0.324317
0.271929 0.272634 0.271174
0.224417 0.226525 0.229476
0.396457 0.397012 0.396915
0.310303 0.308868 0.308062
0.294907 0.295276 0.297682
0.300686 0.296208 0.295772
0.301142 0.299171 0.301474
0.217471 0.216853 0.217307
0.252946 0.253818 0.253624
0.376724 0.376126 0.374963
0.234826 0.238367 0.240979
0.328240 0.328294 0.326756
0.196556 0.195894 0.185348
0.252751 0.255588 0.259123
0.223460 0.223372 0.222719
0.365000 0.363127 0.360964
0.307266 0.306733 0.306255
0.287457 0.287075 0.286923
0.231825 0.224552 0.229499
0.468096 0.455777 0.438741
0.219068 0.223231 0.224764
0.227458 0.225895 0.222624
0.179591 0.166351 0.163568
0.375584 0.372348 0.381596
0.213236 0.212016 0.209443
0.367676 0.369290 0.369404
0.231514 0.231653 0.232846
0.208825 0.209294 0.210360
0.293457 0.293842 0.294436
0.199810 0.208996 0.211457
0.450351 0.453085 0.452681
0.308020 0.307272 0.307221
0.261983 0.264305 0.260372
0.383865 0.384840 0.385035
0.281621 0.279466 0.278356
0.307221 0.308712 0.308650
0.385787 0.384996 0.383579
0.217528 0.220881 0.224307
0.274563 0.271832 0.267542
0.258266 0.260131 0.261398
0.312931 0.313354 0.314637
0.273227 0.273079 0.272701
0.312532 0.309575 0.306293
0.647050 0.647684 0.649180
0.285645 0.279687 0.278336
0.329374 0.331514 0.331339
0.241931 0.241514 0.240931
0.292951 0.293461 0.293768
0.393018 0.390602 0.374372
0.164164 0.164391 0.164613
0.320820 0.313922 0.307458
0.256912 0.257005 0.257218
0.262497 0.260623 0.258873
0.349955 0.349934 0.350070
0.210226 0.211454 0.210687
0.296491 0.296903 0.296607
0.284695 0.278304 0.275849
0.236607 0.238795 0.239323
0.384243 0.384231 0.384170
0.320131 0.319102 0.313680
0.248864 0.248942 0.246502
0.377167 0.376806 0.377262
0.286327 0.284046 0.287117
0.333398 0.333022 0.336675
0.300622 0.328317 0.331749
0.393547 0.392692 0.392734
0.236126 0.235410 0.234053
0.327479 0.326051 0.324110
0.295426 0.293824 0.294106
0.211982 0.210429 0.210879
0.298875 0.308739 0.309311
0.282550 0.282114 0.274347
0.379578 0.379464 0.379367
0.235007 0.236012 0.240573
0.336263 0.337226 0.335834
0.289636 0.290340 0.290053
0.362892 0.358093 0.356146
0.294695 0.288077 0.290076
0.242151 0.244573 0.244934
0.337700 0.337862 0.337623
0.333821 0.332169 0.324965
0.328546 0.328318 0.327421
0.207901 0.207739 0.209861
0.228782 0.228605 0.227197
0.283181 0.283238 0.281697
0.174006 0.173720 0.173534
0.378684 0.376821 0.378614
0.302896 0.313549 0.320702
0.206639 0.209344 0.212074
0.447244 0.447771 0.445132
0.314397 0.318629 0.320382
0.355352 0.361764 0.364050
0.391877 0.392520 0.392041
0.325384 0.325117 0.320891
0.284234 0.284655 0.279150
0.219258 0.218683 0.218918
0.229899 0.230443 0.232164
0.370358 0.373052 0.374238
0.375501 0.377698 0.381250
0.255822 0.255972 0.252946
0.309382 0.313185 0.314441
0.285010 0.295852 0.294373
0.322268 0.322418 0.322861
0.313106 0.322933 0.320974
0.250092 0.248945 0.246888
0.319821 0.318698 0.319857
0.353600 0.353531 0.348923
0.271743 0.272422 0.271927
0.356695 0.352352 0.351802
0.315284 0.315932 0.315335
0.180601 0.181758 0.182502
0.511931 0.511716 0.512959
0.301865 0.301517 0.295607
0.268746 0.267371 0.267221
0.305741 0.304168 0.295904
0.215572 0.212552 0.212962
0.307381 0.307404 0.308390
0.362112 0.362232 0.360655
0.239434 0.239709 0.241301
0.302605 0.302968 0.302267
0.236049 0.234726 0.231477
0.285763 0.286201 0.286443
0.265694 0.265824 0.266743
0.208658 0.207396 0.209080
0.214155 0.214779 0.215916
0.249879 0.247110 0.253248
0.352167 0.352948 0.349870
0.267833 0.267782 0.267726
0.339321 0.338970 0.339728
0.270616 0.273034 0.273310
0.535688 0.537689 0.539814
0.308656 0.311911 0.311510
0.280517 0.282262 0.279912
0.257843 0.257651 0.257938
0.210288 0.210933 0.212618
0.274772 0.273684 0.272531
0.396046 0.394006 0.388514
0.327170 0.339116 0.340316
0.301670 0.300657 0.301649
0.367099 0.366233 0.365617
0.330709 0.330534 0.327990
0.224568 0.229169 0.229952
0.334981 0.335044 0.337594
0.352439 0.349299 0.333717
0.311602 0.310391 0.308860
0.327123 0.322894 0.314450
0.313034 0.316676 0.318537
0.283708 0.285037 0.290846
0.309362 0.306283 0.301236
0.373599 0.372262 0.372195
0.224002 0.223429 0.225936
0.281122 0.280426 0.279862
0.379358 0.379360 0.379382
0.157916 0.156406 0.155499
0.255772 0.256172 0.256421
0.353416 0.357489 0.358706
0.272462 0.273267 0.270230
0.361019 0.356773 0.354120
0.313952 0.315271 0.319927
0.212460 0.213278 0.213442
0.218769 0.219930 0.219645
0.217215 0.207100 0.204515
0.321909 0.325151 0.325665
0.310530 0.310710 0.310424
0.284837 0.288525 0.288859
0.235257 0.235085 0.235089
0.459044 0.458434 0.458089
0.418034 0.416093 0.410939
0.319698 0.315116 0.304898
0.249863 0.249766 0.249658
0.293058 0.291984 0.290862
0.321308 0.320625 0.321412
0.299074 0.295235 0.316097
0.256457 0.258463 0.258894
0.317234 0.323880 0.331962
0.272045 0.271865 0.272700
0.298378 0.299651 0.303008
0.216758 0.215250 0.218877
0.244777 0.247302 0.246414
0.206051 0.204549 0.203912
0.218818 0.216220 0.214754
0.231189 0.230544 0.231865
0.295931 0.293310 0.292467
0.247200 0.246977 0.246662
0.450473 0.448601 0.449300
0.205049 0.204061 0.206880
0.276086 0.275760 0.282850
0.261059 0.259830 0.258726
0.331015 0.316558 0.315058
0.346823 0.349518 0.349519
0.476579 0.477306 0.480641
0.333730 0.337343 0.339332
0.207668 0.207697 0.209286
0.259219 0.259743 0.259192
0.272017 0.271196 0.269720
0.367605 0.369477 0.366996
0.366595 0.364334 0.363778
0.309255 0.310008 0.309239
0.328226 0.327627 0.326561
0.335949 0.331221 0.332166
0.257139 0.255116 0.255247
0.208688 0.210173 0.209592
0.353932 0.355283 0.354229
0.222195 0.225404 0.227259
0.296688 0.296287 0.296846
0.345219 0.348751 0.347503
0.207729 0.207732 0.207163
0.370373 0.364425 0.360157
0.213314 0.213551 0.213158
0.362435 0.364570 0.367347
0.443908 0.441287 0.445405
0.257916 0.256466 0.254465
0.299223 0.301606 0.302447
0.317858 0.317888 0.316842
0.272570 0.273956 0.273137
0.311427 0.311970 0.310660
0.183590 0.185127 0.181351
0.349571 0.350235 0.350125
0.365334 0.351594 0.354392
0.324144 0.322292 0.321789
0.285825 0.284692 0.283916
0.249976 0.249701 0.247739
0.330081 0.332169 0.350240
0.338677 0.339126 0.341546
0.249387 0.246947 0.246002
0.260487 0.261032 0.261764
0.263757 0.262003 0.261503
0.162035 0.164837 0.166412
0.275831 0.276627 0.275232
0.307290 0.307239 0.307812
0.396391 0.393609 0.391594
0.255418 0.253785 0.249762
0.292702 0.291234 0.291000
0.337343 0.332525 0.331874
0.356107 0.355117 0.352636
0.289782 0.285645 0.279687
0.256509 0.256057 0.258716
0.293107 0.288795 0.292505
0.379381 0.376360 0.374215
0.322385 0.321957 0.321705
0.324433 0.323894 0.324542
0.241119 0.241618 0.239616
0.254553 0.253794 0.242391
0.308238 0.308154 0.308788
0.351013 0.356682 0.355352
0.305606 0.311601 0.312479
0.262216 0.262808 0.270276
0.268590 0.260272 0.250021
0.300352 0.299799 0.302140
0.262723 0.261816 0.261792
0.364692 0.361035 0.359934
0.300035 0.300179 0.298553
0.407007 0.407805 0.409079
0.259257 0.255285 0.250619
0.293985 0.294591 0.294728
0.277686 0.275296 0.272599
0.297282 0.296084 0.296933
0.347694 0.347070 0.343389
0.444255 0.438270 0.439575
0.219624 0.219520 0.218449
0.162331 0.162332 0.162306
0.256917 0.258223 0.258241
0.383566 0.384192 0.386158
0.387536 0.386895 0.381811
0.314698 0.316755 0.318044
0.245254 0.244891 0.243778
0.299518 0.294944 0.293830
0.394838 0.393385 0.391978
0.232454 0.234361 0.234801
0.392962 0.392697 0.392271
0.202555 0.203575 0.204950
0.282287 0.282142 0.282071
0.534045 0.521563 0.512718
0.236910 0.235631 0.234543
0.273302 0.272550 0.272880
0.219252 0.219118 0.218939
0.335690 0.328808 0.328397
0.372619 0.374869 0.376182
0.214640 0.209673 0.207973
0.431845 0.431432 0.428979
0.243708 0.242696 0.242476
0.339415 0.338196 0.335722
0.337979 0.328485 0.328764
0.321749 0.325384 0.325117
0.265136 0.265545 0.263363
0.207225 0.206589 0.204839
0.271191 0.271405 0.271414
0.332133 0.334713 0.334283
0.375092 0.366107 0.356319
0.329592 0.330098 0.330322
0.301587 0.303422 0.316748
0.219922 0.219202 0.222709
0.270809 0.268405 0.264137
0.304441 0.302905 0.302184
0.307531 0.307075 0.307237
0.203928 0.205520 0.203709
0.246060 0.244474 0.239750
0.372903 0.358278 0.354765
0.295261 0.296825 0.298682
0.391926 0.394646 0.395472
0.301000 0.303488 0.303248
0.257143 0.257829 0.263981
0.211345 0.210279 0.209885
0.293383 0.293166 0.293062
0.319024 0.319775 0.320761
0.224868 0.224601 0.224202
0.318095 0.319937 0.320000
0.302764 0.302220 0.302189
0.236305 0.236911 0.239514
0.246974 0.248834 0.246164
0.319660 0.316199 0.313256
0.318600 0.314686 0.314162
0.303463 0.305591 0.306539
0.295026 0.293172 0.292728
0.293850 0.294535 0.294746
0.312649 0.311666 0.310061
0.600572 0.590252 0.567279
0.285886 0.288358 0.289678
0.310727 0.315419 0.318072
0.258915 0.272803 0.280060
0.310551 0.310096 0.313427
0.382853 0.386360 0.386414
0.330135 0.326237 0.338493
0.327882 0.329155 0.329087
0.364575 0.365113 0.367184
0.244627 0.244496 0.244291
0.256495 0.255889 0.255655
0.225830 0.224762 0.218654
0.379315 0.379360 0.378716
0.348570 0.348610 0.339890
0.257954 0.246908 0.245074
0.317477 0.315948 0.318285
0.377617 0.378590 0.378657
0.345020 0.342341 0.341876
0.248831 0.247878 0.251190
0.322612 0.317364 0.311239
0.286823 0.286710 0.286560
0.256301 0.255044 0.251629
0.357726 0.362098 0.363116
0.286357 0.284994 0.282934
0.200671 0.200909 0.201083
0.300953 0.294648 0.293226
0.281566 0.279142 0.277374
0.305390 0.304815 0.299506
0.311320 0.311161 0.312431
0.281572 0.277620 0.271023
0.299672 0.300049 0.301246
0.374041 0.375501 0.379933
0.314786 0.315566 0.314728
0.376899 0.376045 0.375740
0.324405 0.326581 0.327730
0.261746 0.259988 0.257101
0.331279 0.330818 0.336937
0.234120 0.232986 0.229923
0.208468 0.210823 0.211430
0.327686 0.322788 0.322048
0.329833 0.334587 0.334890
0.277724 0.277981 0.278661
0.283713 0.282903 0.283264
0.246936 0.244424 0.246765
0.293104 0.295629 0.305689
0.315500 0.316537 0.316492
0.301909 0.302985 0.306286
0.276372 0.275559 0.276106
0.219894 0.219842 0.219862
0.295330 0.298336 0.295828
0.300880 0.299202 0.298932
0.257307 0.256793 0.257642
0.362232 0.360655 0.358030
0.381296 0.383016 0.384749
0.248076 0.246338 0.249384
0.398571 0.397812 0.395067
0.337144 0.335883 0.333835
0.236943 0.234724 0.220564
0.239623 0.238197 0.234882
0.300680 0.295408 0.295912
0.287163 0.289142 0.290432
0.209912 0.210907 0.208289
0.323388 0.322434 0.323377
0.235370 0.228233 0.227089
0.273565 0.272689 0.273903
0.302934 0.302332 0.301097
0.477568 0.481376 0.480768
0.174126 0.185366 0.183843
0.257254 0.260187 0.262716
0.300693 0.298503 0.299182
0.315688 0.314963 0.314439
0.372903 0.374891 0.376012
0.321394 0.321657 0.324307
0.346523 0.347605 0.348468
0.229325 0.225759 0.225219
0.441081 0.418432 0.409199
0.312810 0.313331 0.313952
0.369104 0.368267 0.367793
0.294575 0.294584 0.294482
0.187818 0.195986 0.197366
0.355281 0.355825 0.356350
0.452760 0.452802 0.453765
0.321944 0.322566 0.321699
0.318276 0.317614 0.315688
0.320154 0.321086 0.320831
0.376235 0.378877 0.379780
0.272389 0.273437 0.274734
0.328989 0.329504 0.329448
0.347069 0.347873 0.348651
0.296824 0.296519 0.294047
0.386542 0.381370 0.378146
0.295464 0.295850 0.296162
0.336824 0.338048 0.339602
0.359712 0.360302 0.361516
0.216790 0.216333 0.210511
0.328121 0.326443 0.325121
0.457522 0.452487 0.452028
0.319266 0.322520 0.326879
0.216949 0.217618 0.218007
0.309982 0.309568 0.308127
0.219068 0.224089 0.227111
0.261091 0.254622 0.245752
0.366733 0.364879 0.364106
0.310486 0.313863 0.313545
0.292611 0.290991 0.294052
0.404915 0.403494 0.402811
0.303053 0.300382 0.309372
0.360537 0.360554 0.367541
0.177438 0.177198 0.176142
0.409073 0.408690 0.409367
0.368640 0.369297 0.371163
0.204796 0.203763 0.203202
0.381386 0.383015 0.384373
0.393117 0.393826 0.396541
0.259260 0.259965 0.260326
0.314938 0.313393 0.310287
0.278699 0.279653 0.280718
0.298729 0.297225 0.294921
0.289265 0.289363 0.290643
0.339094 0.339806 0.343460
0.359274 0.359317 0.359211
0.301706 0.302831 0.307194
0.199066 0.206815 0.204235
0.386753 0.386220 0.388170
0.260918 0.261045 0.261468
0.246821 0.254435 0.255418
0.321295 0.322525 0.326331
0.335139 0.331894 0.330932
0.324164 0.323611 0.324262
0.234390 0.242221 0.245203
0.353794 0.354690 0.354952
0.366318 0.365538 0.361896
0.339807 0.336082 0.335270
0.315464 0.322097 0.324486
0.236357 0.235074 0.234276
0.310268 0.312151 0.307349
0.304875 0.296960 0.291276
0.237690 0.237075 0.236421
0.327720 0.329028 0.327575
0.351477 0.351403 0.350979
0.291774 0.291406 0.290687
0.247541 0.247340 0.246618
0.302447 0.293822 0.293080
0.227993 0.227497 0.226301
0.339779 0.337048 0.338406
0.351111 0.352864 0.353743
0.273423 0.272443 0.268610
0.292783 0.292915 0.292552
0.280013 0.281339 0.294576
0.328220 0.328027 0.326756
0.340087 0.338198 0.333134
0.225417 0.225390 0.225527
0.384000 0.387194 0.387727
0.368259 0.368581 0.367769
0.391753 0.390804 0.387855
0.300683 0.299204 0.297535
0.274997 0.279769 0.281374
0.364722 0.364960 0.366853
0.280895 0.282528 0.285145
0.265985 0.266303 0.266774
0.275101 0.272328 0.270022
0.316356 0.314686 0.304708
0.245441 0.246877 0.248077
0.277343 0.273835 0.272640
0.232777 0.228313 0.227326
0.293461 0.293768 0.294306
0.237825 0.242199 0.242983
0.393707 0.393309 0.392444
0.233533 0.233075 0.234725
0.228971 0.228829 0.226141
0.260098 0.260097 0.259970
0.253313 0.263005 0.265850
0.347098 0.337557 0.335632
0.301721 0.297506 0.295681
0.362877 0.361680 0.364782
0.368159 0.364147 0.364525
0.370359 0.377169 0.378329
0.274436 0.272430 0.271133
0.306688 0.306951 0.307320
0.285753 0.289408 0.288988
0.349905 0.351433 0.349782
0.256470 0.250214 0.249232
0.366667 0.386130 0.389117
0.317207 0.306479 0.295028
0.376514 0.377214 0.377037
0.369409 0.369119 0.368899
0.267312 0.268670 0.271165
0.289319 0.284706 0.279098
0.456324 0.457134 0.459432
0.334148 0.325843 0.317574
0.203722 0.211300 0.211440
0.348528 0.347375 0.348181
0.268826 0.272045 0.271865
0.258611 0.259021 0.259369
0.344560 0.344120 0.342980
0.296463 0.294938 0.295106
