0.056993 0.057251 0.057222
0.066833 0.066663 0.066835
0.090579 0.090143 0.090083
0.050081 0.050095 0.049871
0.078899 0.079305 0.080067
0.173830 0.173329 0.174629
0.074799 0.075252 0.075725
0.119837 0.122390 0.121388
0.052240 0.054775 0.057119
0.092465 0.092252 0.092286
0.054848 0.054988 0.055229
0.104438 0.104419 0.103108
0.174548 0.175429 0.176433
0.081476 0.079934 0.078249
0.209447 0.208389 0.208302
0.084845 0.083843 0.083073
0.214577 0.214183 0.212109
0.064008 0.065642 0.065869
0.060700 0.060922 0.060482
0.078592 0.078561 0.079201
0.192605 0.190930 0.191625
0.222716 0.221975 0.221064
0.131163 0.127884 0.127223
0.144978 0.142337 0.142906
0.051538 0.051895 0.051792
0.135847 0.134379 0.137590
0.095659 0.097072 0.099052
0.050237 0.050615 0.050703
0.065468 0.065266 0.065672
0.150896 0.150579 0.150557
0.185757 0.181444 0.177442
0.187740 0.187580 0.187727
0.100443 0.100251 0.099982
0.084771 0.084301 0.075776
0.075172 0.074777 0.074432
0.132677 0.132580 0.132456
0.232508 0.232329 0.232264
0.097041 0.096816 0.095613
0.167701 0.171606 0.171627
0.191592 0.191923 0.192446
0.185781 0.184764 0.185835
0.136915 0.136442 0.136342
0.180742 0.180712 0.180981
0.090954 0.089118 0.089072
0.075228 0.074479 0.074117
0.126074 0.126902 0.127064
0.090541 0.090612 0.090634
0.148786 0.148976 0.149864
0.096731 0.096872 0.097061
0.169116 0.162209 0.156687
0.053542 0.053679 0.053647
0.071608 0.071059 0.071157
0.125659 0.123068 0.126650
0.060388 0.060435 0.061190
0.168622 0.168734 0.168512
0.225392 0.227615 0.229361
0.081586 0.079078 0.073973
0.230131 0.230615 0.225257
0.168736 0.168492 0.168286
0.150999 0.151023 0.152663
0.110316 0.110455 0.109492
0.230803 0.229347 0.213898
0.176245 0.177093 0.177451
0.110746 0.110785 0.110767
0.152625 0.152634 0.152601
0.209558 0.209237 0.208403
0.144064 0.143804 0.144905
0.134860 0.134915 0.135242
0.093797 0.093814 0.094260
0.089091 0.090035 0.090708
0.132174 0.132192 0.129402
0.058141 0.057999 0.057770
0.149419 0.149436 0.149904
0.094200 0.093126 0.088739
0.088239 0.088448 0.088401
0.141004 0.141015 0.140474
0.089717 0.080967 0.079928
0.057995 0.058268 0.058262
0.071435 0.071232 0.071117
0.153156 0.152658 0.152979
0.081955 0.081742 0.082038
0.210981 0.210033 0.209734
0.218905 0.218646 0.219984
0.064304 0.064326 0.064533
0.064078 0.064079 0.063982
0.055970 0.055636 0.055755
0.088833 0.088942 0.088208
0.131333 0.131120 0.131593
0.085440 0.084704 0.084279
0.120325 0.120307 0.120179
0.122502 0.123392 0.128770
0.092707 0.092452 0.091929
0.216865 0.215263 0.213239
0.069360 0.069128 0.069967
0.091177 0.091035 0.090929
0.174741 0.175026 0.175185
0.092817 0.096433 0.096892
0.114802 0.111035 0.111047
0.052397 0.052535 0.052825
0.125851 0.125701 0.125608
0.053619 0.053716 0.053754
0.221786 0.221680 0.224455
0.066437 0.066596 0.067519
0.105827 0.105704 0.105729
0.152099 0.152098 0.151860
0.112205 0.112371 0.112813
0.111577 0.110527 0.110177
0.088841 0.092677 0.097962
0.069489 0.070181 0.070241
0.133422 0.132778 0.132669
0.063485 0.064618 0.064438
0.170468 0.170437 0.170306
0.145625 0.144758 0.143979
0.101432 0.102179 0.102409
0.080927 0.081321 0.081846
0.139885 0.140346 0.142397
0.190897 0.191008 0.191552
0.138587 0.138527 0.138568
0.047652 0.047440 0.047366
0.159868 0.158228 0.157180
0.116011 0.115924 0.115991
0.059829 0.059668 0.059587
0.081789 0.081523 0.080693
0.074640 0.074717 0.075086
0.086670 0.086346 0.086372
0.109755 0.109977 0.110185
0.126808 0.126630 0.124721
0.175587 0.177360 0.177831
0.193749 0.190019 0.188618
0.138386 0.138415 0.138112
0.118632 0.117235 0.120402
0.133305 0.133238 0.133245
0.119436 0.118727 0.119546
0.056210 0.057794 0.057838
0.116391 0.116329 0.116472
0.092577 0.092358 0.092695
0.060907 0.057733 0.057587
0.077068 0.079241 0.083414
0.129258 0.135601 0.142095
0.096023 0.095358 0.095202
0.163625 0.163754 0.163763
0.068124 0.068337 0.068212
0.069782 0.069674 0.070219
0.109057 0.108887 0.108963
0.083328 0.083252 0.083378
0.083267 0.083351 0.083340
0.153919 0.154404 0.160974
0.125608 0.124908 0.124888
0.068044 0.068697 0.069520
0.127064 0.127356 0.128613
0.144200 0.145405 0.145259
0.170058 0.170755 0.170568
0.133399 0.134475 0.134671
0.116647 0.116363 0.116267
0.074627 0.074714 0.073746
0.208142 0.207906 0.206537
0.077010 0.077041 0.077399
0.063292 0.063285 0.063939
0.093736 0.093896 0.093992
0.148984 0.130250 0.123271
0.129242 0.128522 0.125012
0.132173 0.132697 0.132647
0.143952 0.144429 0.144015
0.075107 0.074598 0.074426
0.164121 0.165169 0.165480
0.191325 0.191401 0.191980
0.074797 0.075343 0.075393
0.128881 0.128972 0.129000
0.118981 0.119000 0.118795
0.056078 0.056236 0.056511
0.087432 0.087252 0.085821
0.053584 0.053604 0.053555
0.097793 0.097630 0.097375
0.097202 0.097126 0.096941
0.090917 0.103947 0.105728
0.108567 0.109777 0.110008
0.082851 0.082747 0.080812
0.082427 0.083365 0.082859
0.111994 0.111621 0.112725
0.095148 0.095380 0.095600
0.176715 0.176781 0.177072
0.076460 0.076925 0.079340
0.054841 0.054705 0.054666
0.125816 0.126091 0.126498
0.085246 0.086547 0.087638
0.110887 0.111401 0.111572
0.072956 0.073451 0.073169
0.219158 0.218540 0.219732
0.086137 0.086106 0.086119
0.146729 0.147899 0.147527
0.127335 0.113107 0.111342
0.088440 0.088348 0.088721
0.088230 0.088603 0.089665
0.096332 0.096730 0.096876
0.059152 0.060105 0.062121
0.054505 0.054640 0.055074
0.188528 0.188049 0.188044
0.077424 0.077255 0.077001
0.059195 0.059355 0.059680
0.076362 0.076049 0.076012
0.119341 0.118098 0.117834
0.083819 0.085031 0.086441
0.103017 0.102716 0.102936
0.155726 0.157131 0.160628
0.067226 0.071570 0.073589
0.111194 0.110841 0.110040
0.138530 0.138176 0.137952
0.059220 0.059386 0.059361
0.090334 0.090397 0.090747
0.118513 0.115751 0.109225
0.136994 0.136821 0.133788
0.059202 0.059586 0.059478
0.132311 0.135244 0.142054
0.074785 0.074457 0.074465
0.124413 0.124896 0.124870
0.094729 0.093834 0.093513
0.127584 0.127290 0.127149
0.104966 0.105394 0.105860
0.089739 0.090907 0.092077
0.047303 0.047184 0.047163
0.184513 0.184959 0.187463
0.134383 0.134541 0.134632
0.216948 0.215284 0.215000
0.107376 0.107392 0.107211
0.222242 0.232534 0.235405
0.150121 0.149876 0.150225
0.186851 0.185565 0.185948
0.084630 0.084566 0.084586
0.171210 0.172215 0.167991
0.083448 0.083175 0.083056
0.082568 0.082739 0.083168
0.116645 0.120097 0.121298
0.146477 0.145529 0.145686
0.208422 0.207906 0.205758
0.083003 0.082705 0.082789
0.084480 0.084279 0.083947
0.122462 0.123340 0.123332
0.077439 0.077048 0.077147
0.078993 0.078790 0.078135
0.084055 0.083905 0.083816
0.205541 0.198081 0.197469
0.131960 0.131320 0.131190
0.105535 0.105673 0.105656
0.087905 0.087937 0.086866
0.097555 0.097250 0.091582
0.053337 0.053535 0.053721
0.066704 0.066686 0.066970
0.183256 0.182823 0.181665
0.086444 0.086493 0.086291
0.051455 0.049527 0.048773
0.090687 0.090693 0.090697
0.208429 0.214160 0.216067
0.080041 0.080275 0.080041
0.083905 0.083816 0.083167
0.153069 0.152551 0.152606
0.125581 0.125691 0.125887
0.130922 0.130974 0.130863
0.150209 0.150453 0.151783
0.073650 0.073874 0.075384
0.122815 0.121914 0.121233
0.149243 0.148685 0.149666
0.066523 0.067418 0.069751
0.093796 0.093758 0.093006
0.082830 0.083034 0.082748
0.194059 0.194157 0.194559
0.137353 0.135594 0.138098
0.145925 0.145257 0.145121
0.115221 0.116472 0.117313
0.225246 0.225271 0.225294
0.117401 0.117346 0.117528
0.097878 0.097878 0.097877
0.108179 0.107816 0.107593
0.101335 0.104109 0.106600
0.058279 0.057306 0.056396
0.068479 0.070575 0.075253
0.071407 0.070675 0.070580
0.059351 0.059468 0.058714
0.090638 0.090516 0.090889
0.099208 0.099182 0.098424
0.110733 0.110720 0.110645
0.094263 0.095942 0.096496
0.064321 0.064445 0.064528
0.054102 0.054029 0.054112
0.136123 0.136156 0.136097
0.063012 0.062542 0.062296
0.124661 0.175313 0.178043
0.075992 0.075655 0.075267
0.109916 0.110501 0.110498
0.112287 0.112848 0.113823
0.081246 0.082435 0.083130
0.202453 0.200322 0.200122
0.091254 0.091325 0.091392
0.055409 0.055107 0.054998
0.088457 0.088132 0.088090
0.115013 0.114776 0.112656
0.058234 0.058227 0.058212
0.116462 0.117611 0.118511
0.109892 0.109675 0.108978
0.168081 0.165203 0.165229
0.104318 0.105299 0.105035
0.218069 0.218055 0.217454
0.072498 0.072352 0.072310
0.148586 0.148696 0.148488
0.048627 0.048261 0.048452
0.067000 0.066904 0.067282
0.208762 0.208931 0.208925
0.117825 0.118990 0.119746
0.188887 0.187750 0.186354
0.190851 0.191096 0.189866
0.173779 0.170357 0.169301
0.111414 0.111299 0.110874
0.083004 0.082926 0.083056
0.157355 0.157305 0.156876
0.083833 0.083825 0.083821
0.050927 0.051352 0.051260
0.114167 0.114258 0.114189
0.110017 0.109859 0.109792
0.052681 0.053198 0.053399
0.211283 0.211576 0.211852
0.155718 0.155389 0.155174
0.046510 0.046549 0.046673
0.220371 0.220401 0.219620
0.111999 0.114384 0.114966
0.069444 0.064715 0.064411
0.198459 0.198345 0.197734
0.108322 0.108587 0.108611
0.102667 0.102313 0.102347
0.082990 0.083091 0.083109
0.139941 0.139010 0.138547
0.094626 0.096151 0.096056
0.073377 0.073476 0.073594
0.131688 0.131534 0.131450
0.048852 0.048823 0.047938
0.134974 0.135534 0.135498
0.074365 0.074158 0.074649
0.048946 0.048255 0.047541
0.129019 0.128267 0.128335
0.053696 0.053535 0.053460
0.059036 0.058972 0.059020
0.077191 0.077144 0.077073
0.109803 0.109864 0.109994
0.108694 0.108723 0.109010
0.083392 0.083337 0.082120
0.095818 0.104065 0.105381
0.077416 0.075464 0.074958
0.078301 0.078505 0.079948
0.172417 0.172665 0.172498
0.035826 0.036643 0.038125
0.079160 0.079758 0.079958
0.105335 0.104857 0.107906
0.123884 0.117449 0.113617
0.104253 0.104267 0.105287
0.106747 0.111669 0.111641
0.217327 0.216408 0.214522
0.081079 0.084306 0.084283
0.188810 0.189717 0.190159
0.084242 0.084511 0.084724
0.084865 0.084987 0.086226
0.088002 0.087346 0.086926
0.189343 0.189419 0.192664
0.096335 0.096423 0.095486
0.117766 0.115522 0.115806
0.105028 0.105350 0.104850
0.082045 0.082361 0.082574
0.103360 0.103008 0.102959
0.094238 0.094459 0.094458
0.160875 0.160006 0.159541
0.072290 0.072474 0.072433
0.195589 0.198998 0.199038
0.068970 0.064217 0.063163
0.163391 0.163001 0.155470
0.048140 0.048183 0.048176
0.232587 0.232476 0.232330
0.206556 0.206472 0.205838
0.176930 0.176989 0.176936
0.124617 0.125208 0.124634
0.082989 0.081332 0.081294
0.083175 0.083286 0.083674
0.074368 0.074591 0.074807
0.233919 0.233175 0.232545
0.081958 0.081782 0.081777
0.044276 0.044451 0.044690
0.064042 0.063881 0.063665
0.147882 0.148262 0.148596
0.058112 0.058218 0.058339
0.178329 0.176557 0.176481
0.092115 0.095570 0.095599
0.187973 0.186441 0.186454
0.063412 0.063387 0.063652
0.154519 0.154834 0.154612
0.103273 0.103212 0.103136
0.114273 0.103202 0.101337
0.171227 0.170594 0.169071
0.118593 0.118792 0.118796
0.102566 0.102410 0.102606
0.132423 0.130746 0.130290
0.073462 0.072957 0.072492
0.205845 0.204431 0.204480
0.070375 0.070523 0.070523
0.095543 0.091691 0.079459
0.215263 0.213239 0.212332
0.173073 0.173458 0.173867
0.054390 0.054309 0.054371
0.055841 0.056183 0.056851
0.121672 0.120184 0.113898
0.133035 0.132872 0.132786
0.125752 0.125867 0.126089
0.167053 0.120018 0.110522
0.092145 0.092278 0.092343
0.109771 0.109809 0.109738
0.191256 0.191353 0.191328
0.175074 0.175153 0.175118
0.123762 0.126958 0.126418
0.067472 0.074437 0.080076
0.088078 0.088042 0.087794
0.126407 0.130108 0.132144
0.073013 0.073723 0.074359
0.144309 0.142662 0.120068
0.082988 0.083236 0.083157
0.116123 0.116485 0.118872
0.206799 0.205330 0.205395
0.081017 0.083401 0.083121
0.072063 0.071844 0.071659
0.218897 0.217511 0.217472
0.084517 0.084755 0.085171
0.116057 0.116509 0.116658
0.087182 0.086577 0.086845
0.101302 0.101066 0.101377
0.171152 0.171926 0.172260
0.071140 0.078105 0.083088
0.091107 0.092109 0.094166
0.096847 0.096644 0.096803
0.041402 0.040920 0.040696
0.076980 0.076938 0.076769
0.052820 0.052697 0.052590
0.141356 0.142030 0.144247
0.053802 0.053264 0.053167
0.146730 0.145965 0.145408
0.224643 0.224318 0.223433
0.170473 0.172185 0.172696
0.216821 0.216367 0.214577
0.075921 0.075768 0.075559
0.178516 0.178745 0.179543
0.219704 0.220042 0.219664
0.135487 0.135470 0.139596
0.131854 0.128366 0.125193
0.187577 0.189901 0.190712
0.178240 0.179227 0.178888
0.110552 0.109523 0.109280
0.072714 0.072499 0.072644
0.234930 0.234761 0.235554
0.168867 0.169140 0.169103
0.212887 0.213088 0.207463
0.094932 0.094783 0.094295
0.205300 0.204608 0.204177
0.074767 0.073377 0.073432
0.064567 0.065846 0.067005
0.168738 0.168117 0.167973
0.168554 0.169742 0.170501
0.066969 0.068071 0.070222
0.105368 0.105202 0.105690
0.153767 0.153627 0.134199
0.096026 0.096682 0.096717
0.068677 0.069099 0.069273
0.124501 0.124106 0.122960
0.199213 0.197428 0.198031
0.062241 0.062255 0.062355
0.058851 0.058491 0.057875
0.080835 0.076887 0.074137
0.085047 0.085092 0.084961
0.118727 0.119546 0.120433
0.216609 0.218354 0.218944
0.117292 0.117531 0.117475
0.068539 0.068434 0.068363
0.216954 0.216919 0.216913
0.145067 0.145180 0.145307
0.084489 0.083847 0.084098
0.141936 0.141148 0.140530
0.072542 0.072990 0.073350
0.061904 0.061837 0.061941
0.168419 0.171775 0.172093
0.121563 0.119326 0.118244
0.074466 0.074473 0.074597
0.214130 0.214287 0.214429
0.047397 0.047266 0.047716
0.087757 0.088423 0.088310
0.095591 0.095460 0.095768
0.122690 0.122824 0.123092
0.151515 0.150195 0.148264
0.119218 0.119861 0.122883
0.164297 0.164366 0.168296
0.092356 0.092450 0.089573
0.128682 0.126778 0.123974
0.084952 0.084844 0.084824
0.131032 0.130981 0.131959
0.178169 0.177962 0.177811
0.054085 0.054045 0.054077
0.210746 0.209315 0.209178
0.074564 0.073730 0.073378
0.206337 0.207626 0.208202
0.138307 0.138122 0.137937
0.173642 0.174325 0.174780
0.064047 0.064045 0.064068
0.168638 0.168852 0.168975
0.176854 0.177014 0.177229
0.077915 0.076460 0.076925
0.060727 0.061528 0.062108
0.143017 0.143386 0.143700
0.083772 0.084138 0.085639
0.218664 0.217405 0.216777
0.224104 0.224464 0.223610
0.053909 0.053825 0.053607
0.168109 0.172100 0.172050
0.066917 0.066771 0.066777
0.079140 0.079058 0.079124
0.106339 0.106466 0.106850
0.170273 0.170847 0.171259
0.101772 0.102260 0.103510
0.057402 0.057439 0.057610
0.149618 0.149629 0.149613
0.121103 0.120078 0.119931
0.158768 0.158371 0.157406
0.142443 0.139568 0.138520
0.112688 0.112412 0.113318
0.070710 0.070553 0.070249
0.105612 0.105489 0.105601
0.093394 0.093594 0.093899
0.171258 0.170899 0.170587
0.160039 0.160735 0.160767
0.056236 0.056272 0.056436
0.050673 0.051034 0.051564
0.146221 0.145946 0.146267
0.117658 0.116562 0.116409
0.070181 0.070241 0.070573
0.185207 0.185169 0.183777
0.076106 0.076054 0.075935
0.111704 0.110160 0.107351
0.117307 0.117309 0.117818
0.049612 0.048225 0.046633
0.087845 0.087386 0.087538
0.092790 0.092702 0.092474
0.076769 0.076853 0.077217
0.122060 0.123171 0.123041
0.052343 0.051917 0.050101
0.084032 0.084014 0.083856
0.089904 0.090383 0.090503
0.176543 0.176539 0.176218
0.084701 0.084334 0.083138
0.125866 0.125862 0.125556
0.083308 0.083352 0.077740
0.088752 0.090389 0.090484
0.070852 0.072054 0.072397
0.074311 0.074328 0.074382
0.095073 0.095825 0.097159
0.098336 0.098566 0.098628
0.128135 0.127961 0.126941
0.104537 0.104362 0.101366
0.094089 0.093495 0.093423
0.077025 0.077185 0.076693
0.160187 0.160699 0.160523
0.123430 0.134652 0.134957
0.113327 0.113624 0.116040
0.176703 0.176069 0.176157
0.048256 0.048399 0.048668
0.103874 0.103988 0.103651
0.073693 0.073851 0.073730
0.074646 0.074531 0.074944
0.074393 0.074238 0.074500
0.170341 0.171842 0.174758
0.076111 0.075999 0.076499
0.155973 0.155477 0.155258
0.049883 0.048830 0.048685
0.191144 0.190508 0.189374
0.139359 0.140645 0.140974
0.209246 0.209587 0.208807
0.094515 0.094136 0.093948
0.119520 0.118906 0.118866
0.093348 0.093697 0.095285
0.084842 0.084778 0.084905
0.151651 0.151734 0.151225
0.179764 0.179968 0.179264
0.098978 0.098668 0.098108
0.212557 0.212442 0.212655
0.150648 0.150666 0.150482
0.062075 0.061744 0.061916
0.093650 0.095014 0.095018
0.097564 0.097726 0.097922
0.193875 0.192722 0.190327
0.151474 0.151238 0.151233
0.068506 0.070331 0.073940
0.084193 0.084216 0.084280
0.089770 0.089675 0.089617
0.098200 0.098552 0.098739
0.065846 0.067005 0.071335
0.082525 0.089653 0.089247
0.126700 0.127935 0.132699
0.178094 0.216438 0.222503
0.144108 0.144455 0.143923
0.072803 0.074262 0.080389
0.050611 0.050320 0.050339
0.123600 0.123539 0.123231
0.092622 0.092801 0.093587
0.149147 0.148731 0.149329
0.133522 0.132615 0.129520
0.124576 0.126261 0.128251
0.028945 0.029100 0.029369
0.079093 0.078969 0.078885
0.136354 0.133188 0.133834
0.092896 0.092982 0.093077
0.106093 0.105422 0.105101
0.199764 0.198524 0.197662
0.065030 0.065437 0.065134
0.130930 0.131602 0.131582
0.111641 0.111861 0.111695
0.049270 0.049192 0.049401
0.110186 0.111452 0.111634
0.092399 0.092922 0.092938
0.122745 0.121956 0.122730
0.047445 0.047388 0.047042
0.222227 0.221428 0.221825
0.048774 0.048854 0.048859
0.093413 0.093477 0.093350
0.223368 0.223107 0.222817
0.200124 0.199810 0.197996
0.082182 0.081958 0.081782
0.060330 0.060362 0.061077
0.177863 0.178638 0.178697
0.203061 0.204212 0.201859
0.085715 0.086045 0.086307
0.083079 0.082951 0.082819
0.121663 0.120914 0.121006
0.118142 0.117997 0.118549
0.068232 0.068291 0.068258
0.187729 0.188821 0.188859
0.171628 0.171631 0.172008
0.084270 0.084993 0.084901
0.139697 0.139727 0.139743
0.145025 0.144412 0.143483
0.117659 0.117722 0.117247
0.176169 0.176162 0.177218
0.056270 0.056879 0.057218
0.089150 0.090383 0.090674
0.061763 0.061537 0.061431
0.071035 0.072984 0.073284
0.124414 0.123472 0.121906
0.107554 0.098960 0.095725
0.077385 0.075530 0.068379
0.120111 0.120041 0.121015
0.089066 0.089935 0.090355
0.090738 0.090721 0.091297
0.106060 0.105983 0.105896
0.053738 0.053587 0.053042
0.092498 0.092755 0.093533
0.075357 0.075173 0.075278
0.139104 0.139593 0.139261
0.132982 0.132397 0.132102
0.058264 0.058373 0.058609
0.126003 0.125962 0.125945
0.099671 0.097869 0.089630
0.049694 0.049779 0.048617
0.054954 0.055520 0.055491
0.115606 0.115203 0.114778
0.108002 0.107720 0.108119
0.165658 0.165885 0.166063
0.163816 0.163305 0.161570
0.088028 0.087994 0.087796
0.052092 0.052144 0.052153
0.123314 0.143572 0.144367
0.078513 0.078327 0.078185
0.144174 0.142109 0.134708
0.077196 0.077485 0.077871
0.183290 0.185349 0.185811
0.103461 0.103147 0.103017
0.115427 0.115668 0.116860
0.045843 0.046379 0.046570
0.078461 0.078713 0.078776
0.136746 0.138000 0.139149
0.103144 0.103250 0.103512
0.209640 0.210906 0.211382
0.105648 0.107210 0.107383
0.040409 0.042605 0.046643
0.110484 0.110558 0.109008
0.232083 0.236179 0.236797
0.053679 0.053647 0.054072
0.076632 0.080433 0.081836
0.150612 0.152874 0.154296
0.112827 0.110562 0.111248
0.152139 0.154196 0.155229
0.104084 0.105315 0.105223
0.208329 0.207396 0.205182
0.048773 0.044435 0.042710
0.081917 0.079823 0.074794
0.156687 0.159743 0.158887
0.043990 0.043689 0.043498
0.091361 0.091523 0.091680
0.129925 0.128755 0.127693
0.077813 0.078837 0.085129
0.154485 0.155404 0.156483
0.081759 0.081807 0.082356
0.170300 0.170196 0.169941
0.258802 0.261103 0.261215
0.105673 0.105656 0.105675
0.077539 0.076472 0.075570
0.085077 0.085078 0.084723
0.101185 0.101246 0.102191
0.071477 0.071376 0.071383
0.139054 0.131355 0.130714
0.162304 0.170625 0.171399
0.107569 0.107788 0.107704
0.216376 0.218714 0.220289
0.057557 0.055936 0.055916
0.210463 0.215295 0.216063
0.082662 0.082825 0.082747
0.050747 0.050839 0.051053
0.063001 0.062339 0.060697
0.122585 0.123356 0.123213
0.100300 0.100442 0.101992
0.129364 0.129835 0.129523
0.136686 0.136618 0.136624
0.211810 0.211012 0.210327
0.083491 0.086408 0.088145
0.163831 0.164025 0.164196
0.169073 0.169115 0.169681
0.234160 0.235424 0.233789
0.092637 0.092466 0.091018
0.155227 0.154374 0.145431
0.102639 0.102341 0.102354
0.065641 0.067692 0.069299
0.072741 0.073016 0.073197
0.089384 0.088430 0.087595
0.204266 0.203780 0.203401
0.106351 0.106110 0.105112
0.114709 0.115640 0.116203
0.086064 0.086639 0.087882
0.151155 0.152317 0.153944
0.173757 0.171002 0.171091
0.044415 0.044640 0.044725
0.083226 0.083157 0.083067
0.066675 0.066951 0.068261
0.142276 0.143453 0.144210
0.095484 0.096617 0.096583
0.083933 0.083911 0.083901
0.109307 0.109573 0.109670
0.047645 0.047680 0.047739
0.068012 0.068630 0.075664
0.077534 0.078314 0.078873
0.105198 0.105569 0.105472
0.089997 0.089765 0.089588
0.071243 0.070348 0.069257
0.135713 0.138380 0.139478
0.109972 0.110104 0.110203
0.224144 0.224069 0.223618
0.205974 0.208619 0.208754
0.092632 0.092728 0.092812
0.092290 0.091930 0.091730
0.094130 0.092599 0.091047
0.142605 0.143403 0.146483
0.171790 0.160364 0.152545
0.083560 0.083618 0.083717
0.058224 0.058308 0.058341
0.139306 0.136166 0.127524
0.169133 0.169197 0.168287
0.071979 0.072076 0.071331
0.162106 0.162239 0.162314
0.205580 0.207486 0.209754
0.097518 0.098096 0.098624
0.067852 0.067697 0.067608
0.101596 0.101892 0.106389
0.126917 0.126859 0.127073
0.225706 0.224565 0.224336
0.117422 0.117754 0.117696
0.052723 0.051058 0.050968
0.110329 0.110369 0.110400
0.055419 0.055418 0.055637
0.072711 0.072703 0.072486
0.091487 0.091445 0.091064
0.164363 0.164214 0.164261
0.120066 0.120037 0.120016
0.194354 0.193986 0.191037
0.110775 0.113081 0.114087
0.180186 0.179786 0.179837
0.047841 0.047824 0.047874
0.160896 0.160023 0.159015
0.063731 0.063935 0.064165
0.087086 0.086846 0.086687
0.159146 0.160127 0.160074
0.117756 0.117568 0.116592
0.203107 0.202803 0.202712
0.075234 0.078328 0.080874
0.110100 0.110033 0.109799
0.093467 0.091718 0.091536
0.064079 0.063982 0.063946
0.050614 0.050340 0.050327
0.117320 0.116804 0.117943
0.164526 0.166387 0.170437
0.088516 0.088735 0.088911
0.192805 0.192130 0.191465
0.084637 0.084860 0.084290
0.132348 0.131096 0.131259
0.110049 0.109804 0.110051
0.107476 0.108038 0.108755
0.127855 0.127230 0.127675
0.050841 0.050869 0.051083
0.099320 0.099311 0.099377
0.090441 0.090815 0.091066
0.060135 0.060391 0.060985
0.129853 0.130470 0.134599
0.152801 0.152748 0.152717
0.187580 0.187727 0.187299
0.076416 0.078005 0.084674
0.073792 0.073913 0.074034
0.164390 0.160766 0.155991
0.178561 0.177585 0.177752
0.087942 0.089554 0.089253
0.115027 0.114874 0.115278
0.110159 0.111594 0.111082
0.077821 0.078442 0.078203
0.098188 0.098413 0.099048
0.100932 0.100227 0.099591
0.109151 0.109434 0.109555
0.170645 0.167668 0.114777
0.161571 0.162351 0.162565
0.137139 0.137795 0.141990
0.159167 0.159173 0.159458
0.142632 0.145179 0.146377
0.163196 0.163423 0.164400
0.051558 0.051912 0.051995
0.063285 0.063939 0.065213
0.150562 0.149720 0.149638
0.142678 0.144518 0.149245
0.083160 0.083562 0.083453
0.269910 0.268709 0.268312
0.085128 0.086086 0.092606
0.131451 0.131213 0.131502
0.105635 0.105642 0.105720
0.112964 0.112730 0.113680
0.131322 0.131389 0.131442
0.078062 0.078081 0.077931
0.048010 0.048023 0.048242
0.099558 0.099322 0.099311
0.110137 0.110039 0.109862
0.153913 0.153920 0.151667
0.118231 0.118549 0.118617
0.122748 0.122808 0.122448
0.074787 0.074799 0.075252
0.049194 0.049019 0.048729
0.149440 0.149462 0.149903
0.062328 0.062829 0.061441
0.081091 0.081061 0.081021
0.115817 0.116123 0.115965
0.072451 0.071713 0.071963
0.192590 0.192029 0.191404
0.184300 0.184276 0.184221
0.073490 0.073565 0.073651
0.089772 0.089670 0.089635
0.160381 0.160975 0.161444
0.060814 0.062603 0.064406
0.192663 0.193018 0.193340
0.049120 0.049053 0.048884
0.122829 0.124735 0.124920
0.093475 0.093351 0.093352
0.086295 0.086171 0.086135
0.089079 0.089738 0.090938
0.107548 0.107383 0.105196
0.135108 0.134660 0.134151
0.122663 0.121340 0.120781
0.116155 0.115845 0.115439
0.154520 0.154752 0.154454
0.086108 0.085989 0.084277
0.110527 0.110668 0.110984
0.057419 0.057527 0.057216
0.125926 0.127402 0.127644
0.159166 0.159401 0.159384
0.116606 0.116546 0.116520
0.098209 0.096086 0.094706
0.141531 0.143201 0.144707
0.111542 0.111988 0.112731
0.178428 0.177124 0.177111
0.052497 0.051681 0.051051
0.115499 0.116512 0.116654
0.096213 0.096335 0.096423
0.107325 0.107221 0.107196
0.163781 0.163775 0.163828
0.062988 0.063067 0.063140
0.075267 0.074508 0.072749
0.143603 0.143645 0.144037
0.130909 0.130955 0.130899
0.145383 0.145357 0.144583
0.087495 0.087677 0.087960
0.178478 0.181825 0.183153
0.124617 0.125068 0.124368
0.147924 0.148070 0.149148
0.171598 0.168745 0.168109
0.215000 0.214970 0.215024
0.105248 0.107877 0.117090
0.058559 0.059342 0.059309
0.090783 0.090727 0.090536
0.124002 0.122745 0.121956
0.055591 0.055484 0.054894
0.111346 0.111556 0.112323
0.115108 0.124473 0.125174
0.145477 0.144036 0.142443
0.265881 0.267905 0.260799
0.206179 0.206250 0.206418
0.063596 0.063745 0.063410
0.072268 0.072968 0.072554
0.159014 0.159476 0.159649
0.117437 0.116260 0.115891
0.164458 0.164300 0.164371
0.096541 0.096627 0.096356
0.227009 0.227260 0.228780
0.158179 0.157042 0.152065
0.122320 0.120219 0.119341
0.214864 0.213426 0.211370
0.081373 0.081523 0.083465
0.166261 0.169008 0.170364
0.074039 0.073610 0.073116
0.127556 0.128175 0.128635
0.083994 0.083730 0.083632
0.050968 0.052420 0.052584
0.082884 0.082863 0.082798
0.151574 0.162644 0.166567
0.159963 0.159751 0.159984
0.152574 0.154194 0.156250
0.087609 0.088925 0.091292
0.141733 0.142006 0.139241
0.063722 0.063923 0.064149
0.083957 0.083714 0.083799
0.080543 0.081648 0.082220
0.109218 0.108983 0.108670
0.209013 0.208972 0.208792
0.203078 0.203086 0.202663
0.163158 0.163422 0.164356
0.086297 0.086511 0.086705
0.115785 0.115066 0.114643
0.060536 0.060222 0.060100
0.134365 0.132683 0.132129
0.075081 0.074485 0.074746
0.180666 0.180742 0.179979
0.060310 0.060763 0.062694
0.052518 0.052759 0.053241
0.108771 0.106617 0.106284
0.159178 0.159668 0.159717
0.175287 0.173778 0.173779
0.072838 0.072883 0.073198
0.108629 0.108945 0.109265
0.081483 0.081532 0.081562
0.170872 0.174108 0.175216
0.098513 0.098241 0.097612
0.060579 0.060546 0.060722
0.072465 0.072748 0.073779
0.187607 0.187805 0.193659
0.101312 0.098114 0.096959
0.140182 0.139939 0.138752
0.187834 0.187751 0.187477
0.118502 0.118385 0.118286
0.121879 0.121083 0.120411
0.107090 0.107584 0.107577
0.147296 0.145643 0.145626
0.063442 0.063283 0.063355
0.068041 0.069874 0.075814
0.056056 0.055981 0.056090
0.105959 0.106044 0.105255
0.082914 0.083171 0.083261
0.072517 0.070123 0.070169
0.098147 0.098521 0.101014
0.234782 0.234897 0.235821
0.093681 0.092974 0.091618
0.082760 0.082753 0.082311
0.197453 0.186509 0.182959
0.215235 0.214114 0.219649
0.158362 0.159088 0.159525
0.051277 0.051192 0.050946
0.157042 0.152065 0.149554
0.078227 0.077582 0.077471
0.115602 0.107121 0.106619
0.049676 0.048939 0.048692
0.110724 0.086634 0.081359
0.085016 0.084964 0.083786
0.065247 0.065468 0.065266
0.083264 0.083006 0.081932
0.057218 0.056997 0.057906
0.126767 0.126528 0.127220
0.106357 0.107425 0.107969
0.160512 0.161296 0.161808
0.069740 0.073013 0.076709
0.091886 0.091621 0.091371
0.083480 0.083439 0.083333
0.071598 0.071615 0.076769
0.075664 0.075691 0.076151
0.054221 0.053978 0.054669
0.123092 0.123727 0.124410
0.050432 0.050335 0.050340
0.116409 0.116172 0.116086
0.057473 0.057696 0.057867
0.064961 0.064835 0.064738
0.081596 0.082349 0.082288
0.089529 0.078035 0.076115
0.069445 0.069210 0.069135
0.132935 0.132689 0.132580
