0.040717 0.040792 0.040538
0.055304 0.054783 0.054152
0.046875 0.047266 0.047344
0.044261 0.044249 0.043440
0.048467 0.048899 0.048767
0.043170 0.043271 0.043357
0.038337 0.038605 0.039037
0.038108 0.038436 0.038541
0.038489 0.038280 0.038230
0.042674 0.042837 0.042705
0.058289 0.057712 0.057695
0.047028 0.046473 0.045954
0.037968 0.037874 0.037933
0.039398 0.038871 0.038707
0.041830 0.042713 0.043770
0.053651 0.053662 0.054276
0.055643 0.054622 0.054417
0.038882 0.038940 0.038835
0.055554 0.056313 0.056677
0.038198 0.038188 0.037940
0.040272 0.039913 0.039829
0.055484 0.055642 0.055907
0.044616 0.044374 0.044424
0.039044 0.038894 0.039005
0.046946 0.046888 0.046914
0.038377 0.038402 0.038262
0.049020 0.049009 0.048952
0.037548 0.037565 0.037507
0.065345 0.065487 0.065885
0.038217 0.037991 0.037138
0.040603 0.040889 0.040924
0.038318 0.038193 0.038120
0.049632 0.049905 0.049965
0.044474 0.044511 0.044870
0.040150 0.040152 0.040514
0.039859 0.040382 0.040502
0.043883 0.043719 0.043838
0.049141 0.049482 0.049648
0.040580 0.040837 0.040846
0.047392 0.047479 0.047672
0.055199 0.055251 0.055498
0.047579 0.047096 0.047032
0.047233 0.046692 0.046566
0.068112 0.066639 0.066419
0.052737 0.052962 0.052956
0.054555 0.054577 0.054158
0.048594 0.048552 0.048794
0.049616 0.049282 0.049223
0.044228 0.044175 0.044210
0.039740 0.039843 0.039929
0.052952 0.052792 0.052758
0.041426 0.041733 0.041965
0.056107 0.056136 0.056384
0.036414 0.036523 0.037077
0.049634 0.049666 0.049273
0.063753 0.061550 0.061909
0.043100 0.043469 0.043797
0.054634 0.054546 0.054570
0.047242 0.047071 0.047005
0.042806 0.042669 0.042482
0.046785 0.046549 0.046361
0.046114 0.046252 0.046024
0.042305 0.042634 0.042469
0.040676 0.040873 0.040996
0.037678 0.038069 0.038241
0.057762 0.057822 0.057836
0.054145 0.054185 0.054431
0.053379 0.053080 0.052634
0.043663 0.043768 0.043988
0.045498 0.045462 0.045235
0.040287 0.040216 0.040295
0.044233 0.044300 0.044236
0.035469 0.035456 0.035359
0.043628 0.044142 0.044284
0.061120 0.060991 0.061177
0.041602 0.041237 0.041121
0.093394 0.093398 0.093721
0.043603 0.043602 0.043808
0.037295 0.037414 0.038214
0.044376 0.044714 0.044671
0.039162 0.039233 0.038708
0.040889 0.040924 0.040697
0.042591 0.042410 0.042646
0.039582 0.039387 0.039194
0.044560 0.044424 0.044502
0.044211 0.044007 0.044224
0.046372 0.046387 0.045956
0.039940 0.040068 0.039912
0.039648 0.039806 0.039807
0.041609 0.041688 0.041723
0.054768 0.053811 0.052913
0.056662 0.057068 0.056971
0.059499 0.059631 0.059802
0.050878 0.050718 0.048894
0.045168 0.046328 0.048552
0.044316 0.044241 0.043449
0.046977 0.046979 0.046935
0.049104 0.049237 0.049199
0.045851 0.045579 0.046129
0.039992 0.039652 0.039332
0.062117 0.062193 0.062192
0.041205 0.041120 0.040721
0.040232 0.040142 0.040083
0.039083 0.039113 0.039328
0.053877 0.054260 0.054391
0.035845 0.035800 0.036074
0.039972 0.040015 0.039958
0.051833 0.051612 0.051411
0.037972 0.038150 0.038246
0.051222 0.050664 0.050897
0.037306 0.037434 0.037899
0.055371 0.055493 0.055565
0.040334 0.040324 0.040407
0.041082 0.041002 0.041171
0.042815 0.043492 0.044401
0.038570 0.038826 0.038872
0.045304 0.045704 0.045638
0.037699 0.037999 0.037832
0.050894 0.050732 0.051069
0.039610 0.039843 0.040054
0.053112 0.053074 0.053209
0.046723 0.047315 0.047379
0.043757 0.043622 0.043841
0.067392 0.066629 0.066610
0.045306 0.045309 0.045514
0.048641 0.048901 0.048938
0.048805 0.049494 0.049988
0.037761 0.037458 0.037395
0.049447 0.048846 0.048765
0.038701 0.038472 0.038131
0.048568 0.048538 0.048867
0.041969 0.041904 0.042056
0.038552 0.038703 0.038876
0.044843 0.045148 0.045680
0.035844 0.035898 0.036319
0.052380 0.052510 0.052642
0.050062 0.050245 0.050528
0.039606 0.039695 0.039538
0.043760 0.044210 0.044158
0.037931 0.038521 0.038107
0.055471 0.055207 0.054800
0.049128 0.048963 0.049022
0.046374 0.047054 0.047038
0.043355 0.043096 0.042084
0.038121 0.038345 0.038454
0.065149 0.066091 0.069370
0.040944 0.040875 0.040614
0.042796 0.042227 0.042271
0.050243 0.050463 0.050518
0.039850 0.040024 0.040389
0.051701 0.051683 0.051662
0.052903 0.053001 0.053126
0.055481 0.055853 0.055701
0.037223 0.037195 0.037020
0.046028 0.045998 0.045727
0.036713 0.036642 0.037145
0.054852 0.055213 0.055286
0.040664 0.041033 0.040932
0.045547 0.045319 0.045289
0.049564 0.048962 0.050015
0.045593 0.045121 0.044854
0.046941 0.046620 0.046703
0.054510 0.054528 0.054770
0.046185 0.046116 0.045159
0.042128 0.042328 0.042181
0.045454 0.045292 0.045359
0.038792 0.039063 0.039590
0.039555 0.039598 0.039436
0.040398 0.040522 0.040738
0.058450 0.058518 0.058424
0.045173 0.045186 0.045185
0.043022 0.043491 0.044024
0.050276 0.050764 0.050881
0.045617 0.044786 0.044254
0.043461 0.043418 0.042441
0.041242 0.041095 0.041088
0.050716 0.049748 0.048824
0.047226 0.047446 0.047842
0.048820 0.048838 0.048672
0.037872 0.037716 0.037674
0.049212 0.049273 0.049630
0.054842 0.054909 0.055169
0.041756 0.042038 0.042118
0.047517 0.046859 0.046609
0.048398 0.048663 0.050547
0.038272 0.038347 0.038287
0.045712 0.045653 0.045552
0.051859 0.051800 0.052006
0.101477 0.101707 0.101673
0.058163 0.057069 0.057159
0.042063 0.043981 0.044487
0.054071 0.054267 0.054460
0.041986 0.042160 0.041308
0.051853 0.051474 0.050662
0.044459 0.044813 0.044640
0.038579 0.038540 0.038603
0.043782 0.043687 0.043675
0.058629 0.058652 0.058625
0.038594 0.038646 0.038564
0.043415 0.043321 0.043262
0.036506 0.037030 0.037119
0.040692 0.040584 0.040840
0.043336 0.043406 0.043360
0.055190 0.054615 0.054505
0.041454 0.041570 0.041570
0.041752 0.042081 0.042068
0.041104 0.041403 0.041307
0.040311 0.040119 0.039743
0.056931 0.056743 0.056755
0.053593 0.054103 0.054635
0.048676 0.048457 0.047921
0.044111 0.044058 0.043986
0.037838 0.037570 0.037633
0.038808 0.038610 0.039059
0.048003 0.048198 0.047874
0.046960 0.047279 0.047565
0.046120 0.046300 0.045441
0.038746 0.039178 0.039222
0.042246 0.042558 0.042563
0.042812 0.042530 0.042623
0.050284 0.050295 0.050603
0.047614 0.047395 0.047405
0.043331 0.043417 0.042273
0.045300 0.045394 0.045300
0.043899 0.043669 0.043482
0.035263 0.035359 0.035343
0.046284 0.045965 0.045860
0.052345 0.052372 0.052166
0.049750 0.049831 0.050519
0.046781 0.046587 0.046476
0.051114 0.051288 0.051691
0.039640 0.039378 0.039604
0.043360 0.043797 0.043594
0.048215 0.047980 0.047934
0.069553 0.069442 0.069888
0.038599 0.038002 0.037751
0.036600 0.036853 0.036962
0.050313 0.050365 0.050190
0.037899 0.037972 0.038078
0.051568 0.051093 0.048926
0.042940 0.042963 0.043101
0.041700 0.041572 0.041617
0.041549 0.041618 0.041997
0.035602 0.035709 0.035690
0.047427 0.047467 0.046590
0.048220 0.047555 0.047739
0.043427 0.043738 0.043989
0.039308 0.039457 0.039303
0.050147 0.050200 0.049834
0.056356 0.056866 0.057078
0.041523 0.041495 0.041570
0.044748 0.044451 0.044388
0.036723 0.036615 0.036591
0.040818 0.039764 0.039805
0.049078 0.050106 0.050143
0.051739 0.051779 0.051850
0.051881 0.051535 0.050735
0.056618 0.057024 0.057166
0.036344 0.036793 0.037695
0.049072 0.049974 0.049142
0.042628 0.042489 0.042508
0.045698 0.048363 0.048804
0.038262 0.038071 0.037987
0.040264 0.040148 0.040007
0.043302 0.043400 0.043173
0.041752 0.041824 0.041734
0.044332 0.044479 0.044323
0.036986 0.037170 0.037181
0.041310 0.041229 0.041258
0.046635 0.046251 0.046213
0.041087 0.041038 0.041148
0.039302 0.039534 0.039455
0.048089 0.048063 0.047951
0.056781 0.055545 0.054907
0.038954 0.038921 0.038640
0.040796 0.040746 0.040699
0.055393 0.055339 0.055096
0.039716 0.039914 0.039957
0.049863 0.049902 0.049862
0.035781 0.035899 0.036033
0.038401 0.038527 0.038493
0.064056 0.063874 0.063847
0.040633 0.040463 0.040710
0.061633 0.061593 0.062122
0.045705 0.046044 0.045653
0.056551 0.054967 0.054915
0.038174 0.038932 0.038729
0.037455 0.037366 0.036613
0.052792 0.052953 0.052697
0.047389 0.047296 0.047218
0.044911 0.045082 0.045002
0.045929 0.046376 0.046839
0.051804 0.050986 0.049819
0.047136 0.047306 0.046825
0.038219 0.037945 0.038348
0.037102 0.037542 0.037653
0.045347 0.045680 0.045586
0.044699 0.044834 0.044793
0.055558 0.055859 0.055872
0.049211 0.049584 0.049645
0.053058 0.053219 0.053463
0.035652 0.035574 0.036397
0.044590 0.044240 0.044188
0.051295 0.051393 0.051362
0.036612 0.036516 0.036506
0.046887 0.046984 0.048021
0.037325 0.037474 0.037635
0.037048 0.036880 0.037001
0.050791 0.051182 0.051323
0.061580 0.062122 0.062118
0.049149 0.049197 0.049527
0.038300 0.038121 0.038345
0.047640 0.047633 0.047676
0.037401 0.037237 0.037127
0.047920 0.048003 0.048198
0.039822 0.039756 0.040673
0.044922 0.044636 0.044835
0.087006 0.089408 0.090714
0.049719 0.049270 0.049129
0.054026 0.053912 0.053999
0.047046 0.046964 0.047084
0.057883 0.057710 0.055796
0.040687 0.040219 0.039962
0.037408 0.037390 0.037558
0.051379 0.051611 0.051898
0.042407 0.042294 0.042391
0.048608 0.048495 0.048424
0.044583 0.044602 0.044612
0.044334 0.044397 0.044322
0.036519 0.036679 0.037378
0.044068 0.044060 0.043992
0.037865 0.037491 0.037056
0.040372 0.040493 0.040434
0.045517 0.045429 0.045052
0.055836 0.055711 0.055662
0.043432 0.041211 0.040231
0.037629 0.037506 0.037663
0.048307 0.048512 0.048462
0.039002 0.038672 0.038405
0.042266 0.042258 0.042323
0.048926 0.049069 0.048509
0.047633 0.047676 0.047813
0.103271 0.103297 0.103018
0.041013 0.041788 0.042028
0.101648 0.101976 0.102355
0.045526 0.045574 0.045725
0.039461 0.039152 0.039119
0.042503 0.042977 0.042833
0.045516 0.045938 0.045867
0.055207 0.054076 0.053726
0.039992 0.039749 0.039529
0.040616 0.040372 0.039861
0.044084 0.043929 0.044177
0.049150 0.049712 0.049416
0.039281 0.039072 0.038828
0.038077 0.038090 0.037942
0.040443 0.040276 0.040364
0.049759 0.049861 0.050119
0.038590 0.038703 0.038666
0.040219 0.040253 0.040388
0.047613 0.047630 0.047714
0.046560 0.046435 0.046105
0.052039 0.051779 0.051719
0.054426 0.053945 0.053551
0.039939 0.041001 0.041002
0.037874 0.037867 0.037944
0.047119 0.046962 0.047270
0.101678 0.101650 0.101679
0.048246 0.050310 0.052204
0.049543 0.049761 0.050089
0.064905 0.064948 0.065232
0.043246 0.042982 0.043617
0.052246 0.052082 0.051580
0.040730 0.040359 0.039792
0.045504 0.045194 0.045151
0.039499 0.039227 0.039110
0.044353 0.043353 0.043008
0.046029 0.045567 0.045530
0.039705 0.039602 0.039848
0.042429 0.041811 0.042349
0.058817 0.058827 0.058706
0.040163 0.039646 0.039730
0.038304 0.038187 0.038062
0.043162 0.043345 0.043032
0.036719 0.036634 0.036511
0.039698 0.039254 0.039480
0.039621 0.039571 0.039592
0.038825 0.038618 0.038350
0.042812 0.043072 0.043598
0.050617 0.050410 0.050559
0.047003 0.046736 0.047317
0.048916 0.048926 0.048683
0.039441 0.039166 0.039140
0.047679 0.047752 0.047791
0.049713 0.049729 0.049722
0.040928 0.040574 0.040210
0.041066 0.041189 0.041310
0.038844 0.038357 0.038368
0.051182 0.051416 0.051669
0.036462 0.036716 0.036516
0.051254 0.051305 0.051182
0.045105 0.044983 0.045252
0.052919 0.052601 0.051326
0.065264 0.066321 0.066701
0.037312 0.037311 0.037343
0.042168 0.042081 0.041709
0.045931 0.046174 0.046434
0.046044 0.045653 0.045828
0.056688 0.056692 0.056509
0.047362 0.047274 0.047074
0.037623 0.037820 0.037766
0.056094 0.056094 0.056214
0.037298 0.037938 0.037968
0.039249 0.039190 0.038981
0.039966 0.040588 0.040678
0.043129 0.043039 0.042938
0.043807 0.043666 0.043611
0.052064 0.051357 0.050311
0.053088 0.052673 0.051549
0.050670 0.050488 0.050427
0.070557 0.070413 0.070122
0.037434 0.037146 0.037155
0.043895 0.043197 0.042578
0.045610 0.045822 0.045533
0.036785 0.036730 0.036645
0.042198 0.042352 0.042483
0.051724 0.052697 0.052716
0.042425 0.042626 0.042468
0.042803 0.042302 0.042303
0.046360 0.046381 0.046516
0.040745 0.040472 0.040090
0.035665 0.035532 0.035485
0.040542 0.041110 0.041181
0.037515 0.037638 0.037824
0.052445 0.052119 0.052246
0.049045 0.049102 0.048786
0.070366 0.070435 0.070368
0.045381 0.045468 0.045302
0.038192 0.038554 0.040111
0.037440 0.037468 0.038164
0.041347 0.041111 0.041224
0.048866 0.048568 0.048280
0.053098 0.053362 0.053667
0.038691 0.038973 0.038956
0.043584 0.043184 0.042958
0.041941 0.044254 0.044711
0.039733 0.039617 0.039712
0.045028 0.046639 0.047012
0.054846 0.055259 0.054717
0.045218 0.045001 0.044822
0.048142 0.048644 0.048454
0.054142 0.054122 0.054658
0.070961 0.070952 0.070898
0.048783 0.048787 0.048613
0.038349 0.038365 0.038522
0.055002 0.055080 0.055365
0.036177 0.036044 0.036500
0.041946 0.041893 0.042116
0.046051 0.046682 0.046083
0.053874 0.053942 0.053621
0.042540 0.042475 0.042563
0.047625 0.047643 0.048134
0.040130 0.040134 0.040184
0.040380 0.039993 0.039895
0.047986 0.047967 0.048496
0.038642 0.038439 0.038480
0.039727 0.039504 0.039357
0.057088 0.057046 0.056944
0.037325 0.037188 0.036890
0.055974 0.054809 0.053314
0.054304 0.054322 0.054361
0.053559 0.054045 0.054192
0.051938 0.051663 0.051389
0.038049 0.037946 0.037773
0.055651 0.055792 0.055651
0.044003 0.044685 0.044064
0.055152 0.055130 0.054986
0.046938 0.046474 0.046492
0.056781 0.057028 0.057364
0.040673 0.040415 0.039935
0.058314 0.058025 0.058029
0.049061 0.049689 0.049837
0.048199 0.048305 0.048442
0.039931 0.039810 0.039922
0.038382 0.038876 0.039939
0.059905 0.059682 0.060024
0.045844 0.045745 0.044787
0.038447 0.038625 0.038978
0.043630 0.043668 0.044004
0.037065 0.036131 0.036163
0.040827 0.040859 0.041166
0.038313 0.038393 0.038743
0.039388 0.039434 0.039647
0.055215 0.055327 0.055522
0.051509 0.051334 0.051542
0.047060 0.047418 0.047432
0.033429 0.033480 0.033384
0.056481 0.056474 0.056580
0.044638 0.044601 0.044929
0.037163 0.037325 0.037188
0.039977 0.039904 0.039884
0.038593 0.038463 0.038702
0.045255 0.045216 0.045198
0.043506 0.043860 0.043845
0.035009 0.034971 0.035057
0.046929 0.047125 0.047322
0.047006 0.046754 0.046817
0.049644 0.049052 0.048834
0.040497 0.040453 0.040389
0.038997 0.039137 0.039149
0.055662 0.055594 0.055539
0.050971 0.051540 0.051610
0.053076 0.053203 0.053122
0.037194 0.037169 0.037080
0.043928 0.043980 0.044084
0.045983 0.045921 0.045847
0.053907 0.053882 0.053244
0.104490 0.104312 0.104142
0.043938 0.044423 0.044143
0.057734 0.057807 0.057803
0.048497 0.048602 0.048535
0.048543 0.048135 0.048005
0.038243 0.038411 0.038531
0.035058 0.035228 0.035309
0.041034 0.041052 0.041126
0.048139 0.047779 0.047496
0.044159 0.042644 0.042122
0.054916 0.055382 0.055631
0.043586 0.043584 0.043393
0.042351 0.042045 0.042174
0.035622 0.035198 0.034949
0.067918 0.068167 0.068193
0.050754 0.051059 0.051391
0.045851 0.047319 0.047804
0.049115 0.049214 0.049980
0.055116 0.054667 0.054125
0.045479 0.045316 0.045094
0.048881 0.048490 0.048205
0.040456 0.040178 0.040042
0.044615 0.044629 0.044546
0.039485 0.039108 0.038507
0.039854 0.039922 0.040103
0.049270 0.049223 0.048624
0.054607 0.054322 0.054364
0.041066 0.041126 0.041111
0.039778 0.039803 0.040502
0.051678 0.051663 0.051477
0.043052 0.042885 0.042835
0.038520 0.038758 0.039009
0.056937 0.056919 0.057120
0.046696 0.047105 0.047180
0.042056 0.041926 0.041573
0.037223 0.037175 0.038067
0.043078 0.042445 0.042537
0.040991 0.041074 0.041188
0.043641 0.043929 0.044096
0.047945 0.048022 0.047932
0.054146 0.054064 0.053890
0.046950 0.046800 0.047014
0.055813 0.055248 0.054556
0.042030 0.042185 0.042301
0.057351 0.057411 0.057354
0.037269 0.037150 0.036844
0.046492 0.046444 0.045874
0.036861 0.036897 0.036865
0.041502 0.041505 0.041576
0.052057 0.052242 0.052265
0.047160 0.047155 0.047160
0.043917 0.043823 0.043639
0.051399 0.051608 0.051698
0.041265 0.041291 0.040177
0.051755 0.051531 0.051674
0.042346 0.043255 0.044056
0.044443 0.044294 0.044597
0.040925 0.040939 0.040962
0.042673 0.042613 0.042508
0.041812 0.041699 0.041555
0.073830 0.073901 0.074387
0.050160 0.050062 0.050255
0.044546 0.044513 0.044106
0.040280 0.040136 0.040230
0.054751 0.056087 0.056773
0.042508 0.042583 0.042771
0.056716 0.056604 0.056604
0.044029 0.044478 0.044549
0.040096 0.040072 0.040292
0.059746 0.059393 0.059472
0.041399 0.041435 0.041583
0.048031 0.046822 0.048039
0.070243 0.068654 0.067194
0.052433 0.052623 0.052136
0.048451 0.048376 0.047943
0.039315 0.039446 0.039422
0.055067 0.055044 0.055287
0.041250 0.041068 0.042456
0.045133 0.044958 0.044631
0.040649 0.040749 0.041015
0.048735 0.049073 0.050151
0.041206 0.041232 0.041235
0.042058 0.042250 0.042342
0.035367 0.035603 0.035134
0.040026 0.039970 0.039972
0.038144 0.038101 0.038170
0.040828 0.040690 0.040547
0.047638 0.047727 0.047799
0.046855 0.046862 0.046978
0.047630 0.047684 0.047711
0.041632 0.041638 0.041251
0.040415 0.040547 0.040773
0.051645 0.051714 0.051237
0.053720 0.053802 0.053689
0.040158 0.040601 0.040987
0.049506 0.049672 0.049800
0.042899 0.042045 0.040944
0.050581 0.050155 0.050163
0.045510 0.045628 0.045566
0.053222 0.053373 0.053500
0.047267 0.047020 0.046974
0.040674 0.040645 0.040622
0.038264 0.038068 0.038029
0.040887 0.040930 0.040748
0.049936 0.049828 0.049108
0.050471 0.050614 0.050561
0.036216 0.036586 0.036689
0.047279 0.047904 0.047945
0.056038 0.055965 0.056603
0.044080 0.043928 0.044004
0.045834 0.045887 0.046116
0.042428 0.042429 0.042491
0.041122 0.040975 0.041128
0.038325 0.038229 0.038645
0.037141 0.037056 0.036820
0.054171 0.054531 0.054613
0.037789 0.038157 0.038028
0.041135 0.040751 0.040892
0.036922 0.037040 0.037169
0.040837 0.039835 0.039775
0.036728 0.036726 0.036303
0.036481 0.036490 0.036909
0.045737 0.045777 0.045837
0.043796 0.043849 0.043860
0.037385 0.037347 0.037417
0.040878 0.040695 0.040426
0.042493 0.042519 0.042925
0.058724 0.058668 0.058522
0.047959 0.047987 0.047997
0.045405 0.045298 0.044535
0.059960 0.059900 0.060082
0.045210 0.045228 0.045155
0.049676 0.046876 0.042790
0.052894 0.053329 0.052883
0.055047 0.056430 0.056739
0.050866 0.050432 0.050308
0.057030 0.057319 0.057327
0.054562 0.054473 0.054069
0.040099 0.040507 0.040385
0.041021 0.040945 0.040619
0.044033 0.044631 0.046114
0.063602 0.063117 0.062975
0.051350 0.051270 0.051324
0.039041 0.038902 0.038674
0.043842 0.043281 0.043289
0.042801 0.042956 0.042960
0.055713 0.055402 0.055719
0.055538 0.055535 0.055044
0.042798 0.042791 0.042645
0.038523 0.038443 0.038715
0.038820 0.039034 0.038606
0.049578 0.048810 0.047410
0.055175 0.055310 0.055510
0.039788 0.039592 0.039623
0.037959 0.038092 0.038116
0.044289 0.044183 0.043836
0.050828 0.050391 0.050437
0.039647 0.039620 0.040244
0.048541 0.046976 0.046831
0.049061 0.049133 0.047987
0.037202 0.037288 0.037163
0.038045 0.038197 0.038094
0.041013 0.041208 0.041124
0.040702 0.041060 0.042260
0.041554 0.041789 0.042136
0.038804 0.038015 0.037781
0.038777 0.039312 0.039250
0.040819 0.040632 0.041179
0.040259 0.040155 0.039825
0.041662 0.041694 0.041841
0.039975 0.039871 0.040265
0.053227 0.053307 0.053177
0.038816 0.039282 0.039344
0.056540 0.056785 0.056815
0.042160 0.042243 0.042556
0.053767 0.054062 0.054362
0.040749 0.040719 0.040655
0.038506 0.038113 0.038086
0.038600 0.038487 0.038096
0.047894 0.048119 0.048123
0.057010 0.056890 0.056976
0.067263 0.066648 0.066563
0.037202 0.036683 0.036553
0.038362 0.038172 0.038113
0.048300 0.048464 0.048340
0.037703 0.037795 0.037739
0.036443 0.036456 0.036077
0.056196 0.055564 0.055932
0.050314 0.049971 0.050073
0.055412 0.055396 0.055339
0.050243 0.049921 0.047302
0.047605 0.048922 0.048752
0.039119 0.039055 0.039237
0.045402 0.045391 0.045481
0.038516 0.038600 0.037968
0.052302 0.052500 0.052513
0.035855 0.035829 0.035716
0.047408 0.047138 0.046780
0.037913 0.037894 0.037499
0.054348 0.054081 0.054076
0.041244 0.041533 0.041531
0.047340 0.047037 0.047026
0.047881 0.047723 0.048295
0.043517 0.043624 0.043224
0.067401 0.066596 0.066649
0.046483 0.046675 0.046590
0.049108 0.049106 0.049115
0.067486 0.067345 0.067076
0.070206 0.070115 0.069991
0.038124 0.038772 0.039412
0.060768 0.060641 0.060514
0.051823 0.051852 0.051935
0.038113 0.038086 0.037898
0.040759 0.040522 0.040620
0.039920 0.040412 0.041072
0.039703 0.039567 0.039332
0.037411 0.037266 0.037311
0.048499 0.048599 0.048490
0.035978 0.035941 0.035746
0.047463 0.047685 0.047945
0.037921 0.037544 0.037242
0.038584 0.038300 0.038079
0.038227 0.038440 0.038781
0.040499 0.039993 0.039943
0.040669 0.040376 0.040251
0.050075 0.050351 0.050340
0.041495 0.041269 0.041423
0.057295 0.056843 0.056615
0.036678 0.036760 0.036713
0.037947 0.037821 0.038254
0.048383 0.048263 0.048187
0.042951 0.042998 0.042904
0.038734 0.038613 0.038476
0.044185 0.044264 0.044239
0.046116 0.045159 0.044892
0.053972 0.053978 0.053943
0.048500 0.048727 0.049033
0.055961 0.055160 0.055170
0.046434 0.046396 0.045819
0.041008 0.040952 0.040844
0.040006 0.039897 0.039846
0.039145 0.039188 0.039248
0.043113 0.043319 0.043667
0.087078 0.087050 0.087039
0.051172 0.051053 0.051009
0.040236 0.041557 0.042151
0.042162 0.042320 0.042151
0.040202 0.040236 0.040448
0.038496 0.038520 0.038472
0.059861 0.059621 0.059462
0.049551 0.050237 0.051206
0.043691 0.043898 0.043831
0.049089 0.048851 0.048741
0.054592 0.054567 0.054509
0.043127 0.042953 0.043022
0.043878 0.044396 0.045032
0.040619 0.040824 0.040873
0.042627 0.042520 0.042311
0.042576 0.042648 0.042680
0.050325 0.050832 0.050989
0.039918 0.040204 0.040514
0.050539 0.050523 0.050476
0.049944 0.049358 0.049805
0.039307 0.039337 0.039310
0.039871 0.039763 0.039822
0.054980 0.054604 0.054223
0.036085 0.035842 0.036149
0.041996 0.041830 0.041732
0.037954 0.038403 0.038444
0.054418 0.054176 0.053767
0.047964 0.047884 0.047731
0.039915 0.040410 0.041048
0.086612 0.086341 0.085759
0.039650 0.039773 0.039885
0.035194 0.035614 0.035723
0.052630 0.053066 0.052505
0.040660 0.040668 0.040901
0.047003 0.047149 0.047376
0.044614 0.044557 0.044289
0.052013 0.051442 0.051505
0.038729 0.039110 0.039140
0.053391 0.053766 0.054759
0.086849 0.086836 0.086595
0.050498 0.050515 0.050320
0.050387 0.049894 0.049898
0.040671 0.040711 0.040717
0.052122 0.052207 0.052236
0.043780 0.043904 0.043830
0.054377 0.054004 0.053981
0.053548 0.053234 0.052810
0.063579 0.063812 0.063962
0.044555 0.044369 0.044376
0.043863 0.043745 0.044032
0.039791 0.040210 0.040267
0.052522 0.052400 0.052525
0.054689 0.054641 0.053785
0.064547 0.065330 0.065836
0.049813 0.050279 0.050298
0.041448 0.041891 0.041926
0.049114 0.049168 0.050108
0.070789 0.070747 0.070756
0.047890 0.047857 0.047881
0.049773 0.050818 0.050928
0.039911 0.039808 0.039890
0.049865 0.049740 0.050222
0.038132 0.037897 0.038242
0.043112 0.043160 0.043268
0.040920 0.040756 0.040854
0.051551 0.051722 0.051520
0.064747 0.064216 0.063339
0.049896 0.050115 0.049954
0.044438 0.044213 0.044122
0.055444 0.055385 0.055192
0.040751 0.040628 0.040199
0.043496 0.042994 0.042859
0.044646 0.044906 0.045043
0.046789 0.046705 0.047260
0.048316 0.048622 0.048862
0.049982 0.049779 0.049567
0.042715 0.042699 0.042821
0.053811 0.053530 0.053349
0.038239 0.038399 0.038466
0.050353 0.049938 0.049259
0.048370 0.048602 0.048804
0.040839 0.040977 0.040903
0.057618 0.057415 0.056823
0.066322 0.061004 0.059624
0.044252 0.044048 0.044181
0.052580 0.050380 0.050220
0.054718 0.054670 0.054315
0.068882 0.069284 0.069423
0.040120 0.039888 0.039964
0.049485 0.049338 0.049417
0.053481 0.053404 0.053345
0.041269 0.041495 0.041506
0.036825 0.036831 0.036978
0.036586 0.036689 0.036795
0.050518 0.050541 0.050326
0.040658 0.040340 0.039821
0.040241 0.040267 0.039809
0.041814 0.041623 0.041152
0.103316 0.103242 0.103266
0.044677 0.043987 0.044046
0.038508 0.038347 0.038218
0.048336 0.048936 0.048718
0.046749 0.046855 0.047105
0.040774 0.040783 0.041016
0.038567 0.038507 0.038493
0.054029 0.054174 0.053816
0.041560 0.042295 0.042101
0.055564 0.055459 0.055274
0.047046 0.047034 0.046852
0.041038 0.040792 0.041173
0.039069 0.038979 0.038908
0.038326 0.038212 0.038604
0.043260 0.043120 0.043212
0.039743 0.039395 0.039037
0.056768 0.056651 0.056343
0.037215 0.036359 0.036797
0.037365 0.037338 0.037823
0.056320 0.057355 0.057783
0.040450 0.040075 0.040074
0.042145 0.042293 0.042161
0.085551 0.083705 0.082813
0.039609 0.040026 0.040069
0.051011 0.048660 0.048251
0.050231 0.050292 0.050250
0.038379 0.038672 0.038608
0.041485 0.041359 0.041473
0.040223 0.040501 0.040902
0.040551 0.040431 0.040284
0.045197 0.045238 0.045361
0.044174 0.043565 0.043631
0.046249 0.047423 0.048860
0.050247 0.050467 0.051290
0.055959 0.054770 0.054641
0.056793 0.056796 0.056816
0.050277 0.050190 0.050258
0.061478 0.061243 0.061272
0.052012 0.051984 0.052177
0.051998 0.052081 0.051890
0.050166 0.050164 0.050184
0.037746 0.037801 0.037782
0.037855 0.037775 0.037943
0.040231 0.040183 0.040413
0.052216 0.054313 0.054154
0.039168 0.038956 0.039107
0.038707 0.038504 0.037974
0.038444 0.038437 0.038459
0.056530 0.056646 0.057033
0.047310 0.046790 0.046964
0.047881 0.047878 0.048125
0.041088 0.041186 0.041103
0.039255 0.039184 0.039137
0.042410 0.042433 0.042048
0.047248 0.047394 0.047317
0.044054 0.044185 0.044196
0.053803 0.054274 0.054180
0.038397 0.038627 0.038769
0.045876 0.045651 0.045576
0.051216 0.051307 0.051269
0.040136 0.040794 0.041306
0.044863 0.044438 0.044324
0.068925 0.068777 0.068746
0.042624 0.042496 0.042717
0.067795 0.067760 0.066790
0.046435 0.046105 0.046013
0.056705 0.056823 0.057092
0.036573 0.036827 0.037217
0.054393 0.054370 0.054376
0.054500 0.054567 0.054623
0.046479 0.045749 0.045633
0.067594 0.067464 0.067767
0.064765 0.064686 0.064913
0.038652 0.038629 0.038649
0.042108 0.042140 0.042056
0.040530 0.040695 0.040394
0.049040 0.048921 0.048816
0.041242 0.041500 0.041381
0.047431 0.047826 0.047999
0.036344 0.036478 0.036490
0.049225 0.048809 0.048905
0.037225 0.037301 0.037433
0.041436 0.041659 0.042198
0.059787 0.059334 0.058918
0.042946 0.043023 0.042731
0.037335 0.037324 0.037193
0.038037 0.038123 0.037645
0.038163 0.038217 0.037606
0.048893 0.048754 0.048493
0.044808 0.044550 0.044515
0.036119 0.036047 0.036038
0.038199 0.038405 0.038489
0.036737 0.037027 0.037077
0.047653 0.046697 0.047113
0.046855 0.047105 0.047173
0.048339 0.048440 0.049118
0.048508 0.043971 0.042122
0.042089 0.041809 0.041219
0.048506 0.050106 0.050026
0.051874 0.051940 0.052071
0.054348 0.053854 0.053913
0.040605 0.040745 0.040550
0.040168 0.040110 0.040702
0.039343 0.039220 0.039132
0.047249 0.047347 0.047910
0.037109 0.036809 0.036534
0.054226 0.054073 0.054097
0.037568 0.037302 0.037035
0.037591 0.037853 0.039128
0.045965 0.046045 0.046025
0.039570 0.038956 0.038991
0.040106 0.039825 0.040414
0.056310 0.056294 0.056559
0.042380 0.042782 0.042774
0.041494 0.041971 0.042351
0.037565 0.037507 0.037411
0.040223 0.040122 0.040009
0.040685 0.040893 0.040912
0.036686 0.037245 0.037254
0.040290 0.040551 0.040621
0.039765 0.040028 0.039903
0.049965 0.050435 0.050360
0.052525 0.052732 0.052754
0.043122 0.044076 0.043987
0.040485 0.040627 0.040588
0.042046 0.041885 0.042311
0.043439 0.043540 0.043360
0.042601 0.042750 0.042634
0.049795 0.049612 0.049458
0.044601 0.044623 0.044190
0.040922 0.040607 0.040475
0.051475 0.051504 0.051701
0.046066 0.046048 0.045871
0.042370 0.042388 0.041910
0.041561 0.041592 0.041560
0.040872 0.041087 0.041077
0.049580 0.049570 0.049518
0.045878 0.045572 0.045281
0.040021 0.040048 0.039798
0.041156 0.041114 0.041196
0.047495 0.047679 0.047752
0.037623 0.037892 0.037393
