0.018706 0.018657 0.018832
0.020003 0.020143 0.020297
0.025136 0.025023 0.024897
0.029740 0.029728 0.029777
0.019836 0.019713 0.019777
0.019477 0.019094 0.018792
0.018589 0.018553 0.018671
0.026926 0.026715 0.026339
0.030066 0.029012 0.028705
0.022134 0.022147 0.022098
0.018727 0.018796 0.018768
0.025964 0.026657 0.026798
0.032211 0.032129 0.032354
0.040938 0.041014 0.041109
0.031799 0.031776 0.031791
0.033618 0.033609 0.033544
0.020052 0.020098 0.020001
0.020457 0.020456 0.020299
0.019481 0.019417 0.019482
0.021003 0.020947 0.021000
0.018653 0.018640 0.018635
0.027930 0.028287 0.028619
0.018688 0.018749 0.018715
0.015929 0.015856 0.015788
0.025844 0.025828 0.025498
0.022895 0.022778 0.022356
0.015319 0.015348 0.015379
0.020523 0.020815 0.020991
0.018786 0.018799 0.018823
0.019589 0.019734 0.019884
0.019056 0.019086 0.019128
0.018977 0.018964 0.018871
0.033127 0.033087 0.033120
0.025123 0.025094 0.025122
0.021486 0.021784 0.022068
0.019839 0.019845 0.019774
0.028685 0.028711 0.028767
0.018242 0.018244 0.018128
0.018311 0.018158 0.018183
0.018724 0.018765 0.018541
0.028653 0.028760 0.028664
0.018318 0.018241 0.018297
0.018150 0.018259 0.018390
0.018641 0.018663 0.018653
0.019105 0.019112 0.019126
0.019480 0.019664 0.019568
0.020988 0.020929 0.020786
0.021052 0.021040 0.021112
0.037209 0.037269 0.037313
0.018193 0.018457 0.018410
0.040107 0.040146 0.040237
0.016137 0.016442 0.016918
0.034285 0.034282 0.034395
0.020672 0.020861 0.020634
0.014600 0.014636 0.014552
0.020281 0.020787 0.020813
0.032777 0.032794 0.032751
0.024220 0.024045 0.024080
0.020122 0.020575 0.020569
0.020152 0.020116 0.020103
0.029894 0.029741 0.029474
0.023777 0.023815 0.024144
0.025190 0.025222 0.025096
0.023935 0.024183 0.024169
0.015827 0.015794 0.015689
0.022522 0.022699 0.022698
0.019629 0.019645 0.019648
0.027061 0.026732 0.026548
0.028983 0.029078 0.029149
0.021179 0.021083 0.021095
0.018915 0.018957 0.018964
0.024572 0.024575 0.024470
0.021089 0.020274 0.019940
0.029715 0.029799 0.029637
0.016901 0.016934 0.016932
0.020608 0.020717 0.020813
0.025961 0.025901 0.026073
0.018422 0.018374 0.018342
0.015540 0.015496 0.015492
0.022284 0.022190 0.021804
0.028427 0.028454 0.028477
0.018619 0.018506 0.018478
0.022307 0.022358 0.022389
0.018242 0.018249 0.018245
0.024388 0.024343 0.024361
0.026077 0.026193 0.026200
0.020066 0.020024 0.020042
0.018926 0.018839 0.018611
0.038492 0.038484 0.038470
0.013237 0.013282 0.013209
0.040872 0.040929 0.041034
0.032320 0.032568 0.032557
0.032324 0.031245 0.030640
0.024560 0.024476 0.024479
0.028767 0.028276 0.028057
0.021120 0.021141 0.021135
0.021507 0.021366 0.021324
0.029610 0.029588 0.029320
0.018275 0.018288 0.018232
0.024237 0.024252 0.024258
0.023487 0.023394 0.022920
0.018387 0.017834 0.017914
0.023620 0.023661 0.023642
0.018269 0.018308 0.018835
0.027344 0.028173 0.028666
0.029935 0.029949 0.029942
0.018518 0.018294 0.018140
0.019730 0.019679 0.019608
0.027066 0.027062 0.026588
0.024382 0.024180 0.024165
0.018196 0.018568 0.018536
0.019196 0.019035 0.018923
0.030135 0.030163 0.030318
0.017581 0.017299 0.017164
0.020910 0.020937 0.020938
0.018237 0.018378 0.018572
0.019524 0.019650 0.019728
0.023916 0.024600 0.027843
0.020594 0.020505 0.020418
0.028015 0.028018 0.027977
0.024818 0.024801 0.024856
0.018985 0.018948 0.018950
0.020682 0.020720 0.020740
0.015547 0.015524 0.015589
0.022064 0.022093 0.022069
0.019093 0.018967 0.019325
0.015557 0.015556 0.015701
0.016876 0.016764 0.016682
0.017307 0.017214 0.017180
0.019332 0.019281 0.019167
0.034561 0.034466 0.034274
0.019116 0.019031 0.018926
0.018313 0.018292 0.018379
0.033005 0.032953 0.032664
0.041014 0.041109 0.041159
0.021342 0.021236 0.021190
0.026748 0.026671 0.026704
0.020234 0.020338 0.020073
0.025512 0.025696 0.025695
0.020149 0.020204 0.020470
0.016857 0.016867 0.016813
0.018441 0.018533 0.018450
0.031408 0.031927 0.032935
0.019494 0.019544 0.019599
0.028436 0.028273 0.027037
0.029768 0.029827 0.029893
0.017704 0.017759 0.017893
0.021794 0.021688 0.021626
0.018502 0.018444 0.018443
0.018732 0.018670 0.018669
0.023293 0.023326 0.023353
0.020461 0.020002 0.019430
0.016270 0.016622 0.016478
0.016166 0.016115 0.016063
0.024049 0.024001 0.024022
0.018022 0.017999 0.018042
0.019938 0.020025 0.020035
0.020385 0.020452 0.020407
0.019852 0.019812 0.019838
0.020514 0.020236 0.020203
0.020909 0.020898 0.020375
0.020986 0.020774 0.020597
0.024963 0.024960 0.025026
0.014875 0.014867 0.014796
0.019426 0.019327 0.019321
0.018813 0.018525 0.018351
0.020192 0.020191 0.020214
0.030109 0.030137 0.030001
0.023223 0.023103 0.022936
0.024141 0.024027 0.024058
0.021396 0.021464 0.021472
0.021563 0.021314 0.021231
0.029006 0.029026 0.029454
0.023088 0.022798 0.023320
0.019043 0.019271 0.019621
0.039755 0.038292 0.038095
0.018900 0.018917 0.018683
0.019054 0.019131 0.019209
0.025601 0.026896 0.027280
0.018849 0.018742 0.018599
0.032263 0.033522 0.033939
0.028683 0.028697 0.028717
0.034384 0.034351 0.034354
0.018669 0.018688 0.018662
0.019719 0.019726 0.019773
0.032169 0.032651 0.033183
0.027116 0.027127 0.027024
0.029466 0.029046 0.028706
0.013273 0.013259 0.013247
0.018315 0.018278 0.018251
0.016994 0.016922 0.016981
0.023038 0.022975 0.023556
0.019673 0.020011 0.020217
0.016135 0.016157 0.016128
0.018042 0.016825 0.016569
0.037595 0.037609 0.037578
0.019107 0.019066 0.018548
0.020961 0.020920 0.020866
0.019217 0.019339 0.019370
0.030324 0.030550 0.030819
0.019441 0.019441 0.019434
0.017578 0.017801 0.018196
0.018690 0.018891 0.018826
0.040030 0.039996 0.040359
0.018610 0.018622 0.018645
0.018752 0.018796 0.018712
0.026318 0.026617 0.027926
0.019009 0.019145 0.019160
0.018326 0.018221 0.018097
0.022926 0.022599 0.022547
0.026118 0.026044 0.025709
0.019323 0.019752 0.019956
0.022722 0.022744 0.022717
0.020973 0.020982 0.020732
0.015690 0.015655 0.015593
0.019667 0.019730 0.019688
0.028711 0.028754 0.028719
0.017895 0.017905 0.017942
0.018465 0.018372 0.018357
0.029156 0.029356 0.029866
0.028947 0.028237 0.027933
0.023352 0.022652 0.022820
0.030301 0.031140 0.031470
0.034561 0.034434 0.034182
0.020834 0.020849 0.020802
0.017203 0.017008 0.017175
0.020215 0.019637 0.019502
0.019251 0.019048 0.019236
0.016445 0.016438 0.016486
0.038385 0.038360 0.038340
0.021589 0.021621 0.022373
0.018284 0.018358 0.018261
0.018928 0.018943 0.019021
0.021352 0.021018 0.020781
0.034473 0.034390 0.034352
0.020758 0.021253 0.021249
0.029359 0.029431 0.029543
0.026240 0.026172 0.026107
0.031753 0.031647 0.031740
0.014875 0.014901 0.014928
0.014977 0.015390 0.015492
0.020092 0.020012 0.019984
0.033664 0.033485 0.033442
0.018789 0.018881 0.018965
0.018262 0.018106 0.018093
0.026043 0.025656 0.026361
0.024566 0.024309 0.023875
0.028904 0.028756 0.028725
0.023802 0.023832 0.023855
0.029618 0.029458 0.029359
0.033192 0.033067 0.032938
0.017689 0.017671 0.017701
0.024447 0.023926 0.023409
0.032509 0.032453 0.032369
0.018616 0.018584 0.018656
0.018133 0.018207 0.018321
0.035278 0.035317 0.035307
0.023707 0.023743 0.023940
0.018763 0.018730 0.018671
0.040724 0.040729 0.040683
0.023969 0.023892 0.023721
0.032764 0.032763 0.032848
0.022446 0.022405 0.022249
0.017454 0.017448 0.017562
0.018670 0.018560 0.018586
0.015579 0.016133 0.016492
0.019726 0.019823 0.020083
0.026414 0.025113 0.024932
0.028912 0.026960 0.026105
0.023568 0.023742 0.023791
0.026596 0.026637 0.026696
0.017426 0.017458 0.017523
0.016424 0.016515 0.016451
0.029087 0.029458 0.029699
0.025689 0.025673 0.025779
0.020828 0.020966 0.021086
0.018818 0.018866 0.018278
0.025703 0.025999 0.026189
0.018393 0.018414 0.018186
0.019458 0.019489 0.019629
0.016187 0.016135 0.016154
0.018496 0.018496 0.018433
0.017104 0.017150 0.016851
0.019484 0.019504 0.019686
0.018923 0.019060 0.019070
0.018907 0.019034 0.018982
0.025284 0.025430 0.025354
0.029643 0.029717 0.031024
0.034060 0.034085 0.033273
0.020945 0.020863 0.020892
0.017170 0.017348 0.017578
0.018594 0.018614 0.018677
0.019407 0.019740 0.019965
0.020543 0.020568 0.020653
0.013034 0.013034 0.013035
0.026956 0.027168 0.027174
0.016057 0.016036 0.016096
0.013858 0.013918 0.013928
0.015077 0.015063 0.014886
0.018215 0.018496 0.018550
0.017154 0.017134 0.017124
0.030453 0.030484 0.030509
0.015336 0.015337 0.015297
0.019366 0.019377 0.019536
0.018617 0.018561 0.018638
0.018402 0.018406 0.018426
0.018362 0.018507 0.018436
0.017576 0.017508 0.017507
0.022012 0.022062 0.021902
0.034024 0.033399 0.032716
0.029294 0.029247 0.029259
0.017528 0.017329 0.017222
0.022502 0.022063 0.021837
0.019048 0.018945 0.018870
0.017355 0.017376 0.017495
0.020562 0.020591 0.020606
0.018784 0.019004 0.019132
0.018061 0.017870 0.017794
0.032745 0.032682 0.032540
0.021558 0.021748 0.021819
0.018832 0.018808 0.018910
0.028791 0.028771 0.029160
0.024183 0.024409 0.024368
0.024625 0.024639 0.024649
0.013392 0.013381 0.013405
0.021466 0.021518 0.021279
0.019265 0.019248 0.019177
0.035120 0.035069 0.035002
0.021932 0.021883 0.021874
0.022141 0.022180 0.022225
0.022152 0.022185 0.022201
0.021675 0.021578 0.021299
0.032393 0.032384 0.032386
0.023524 0.023416 0.023197
0.029210 0.029219 0.029228
0.030761 0.030739 0.030755
0.024745 0.024619 0.024611
0.022670 0.022723 0.022560
0.019808 0.019826 0.019773
0.019564 0.019522 0.019405
0.032665 0.032732 0.033032
0.017917 0.018604 0.018704
0.016135 0.016137 0.016442
0.020160 0.019947 0.020062
0.029144 0.029190 0.029219
0.019051 0.019106 0.019046
0.031559 0.031532 0.031308
0.029093 0.027901 0.027936
0.018302 0.018310 0.018207
0.019809 0.019788 0.019856
0.039108 0.039170 0.039149
0.043777 0.044562 0.044867
0.020153 0.020140 0.020155
0.020359 0.020457 0.020989
0.032035 0.031831 0.032014
0.017932 0.017901 0.017968
0.022797 0.022558 0.022500
0.025294 0.025365 0.025497
0.032968 0.032951 0.032983
0.023712 0.023687 0.023556
0.015544 0.015564 0.015634
0.026363 0.026189 0.025762
0.019105 0.019066 0.019078
0.026088 0.026076 0.026060
0.026053 0.026153 0.026270
0.016895 0.016862 0.016872
0.019207 0.019288 0.019386
0.019578 0.019672 0.019632
0.035095 0.035076 0.035006
0.020153 0.020110 0.020085
0.015753 0.015856 0.016123
0.019438 0.019646 0.019683
0.041658 0.041994 0.042149
0.019264 0.019162 0.019176
0.038345 0.038769 0.039002
0.038595 0.038746 0.038782
0.018652 0.018651 0.018905
0.017211 0.017200 0.017152
0.022055 0.022075 0.021987
0.029493 0.028934 0.028626
0.025877 0.025665 0.025152
0.020908 0.020886 0.020765
0.020826 0.020825 0.020762
0.021020 0.020623 0.020549
0.014239 0.014217 0.014276
0.028897 0.028897 0.029169
0.016625 0.016658 0.016690
0.017755 0.017741 0.017655
0.030008 0.030052 0.030153
0.018405 0.018417 0.018383
0.026576 0.026566 0.026549
0.020994 0.020924 0.020838
0.027371 0.029431 0.031365
0.028038 0.027451 0.026552
0.023626 0.023981 0.024115
0.016972 0.016887 0.016648
0.019403 0.019408 0.019460
0.018571 0.018591 0.018646
0.020087 0.019955 0.019846
0.031952 0.032007 0.032084
0.032739 0.032379 0.031589
0.026498 0.027371 0.029431
0.020546 0.020117 0.020111
0.020222 0.020274 0.020388
0.046765 0.046747 0.046739
0.019236 0.019283 0.019313
0.018093 0.018001 0.017937
0.019531 0.019444 0.019292
0.022266 0.022992 0.022318
0.017676 0.017756 0.017749
0.019962 0.019926 0.020054
0.021646 0.021970 0.022187
0.018826 0.018765 0.018813
0.017288 0.017427 0.017629
0.041293 0.041138 0.040852
0.027526 0.027670 0.027867
0.018271 0.018354 0.018581
0.033008 0.032956 0.033080
0.025923 0.025835 0.026139
0.020669 0.020613 0.020650
0.021858 0.022031 0.021776
0.018124 0.017765 0.017958
0.017725 0.018098 0.018156
0.023226 0.023118 0.023108
0.036569 0.036842 0.036902
0.018523 0.018662 0.018737
0.030241 0.030291 0.030270
0.034571 0.034459 0.034269
0.020351 0.020127 0.020078
0.018963 0.019105 0.018964
0.026794 0.026920 0.027005
0.020684 0.020558 0.020645
0.020290 0.020400 0.020336
0.028487 0.029348 0.029653
0.016034 0.015676 0.015612
0.019642 0.019198 0.019198
0.019088 0.019058 0.018924
0.018086 0.018142 0.018114
0.021175 0.021151 0.021029
0.023945 0.023799 0.023726
0.031261 0.031222 0.031094
0.027128 0.027040 0.027121
0.022901 0.022986 0.022957
0.029516 0.029446 0.029303
0.019691 0.019603 0.019794
0.018634 0.018761 0.018836
0.027241 0.027245 0.027282
0.024451 0.024369 0.024373
0.036182 0.036095 0.035991
0.019741 0.019643 0.019613
0.020779 0.020723 0.020790
0.020275 0.020396 0.020426
0.023860 0.024425 0.024570
0.033633 0.034436 0.034946
0.022062 0.022104 0.022091
0.016351 0.016290 0.016101
0.018558 0.018465 0.018497
0.025135 0.025181 0.025226
0.020402 0.020240 0.019740
0.021364 0.021272 0.021320
0.020836 0.020263 0.019843
0.016231 0.016258 0.016247
0.018625 0.018566 0.018516
0.032396 0.033230 0.033279
0.020929 0.020663 0.020566
0.018752 0.018714 0.018715
0.023368 0.023315 0.023408
0.018544 0.018552 0.018463
0.020112 0.020143 0.020879
0.020839 0.020825 0.020958
0.019055 0.019006 0.018872
0.013986 0.013910 0.013877
0.016522 0.016678 0.016977
0.019227 0.019128 0.018925
0.039715 0.039580 0.039411
0.018485 0.018756 0.018822
0.020508 0.020584 0.020600
0.017359 0.017388 0.017404
0.029883 0.029923 0.029809
0.026823 0.028241 0.029209
0.017290 0.017053 0.017020
0.020896 0.020721 0.020925
0.033235 0.033141 0.033246
0.025384 0.025532 0.025637
0.023107 0.023213 0.023208
0.029654 0.029661 0.029635
0.032928 0.032770 0.032085
0.031436 0.031486 0.031440
0.021350 0.021298 0.021365
0.018896 0.018859 0.018858
0.028483 0.029446 0.029803
0.038348 0.038352 0.038387
0.034937 0.034954 0.034824
0.025962 0.026035 0.026261
0.027334 0.027331 0.027315
0.019029 0.019125 0.019282
0.019498 0.019432 0.019249
0.018517 0.018483 0.018658
0.027412 0.028268 0.028765
0.021715 0.021420 0.021347
0.018388 0.018385 0.018365
0.018087 0.018187 0.018172
0.020084 0.020396 0.020694
0.028497 0.028001 0.027000
0.032652 0.032637 0.032585
0.021020 0.021192 0.021185
0.021158 0.021052 0.021040
0.019257 0.019413 0.019444
0.019389 0.019308 0.019094
0.022419 0.022733 0.022791
0.019896 0.019946 0.020582
0.016077 0.016071 0.016070
0.020063 0.020185 0.020235
0.017891 0.017981 0.018432
0.019136 0.019053 0.019099
0.022620 0.022104 0.020976
0.027117 0.027086 0.027433
0.020644 0.020594 0.020505
0.041023 0.041148 0.041214
0.015488 0.015420 0.015322
0.017716 0.017742 0.018065
0.022691 0.022691 0.022778
0.019438 0.019300 0.018786
0.024519 0.024482 0.024199
0.019569 0.019547 0.019421
0.018574 0.018610 0.018548
0.022144 0.022178 0.022322
0.013998 0.013799 0.013809
0.025792 0.025846 0.025874
0.029305 0.029276 0.029269
0.020692 0.020588 0.020806
0.016058 0.016075 0.016062
0.020284 0.020360 0.020447
0.029503 0.029397 0.029380
0.021490 0.021868 0.022150
0.024142 0.024128 0.024361
0.020742 0.020693 0.020752
0.024941 0.025068 0.025008
0.019531 0.019492 0.019554
0.020420 0.020222 0.020169
0.024071 0.024085 0.024101
0.030214 0.029935 0.029274
0.014714 0.014747 0.014750
0.023140 0.023164 0.023276
0.024260 0.024342 0.024181
0.019130 0.019138 0.019137
0.018387 0.018362 0.018356
0.020057 0.020006 0.019877
0.020430 0.020488 0.020487
0.026254 0.027211 0.027755
0.034151 0.033972 0.034060
0.017419 0.017468 0.017481
0.018764 0.018828 0.018746
0.030443 0.030317 0.030343
0.028904 0.028867 0.028787
0.016120 0.016057 0.016036
0.020912 0.020581 0.020403
0.028777 0.028772 0.028782
0.017043 0.016993 0.017032
0.019488 0.019564 0.019712
0.025776 0.025690 0.025629
0.028766 0.028782 0.028716
0.019993 0.019485 0.019386
0.017765 0.017755 0.017741
0.021985 0.022027 0.021934
0.034165 0.034295 0.034271
0.030140 0.030107 0.029993
0.025719 0.025450 0.025375
0.020622 0.020580 0.020615
0.021911 0.021836 0.021686
0.029619 0.032169 0.032651
0.017437 0.017461 0.017593
0.013169 0.013217 0.013292
0.021612 0.021817 0.021832
0.033752 0.033745 0.033722
0.020890 0.020897 0.020918
0.019294 0.019385 0.019423
0.018241 0.018193 0.018103
0.024230 0.024309 0.024469
0.017960 0.018002 0.018096
0.020937 0.020981 0.020996
0.013856 0.013765 0.013745
0.023243 0.023290 0.023285
0.033939 0.034879 0.034855
0.031965 0.031845 0.032128
0.025801 0.025991 0.025964
0.018454 0.018886 0.018930
0.030167 0.030191 0.030135
0.019647 0.019905 0.019779
0.022630 0.022515 0.022553
0.029492 0.030210 0.030517
0.013150 0.012955 0.012846
0.019909 0.019837 0.019803
0.022006 0.022111 0.022058
0.018870 0.018800 0.018754
0.017274 0.017318 0.017247
0.030783 0.030495 0.030514
0.030663 0.030666 0.030660
0.027692 0.027354 0.027177
0.027601 0.027728 0.027876
0.020843 0.020714 0.020754
0.018599 0.018598 0.018525
0.020969 0.021004 0.020769
0.016867 0.016873 0.016882
0.031757 0.031742 0.031521
0.022660 0.022579 0.022554
0.020851 0.020867 0.020857
0.029267 0.029784 0.029865
0.016062 0.016034 0.016038
0.034949 0.035123 0.035549
0.021970 0.021843 0.021870
0.026770 0.026503 0.026316
0.021158 0.020927 0.020900
0.023952 0.023863 0.023434
0.030377 0.030582 0.030727
0.018576 0.018609 0.018599
0.021214 0.022636 0.022725
0.020601 0.020648 0.020944
0.020755 0.020730 0.020764
0.016946 0.016909 0.016960
0.020656 0.020654 0.020692
0.017759 0.017893 0.017926
0.022078 0.022094 0.022088
0.023602 0.023590 0.023607
0.020140 0.020208 0.020209
0.025524 0.028247 0.029451
0.028827 0.028877 0.028947
0.021120 0.021152 0.021157
0.020170 0.020174 0.020187
0.019549 0.019544 0.019890
0.020095 0.020139 0.020166
0.023037 0.022825 0.022618
0.031802 0.031671 0.031661
0.021565 0.021545 0.021336
0.021748 0.021804 0.021707
0.020708 0.020607 0.020168
0.018078 0.018205 0.018001
0.029134 0.028948 0.028199
0.036539 0.036536 0.036480
0.029317 0.029255 0.029426
0.024567 0.024645 0.024612
0.015893 0.015847 0.015909
0.023124 0.023114 0.023168
0.018304 0.018187 0.018102
0.015794 0.015689 0.014999
0.025086 0.025083 0.025106
0.017383 0.017360 0.017581
0.031627 0.031778 0.031836
0.022682 0.022688 0.022587
0.020940 0.020942 0.020853
0.020431 0.020498 0.020506
0.020284 0.020301 0.020214
0.020361 0.020351 0.020361
0.019607 0.019506 0.019479
0.042816 0.042819 0.042829
0.028787 0.028790 0.028750
0.023290 0.023243 0.023288
0.017953 0.018016 0.018091
0.029324 0.029498 0.029619
0.018779 0.018735 0.018345
0.039387 0.039217 0.039205
0.021917 0.020373 0.019857
0.020661 0.020567 0.020072
0.016961 0.016947 0.017008
0.026317 0.026116 0.026071
0.014624 0.014741 0.014831
0.032903 0.032881 0.032724
0.019568 0.019726 0.019583
0.022969 0.022948 0.023033
0.028871 0.028461 0.027328
0.017147 0.017050 0.016984
0.023991 0.024013 0.024026
0.029235 0.029274 0.029294
0.015960 0.015936 0.015931
0.026643 0.026670 0.026742
0.020397 0.020049 0.020038
0.013978 0.013884 0.013913
0.019663 0.019683 0.019629
0.031370 0.031305 0.031288
0.020811 0.020800 0.020689
0.040144 0.040556 0.041296
0.023475 0.023401 0.023575
0.018261 0.018730 0.019037
0.020758 0.020967 0.020490
0.020255 0.020413 0.020253
0.020489 0.020508 0.020508
0.035119 0.035184 0.035097
0.019614 0.019664 0.019611
0.037144 0.036980 0.036971
0.020828 0.020860 0.021056
0.023365 0.023557 0.023884
0.019764 0.019659 0.019703
0.017459 0.017495 0.017539
0.018662 0.018650 0.018811
0.025249 0.025339 0.025397
0.018899 0.019018 0.019045
0.016295 0.016252 0.016337
0.021288 0.020947 0.020583
0.022435 0.022297 0.022150
0.024497 0.024441 0.024213
0.021663 0.021648 0.021607
0.020220 0.020276 0.020070
0.019430 0.019413 0.019413
0.031854 0.032089 0.032338
0.022132 0.022254 0.022306
0.041125 0.041037 0.040983
0.019188 0.019180 0.019384
0.018496 0.018485 0.018443
0.030338 0.030138 0.029387
0.034592 0.034214 0.034093
0.018030 0.017982 0.017990
0.024259 0.024092 0.024014
0.012904 0.013051 0.013074
0.023378 0.023339 0.023325
0.036979 0.036989 0.037056
0.031009 0.031172 0.031231
0.020668 0.020741 0.020606
0.020065 0.020360 0.020601
0.019964 0.019907 0.020112
0.023234 0.023249 0.022910
0.021370 0.021459 0.021498
0.023736 0.023417 0.023330
0.024106 0.024168 0.023919
0.028849 0.028895 0.028945
0.032557 0.032539 0.032490
0.022707 0.022160 0.021503
0.019500 0.019620 0.019540
0.019093 0.019076 0.019031
0.030334 0.030505 0.030189
0.018683 0.018671 0.018698
0.021617 0.021807 0.021865
0.020327 0.020185 0.020093
0.024982 0.025324 0.025317
0.020607 0.020531 0.020426
0.019996 0.020139 0.020181
0.029932 0.029934 0.029541
0.018388 0.018580 0.019693
0.021581 0.021939 0.025211
0.018039 0.018000 0.017853
0.017977 0.017987 0.017995
0.020158 0.020095 0.020078
0.021449 0.021472 0.021526
0.022196 0.022186 0.022126
0.021089 0.021107 0.021136
0.022093 0.022315 0.022442
0.021046 0.020850 0.020865
0.019283 0.019371 0.019350
0.024101 0.024278 0.024326
0.027551 0.027569 0.027557
0.020947 0.021062 0.021054
0.022676 0.023146 0.023031
0.027901 0.027936 0.027686
0.032904 0.032883 0.032722
0.020737 0.020915 0.020902
0.024612 0.024630 0.024489
0.026828 0.026847 0.026443
0.023770 0.023368 0.023055
0.019437 0.019317 0.019417
0.033784 0.033925 0.034437
0.019288 0.019328 0.019358
0.019106 0.019136 0.019123
0.020285 0.020222 0.020274
0.022911 0.022966 0.022934
0.018649 0.018700 0.018849
0.019261 0.019152 0.019080
0.021982 0.022126 0.022215
0.013836 0.013844 0.013901
0.018514 0.018467 0.018393
0.018241 0.018219 0.018218
0.019448 0.019549 0.019594
0.029131 0.028820 0.028591
0.027206 0.027204 0.027214
0.018135 0.018222 0.018185
0.021106 0.021181 0.021240
0.034439 0.034438 0.034173
0.017967 0.017854 0.018017
0.024466 0.024757 0.024790
0.039220 0.039218 0.039213
0.020085 0.020241 0.020103
0.019984 0.019937 0.019911
0.028787 0.028764 0.028671
0.030558 0.030408 0.030368
0.019544 0.019599 0.019636
0.024043 0.024673 0.028017
0.014129 0.014095 0.014073
0.021006 0.021069 0.020954
0.015613 0.015522 0.015428
0.018284 0.018352 0.018325
0.021994 0.022093 0.022115
0.032771 0.032711 0.032707
0.022507 0.022423 0.022352
0.024137 0.024198 0.024092
0.038501 0.038467 0.038442
0.017818 0.017741 0.017798
0.018818 0.019086 0.019126
0.018680 0.017963 0.017855
0.021512 0.021565 0.021663
0.021059 0.021024 0.020965
0.018312 0.018316 0.018352
0.028353 0.028271 0.028418
0.020315 0.020352 0.020321
0.027275 0.032032 0.033840
0.019153 0.018785 0.018733
0.032931 0.032874 0.032690
0.016652 0.016566 0.016500
0.020740 0.020729 0.020761
0.019646 0.019824 0.019857
0.031019 0.030833 0.030541
0.029411 0.029484 0.029515
0.017958 0.017977 0.018009
0.023183 0.023079 0.022698
0.020573 0.020557 0.020574
0.018244 0.018265 0.018283
0.038956 0.038935 0.039014
0.020042 0.020120 0.020013
0.024546 0.024547 0.024573
0.019180 0.019261 0.019215
0.028473 0.028569 0.028851
0.015470 0.015607 0.015703
0.024671 0.024513 0.024464
0.025675 0.025730 0.025782
0.021572 0.021600 0.021955
0.020965 0.020894 0.020878
0.029220 0.029269 0.029443
0.019077 0.019030 0.018918
0.028906 0.028967 0.028934
0.033168 0.033366 0.033523
0.023899 0.023714 0.022105
0.021695 0.021711 0.021711
0.020101 0.020273 0.020363
0.037670 0.037773 0.037939
0.029582 0.029483 0.029485
0.033308 0.033055 0.032462
0.019461 0.019687 0.019902
0.017333 0.017293 0.017238
0.027304 0.027151 0.026698
0.021001 0.020907 0.021031
0.015478 0.015495 0.015485
0.018792 0.018813 0.018783
0.017470 0.017440 0.017303
0.018313 0.018074 0.018009
0.019304 0.019410 0.019383
0.019612 0.019935 0.019799
0.021415 0.021438 0.021942
0.020702 0.020761 0.020845
0.021093 0.020998 0.020838
0.026761 0.026784 0.026748
0.019550 0.019326 0.019306
0.018799 0.018743 0.018821
0.020221 0.020410 0.020517
0.018934 0.018935 0.018834
0.033928 0.034213 0.034260
0.040021 0.040347 0.040374
0.026109 0.026074 0.026060
0.017418 0.017453 0.017455
0.019958 0.020055 0.020028
0.033023 0.034164 0.034593
0.019334 0.019322 0.019280
0.024057 0.024226 0.023999
0.018257 0.018143 0.018100
0.025858 0.025884 0.026047
0.022113 0.022504 0.022998
0.024640 0.024471 0.024051
0.023141 0.023178 0.023254
0.023055 0.023085 0.022694
0.019612 0.019405 0.019295
0.018441 0.018322 0.018298
0.029374 0.029294 0.029247
0.024259 0.023772 0.023761
0.023830 0.023781 0.023764
0.028681 0.028477 0.027856
0.040698 0.040717 0.040716
0.018076 0.018160 0.018264
0.031317 0.031313 0.031275
0.040849 0.040712 0.040334
0.018259 0.018183 0.018077
0.020465 0.020211 0.020081
0.016134 0.016115 0.016313
0.021553 0.021829 0.024771
0.021675 0.021674 0.021803
0.026244 0.026360 0.026439
0.031741 0.031910 0.031967
0.018941 0.018977 0.018986
0.023907 0.023748 0.023938
0.029815 0.029869 0.029814
0.029948 0.029754 0.029470
0.029430 0.029458 0.029272
0.025346 0.025484 0.025911
0.018785 0.018651 0.018571
0.019614 0.019660 0.019659
0.027175 0.027759 0.027128
0.023628 0.023507 0.023501
0.024054 0.024263 0.024123
0.026621 0.026758 0.026559
0.031272 0.031317 0.031275
0.033527 0.033484 0.033486
0.018662 0.018737 0.019041
0.016251 0.016255 0.015933
0.013381 0.013405 0.013412
0.032404 0.032313 0.032029
0.019493 0.019532 0.019495
0.023949 0.023536 0.023104
0.032677 0.032178 0.032113
0.023945 0.023903 0.023862
0.023504 0.020590 0.019707
0.019785 0.019697 0.019736
0.018761 0.018750 0.018695
0.029683 0.029440 0.029323
0.018463 0.018453 0.018496
0.018450 0.018382 0.017987
0.019203 0.019167 0.019318
0.018373 0.018503 0.018392
0.016482 0.016484 0.016670
0.018818 0.019027 0.019113
0.017109 0.016872 0.016733
0.018178 0.017569 0.017398
0.017460 0.017546 0.017343
0.022565 0.022502 0.022066
0.040171 0.040069 0.040081
0.018976 0.019869 0.020760
0.025811 0.025782 0.025783
0.023600 0.023368 0.023571
0.027092 0.027219 0.027266
0.027741 0.029724 0.030251
0.019392 0.019305 0.019193
0.020131 0.020111 0.020146
0.032688 0.032555 0.031996
0.019409 0.019177 0.018781
0.020711 0.020690 0.020781
0.024340 0.024408 0.024387
0.020806 0.020831 0.020834
0.016505 0.016668 0.016790
0.035845 0.035830 0.035805
0.022352 0.022233 0.022132
0.027859 0.027880 0.027991
0.019356 0.019196 0.019287
0.035996 0.036046 0.036014
0.019638 0.019422 0.019357
0.018524 0.018459 0.018484
0.027226 0.026710 0.026503
0.022068 0.022072 0.022098
0.019724 0.019570 0.019091
0.018328 0.018250 0.018222
0.026339 0.026259 0.026232
0.020636 0.020665 0.020750
0.020055 0.020109 0.019717
0.020626 0.020616 0.020540
0.029269 0.029443 0.029489
0.031307 0.030882 0.030142
0.020652 0.020682 0.020636
0.023306 0.023249 0.022209
0.017290 0.017341 0.016974
0.028374 0.028027 0.027925
0.016653 0.016606 0.016699
0.017824 0.017144 0.017151
0.022830 0.022844 0.022595
0.018034 0.017969 0.017975
0.031837 0.031800 0.031513
0.022937 0.023203 0.023222
0.017262 0.017275 0.017241
0.019475 0.019153 0.018825
0.030210 0.030517 0.030619
0.023851 0.023837 0.023725
0.020846 0.022567 0.023124
0.018868 0.018805 0.018616
0.022247 0.022279 0.022353
0.018848 0.018853 0.018762
0.022708 0.022691 0.022768
0.015871 0.015660 0.015715
0.019385 0.019301 0.019460
0.038140 0.038195 0.038191
0.031440 0.031452 0.031793
0.020357 0.020365 0.020131
0.015272 0.015492 0.015549
0.022082 0.021944 0.021892
0.020505 0.020556 0.020587
0.014134 0.014191 0.014288
0.023734 0.023816 0.023772
0.018850 0.018830 0.018283
0.020301 0.020214 0.020174
0.025423 0.027000 0.027227
0.018338 0.017948 0.017820
0.022759 0.022541 0.022355
0.018380 0.018380 0.018385
0.017832 0.017740 0.017878
0.041246 0.041309 0.041347
0.020651 0.020620 0.020587
0.026969 0.027229 0.027240
0.019003 0.018909 0.018749
0.029931 0.029961 0.030009
0.020208 0.020267 0.020261
0.018523 0.018529 0.018463
0.018704 0.018983 0.018862
0.033422 0.033378 0.033421
0.022431 0.022426 0.022480
0.026925 0.027856 0.028283
0.019977 0.020026 0.020112
0.023562 0.023630 0.023627
0.016016 0.016105 0.016019
0.016638 0.016617 0.016622
