0.145855 0.145595 0.145435
0.109032 0.108915 0.107457
0.078871 0.078833 0.078790
0.066169 0.066274 0.066378
0.076206 0.076692 0.078176
0.055150 0.055467 0.055854
0.050056 0.050179 0.050461
0.055291 0.055052 0.054905
0.070636 0.074656 0.076391
0.099433 0.106569 0.107991
0.112523 0.112367 0.112195
0.122561 0.123641 0.123684
0.099138 0.097949 0.097052
0.325796 0.319583 0.304286
0.082739 0.081674 0.081373
0.063528 0.063790 0.065163
0.136697 0.136575 0.135907
0.053494 0.053355 0.053406
0.109924 0.109492 0.108853
0.064757 0.066121 0.066447
0.096982 0.097149 0.097194
0.049316 0.049042 0.048598
0.061636 0.062421 0.062217
0.102591 0.104474 0.103852
0.115724 0.115016 0.114673
0.126052 0.133001 0.134429
0.115227 0.116502 0.116714
0.121392 0.122024 0.121425
0.141790 0.142239 0.142458
0.043827 0.044065 0.044919
0.141282 0.140674 0.140217
0.096681 0.096655 0.096839
0.109863 0.109994 0.110059
0.067382 0.067715 0.067572
0.130467 0.132958 0.133375
0.067259 0.067163 0.067321
0.045425 0.046196 0.048384
0.113514 0.114321 0.114669
0.101769 0.102000 0.102652
0.107852 0.108253 0.109051
0.235278 0.235299 0.234907
0.072181 0.071818 0.068293
0.202305 0.201246 0.197347
0.088046 0.087455 0.085319
0.098841 0.106155 0.106841
0.044094 0.044212 0.044143
0.066682 0.066730 0.066555
0.168316 0.169622 0.170228
0.058297 0.057968 0.057240
0.086477 0.085080 0.089299
0.107206 0.107317 0.109101
0.121121 0.121534 0.120952
0.066937 0.066304 0.065192
0.133021 0.132346 0.132406
0.059039 0.058963 0.058892
0.056000 0.055666 0.054984
0.069204 0.068898 0.068830
0.100831 0.100576 0.098047
0.051539 0.051970 0.052332
0.326534 0.326120 0.325796
0.047060 0.047787 0.047958
0.124451 0.125469 0.125968
0.144568 0.144314 0.141056
0.066658 0.065023 0.065502
0.170732 0.160274 0.147296
0.069930 0.069829 0.069811
0.119777 0.119794 0.119726
0.096403 0.079982 0.075083
0.082368 0.082340 0.082363
0.116454 0.116324 0.116185
0.074581 0.073881 0.073581
0.064468 0.065451 0.067017
0.054918 0.055471 0.055046
0.049833 0.050550 0.050288
0.063663 0.064142 0.063949
0.044210 0.044205 0.043817
0.048490 0.048609 0.048546
0.092720 0.093429 0.093729
0.158264 0.158489 0.158182
0.093980 0.094152 0.095048
0.058254 0.057900 0.057762
0.119945 0.119906 0.119912
0.080348 0.087306 0.091247
0.076391 0.076689 0.078140
0.052405 0.052657 0.052782
0.191079 0.191595 0.191864
0.107156 0.107150 0.107401
0.046575 0.046606 0.046789
0.059028 0.058981 0.059084
0.058159 0.057686 0.056078
0.119781 0.119797 0.119651
0.094156 0.093787 0.093678
0.057278 0.057216 0.057782
0.103393 0.103474 0.103645
0.054232 0.054305 0.054618
0.085571 0.085893 0.087866
0.096968 0.097359 0.098947
0.063043 0.063549 0.063921
0.087791 0.087148 0.086784
0.057547 0.057493 0.057782
0.100598 0.100484 0.099905
0.058202 0.057820 0.057986
0.063040 0.062990 0.062876
0.044227 0.044162 0.044045
0.067460 0.067271 0.067202
0.033393 0.033557 0.033667
0.137161 0.131859 0.130218
0.055396 0.057012 0.060797
0.058430 0.058797 0.058809
0.060907 0.062044 0.061561
0.157308 0.160441 0.162776
0.045075 0.044283 0.044254
0.043178 0.043142 0.043581
0.097433 0.096622 0.096762
0.149089 0.141733 0.135688
0.069232 0.069383 0.069270
0.068751 0.068195 0.068018
0.108157 0.108100 0.108512
0.138433 0.141054 0.144236
0.103405 0.102901 0.102524
0.106226 0.106164 0.100425
0.074566 0.074397 0.074350
0.157539 0.158379 0.158616
0.060468 0.060579 0.061032
0.102403 0.102586 0.103146
0.046571 0.046404 0.046258
0.052302 0.052485 0.052502
0.110438 0.111024 0.111024
0.102666 0.103397 0.103548
0.111548 0.111936 0.108381
0.109684 0.110051 0.109915
0.325568 0.329345 0.328597
0.065616 0.065840 0.065993
0.063669 0.063773 0.063671
0.044629 0.044844 0.044760
0.122927 0.123200 0.123761
0.066216 0.065864 0.065566
0.101488 0.101380 0.101181
0.070632 0.071332 0.071144
0.112954 0.113002 0.113171
0.134155 0.134038 0.134301
0.059092 0.058570 0.058054
0.059301 0.059300 0.058750
0.090580 0.090576 0.090658
0.049555 0.049624 0.049414
0.109591 0.109450 0.109666
0.191804 0.191640 0.188545
0.109848 0.109994 0.110115
0.082516 0.082509 0.082335
0.084219 0.088138 0.089301
0.132875 0.132451 0.132812
0.065267 0.064741 0.065135
0.094599 0.094968 0.095683
0.052053 0.051907 0.051938
0.101404 0.099827 0.099484
0.121511 0.118818 0.118351
0.064845 0.065124 0.065009
0.095532 0.096178 0.095450
0.129251 0.128077 0.129169
0.049706 0.049513 0.049516
0.107969 0.108665 0.110363
0.082764 0.082771 0.082872
0.084625 0.085253 0.086663
0.053534 0.054371 0.054809
0.136088 0.136257 0.136175
0.071953 0.072012 0.072236
0.142487 0.142139 0.142536
0.066399 0.066308 0.066212
0.134174 0.134250 0.134137
0.044416 0.044775 0.044799
0.108784 0.109137 0.109460
0.070637 0.070596 0.070842
0.057601 0.057718 0.057694
0.096014 0.096047 0.095556
0.104082 0.103232 0.102886
0.067829 0.066895 0.066398
0.054916 0.054621 0.054198
0.059186 0.059125 0.059265
0.146607 0.146746 0.144698
0.076074 0.076965 0.077392
0.043924 0.043849 0.044206
0.092945 0.092287 0.091793
0.103528 0.106254 0.106929
0.086407 0.085968 0.085951
0.056269 0.056197 0.056116
0.111461 0.111448 0.111450
0.042935 0.042848 0.042672
0.058504 0.058187 0.058306
0.052631 0.051383 0.050711
0.079714 0.079989 0.080260
0.064707 0.064807 0.064985
0.131112 0.130889 0.126374
0.157081 0.153618 0.153287
0.100283 0.099720 0.100029
0.102520 0.102359 0.102574
0.044205 0.043817 0.044356
0.071792 0.068068 0.068212
0.155653 0.155642 0.155388
0.317090 0.318321 0.318581
0.109101 0.109516 0.110429
0.074157 0.073791 0.073930
0.144546 0.144120 0.143692
0.130033 0.129861 0.129985
0.043795 0.043534 0.043180
0.053502 0.053725 0.053710
0.124550 0.124763 0.124633
0.108264 0.107603 0.107287
0.067448 0.067334 0.067864
0.100813 0.100776 0.100678
0.047888 0.047820 0.048150
0.043902 0.044020 0.044002
0.100787 0.101624 0.106270
0.046743 0.047398 0.048185
0.067646 0.067711 0.067925
0.125788 0.125937 0.125876
0.199279 0.199773 0.200148
0.094454 0.094470 0.094675
0.083693 0.083599 0.083801
0.064928 0.064778 0.064044
0.042711 0.042884 0.042799
0.045054 0.045617 0.045305
0.134137 0.134326 0.130808
0.093359 0.092697 0.087668
0.143678 0.143456 0.143477
0.049612 0.049718 0.049515
0.131481 0.131473 0.132790
0.148356 0.148444 0.149235
0.208217 0.207682 0.205229
0.058361 0.058197 0.057976
0.048556 0.047758 0.047582
0.050008 0.049856 0.049440
0.137161 0.137706 0.138340
0.080782 0.079786 0.079551
0.136090 0.136131 0.136084
0.044356 0.044862 0.044813
0.105730 0.105723 0.105881
0.110281 0.110288 0.109959
0.052973 0.052550 0.052561
0.106580 0.106545 0.108771
0.039730 0.039871 0.040062
0.109448 0.109600 0.109587
0.089190 0.089378 0.089002
0.111139 0.121529 0.120512
0.131402 0.132434 0.132575
0.089305 0.089110 0.086566
0.044301 0.044439 0.044392
0.089611 0.089729 0.088153
0.123008 0.120459 0.114309
0.065644 0.065609 0.065314
0.149724 0.149195 0.149036
0.161372 0.156124 0.155522
0.117019 0.118823 0.118654
0.079439 0.075581 0.074581
0.099986 0.100270 0.100325
0.051206 0.051082 0.051261
0.066736 0.066803 0.067663
0.105441 0.108048 0.110881
0.139972 0.136716 0.129150
0.033878 0.033845 0.033878
0.109352 0.108882 0.109251
0.063468 0.064094 0.064511
0.155527 0.156717 0.157405
0.070182 0.070547 0.071302
0.053828 0.054066 0.054421
0.067623 0.067823 0.067944
0.093778 0.093053 0.093054
0.325932 0.326151 0.320240
0.045449 0.044766 0.044833
0.060153 0.060323 0.060323
0.199577 0.200054 0.200399
0.129710 0.129594 0.129490
0.059304 0.059162 0.059531
0.047098 0.047123 0.047514
0.043836 0.043802 0.043597
0.116004 0.115230 0.114852
0.049758 0.049863 0.050289
0.068226 0.068142 0.068389
0.117609 0.117375 0.116742
0.064862 0.065469 0.065817
0.130341 0.132632 0.132770
0.052407 0.051711 0.051020
0.046880 0.047068 0.047012
0.132656 0.131878 0.131464
0.119551 0.118901 0.119503
0.110916 0.108986 0.088609
0.138405 0.138833 0.138122
0.065996 0.067424 0.067856
0.137072 0.137553 0.137763
0.119150 0.118571 0.118715
0.185102 0.185105 0.185169
0.120277 0.119209 0.119181
0.050401 0.050320 0.050827
0.079671 0.079586 0.079417
0.078087 0.078473 0.080364
0.139710 0.138950 0.135956
0.114251 0.114297 0.114381
0.089790 0.089845 0.089324
0.119222 0.117855 0.113110
0.101497 0.103846 0.104086
0.049042 0.048598 0.048597
0.070061 0.069952 0.069981
0.057714 0.058479 0.059734
0.055850 0.055793 0.056467
0.104758 0.103970 0.104428
0.048519 0.049569 0.051181
0.146778 0.143488 0.142650
0.083707 0.083862 0.083382
0.044506 0.044860 0.044749
0.087806 0.083300 0.081762
0.114843 0.115227 0.116502
0.060852 0.060903 0.061395
0.078948 0.079009 0.078956
0.078668 0.077697 0.078069
0.077400 0.077011 0.076995
0.068612 0.067494 0.066998
0.118615 0.118863 0.119232
0.115687 0.114565 0.114851
0.067322 0.066804 0.065792
0.151831 0.147746 0.146354
0.078464 0.078992 0.080006
0.083705 0.083363 0.083759
0.111777 0.112682 0.112760
0.129294 0.129232 0.129051
0.097619 0.097266 0.096624
0.095380 0.095703 0.095715
0.093740 0.093495 0.093983
0.079637 0.080293 0.080494
0.070815 0.070652 0.070627
0.062803 0.062722 0.063755
0.090954 0.091141 0.091359
0.043639 0.043856 0.043812
0.044416 0.044314 0.044199
0.049058 0.049046 0.049293
0.088591 0.088589 0.088354
0.067987 0.069038 0.069052
0.113077 0.112945 0.112874
0.068900 0.068302 0.068096
0.059510 0.060067 0.059716
0.046500 0.045993 0.045381
0.060132 0.060153 0.060323
0.132211 0.132366 0.132494
0.065772 0.063209 0.062651
0.064806 0.064965 0.065424
0.042945 0.043517 0.043838
0.113512 0.109729 0.110942
0.126152 0.124138 0.124068
0.102587 0.102773 0.100585
0.103017 0.102942 0.102755
0.068021 0.067852 0.068293
0.047442 0.047581 0.047564
0.129118 0.128102 0.124667
0.144373 0.144718 0.141283
0.106027 0.105927 0.105663
0.047516 0.047286 0.047306
0.176715 0.173091 0.173700
0.128795 0.127968 0.128618
0.111807 0.111529 0.111080
0.080570 0.080023 0.079594
0.093220 0.093018 0.093372
0.135423 0.136460 0.136961
0.078758 0.078176 0.077964
0.067596 0.067845 0.067820
0.185178 0.185073 0.186096
0.048608 0.048030 0.048477
0.106602 0.105159 0.104480
0.066555 0.066260 0.066168
0.098843 0.101042 0.101806
0.056906 0.056901 0.057001
0.117960 0.118277 0.119249
0.088554 0.090013 0.089864
0.059620 0.059681 0.059602
0.114613 0.114528 0.113892
0.139966 0.140166 0.136937
0.118818 0.118351 0.118761
0.085388 0.084715 0.084216
0.108296 0.109072 0.108635
0.092833 0.093265 0.092464
0.110238 0.107483 0.103327
0.060630 0.060606 0.060468
0.063992 0.064498 0.064501
0.047569 0.047227 0.048100
0.120229 0.119390 0.120718
0.122849 0.117879 0.113043
0.064325 0.064446 0.064664
0.049611 0.050033 0.049691
0.096724 0.096801 0.096868
0.060173 0.060572 0.060738
0.045568 0.045673 0.045637
0.129856 0.129521 0.130404
0.055052 0.054905 0.055029
0.102094 0.102687 0.102939
0.045845 0.045893 0.046141
0.114960 0.114163 0.107248
0.044969 0.044828 0.044802
0.045930 0.046059 0.046412
0.240063 0.229141 0.226916
0.060783 0.064716 0.065079
0.126270 0.129016 0.129193
0.045568 0.045583 0.045691
0.066856 0.066572 0.065840
0.111936 0.108381 0.101709
0.045656 0.045628 0.045511
0.045763 0.045697 0.045542
0.091351 0.091340 0.091354
0.046831 0.046914 0.046861
0.122929 0.124395 0.128576
0.122862 0.119987 0.119051
0.110903 0.110948 0.111197
0.130557 0.130606 0.129747
0.093010 0.093022 0.093787
0.068506 0.068430 0.068538
0.058358 0.058865 0.058676
0.105825 0.107839 0.109304
0.182517 0.182311 0.181739
0.103459 0.103588 0.103773
0.068428 0.068288 0.068649
0.089809 0.090421 0.090512
0.077371 0.077133 0.077028
0.068009 0.067505 0.066777
0.061675 0.061706 0.061663
0.046746 0.045982 0.045431
0.109607 0.109517 0.109401
0.066229 0.066189 0.066119
0.100655 0.100885 0.100761
0.111194 0.111115 0.110553
0.040678 0.040522 0.040464
0.110649 0.110161 0.106130
0.109306 0.109273 0.109123
0.102528 0.103528 0.106254
0.087455 0.087298 0.088739
0.127313 0.123646 0.123180
0.050758 0.054562 0.059191
0.162360 0.163591 0.164136
0.106991 0.107156 0.107030
0.126399 0.126152 0.124138
0.113791 0.113346 0.113149
0.102632 0.103696 0.103324
0.055692 0.055596 0.055179
0.108915 0.107457 0.107341
0.119797 0.119651 0.119553
0.059095 0.059049 0.058878
0.063150 0.061632 0.058924
0.082494 0.083006 0.082023
0.137368 0.130995 0.129517
0.122091 0.119443 0.118806
0.084130 0.084306 0.086411
0.065066 0.064791 0.065649
0.226726 0.225845 0.226242
0.069144 0.068865 0.067304
0.087753 0.087822 0.088033
0.093048 0.092945 0.092287
0.052209 0.052077 0.051805
0.042643 0.042768 0.042758
0.068946 0.068927 0.068833
0.120103 0.120008 0.119945
0.130099 0.130089 0.129994
0.106984 0.107848 0.108622
0.041208 0.041047 0.040935
0.064007 0.063853 0.063856
0.124844 0.124682 0.125027
0.077831 0.078415 0.077917
0.088996 0.087817 0.087464
0.136131 0.136097 0.136087
0.088686 0.088746 0.088783
0.070821 0.070646 0.070900
0.168786 0.166909 0.165900
0.116248 0.116792 0.116934
0.095466 0.096130 0.095835
0.113619 0.113870 0.113627
0.057659 0.057754 0.057761
0.082680 0.082399 0.082403
0.120043 0.120172 0.120198
0.108683 0.107326 0.107772
0.047113 0.047489 0.047506
0.043408 0.042653 0.042533
0.059820 0.059582 0.059578
0.058153 0.058108 0.057435
0.084119 0.083939 0.083529
0.088349 0.088570 0.088942
0.057541 0.056710 0.056265
0.069406 0.068825 0.068657
0.049454 0.049461 0.049638
0.095334 0.095562 0.095692
0.053123 0.053533 0.053436
0.123165 0.124515 0.125944
0.064626 0.064563 0.063883
0.135001 0.134308 0.132628
0.069235 0.068205 0.067162
0.052557 0.052243 0.051996
0.109124 0.109047 0.108683
0.145294 0.144024 0.140847
0.055029 0.055590 0.055783
0.162227 0.162102 0.162238
0.196746 0.197870 0.198948
0.068700 0.068788 0.069223
0.106407 0.106960 0.107058
0.046484 0.046422 0.046846
0.124794 0.124909 0.124813
0.098423 0.097744 0.096462
0.061787 0.062003 0.061564
0.123804 0.123275 0.123452
0.134426 0.134824 0.135169
0.113252 0.113926 0.113943
0.119920 0.119721 0.120024
0.040947 0.040957 0.040887
0.081568 0.082214 0.082271
0.323929 0.318963 0.299784
0.043883 0.043622 0.044273
0.107995 0.108614 0.109100
0.100750 0.099753 0.101707
0.073946 0.073460 0.073344
0.072111 0.072270 0.072236
0.044981 0.045127 0.044852
0.067375 0.067950 0.068809
0.126236 0.124172 0.124194
0.155396 0.155239 0.154267
0.134813 0.134527 0.134523
0.069398 0.070095 0.070270
0.043826 0.043717 0.043457
0.068099 0.068994 0.070142
0.107767 0.107356 0.107711
0.151279 0.156749 0.158177
0.110026 0.110223 0.110502
0.086461 0.086605 0.086324
0.044499 0.044967 0.045005
0.068776 0.069031 0.069248
0.058678 0.058488 0.058095
0.045254 0.045496 0.046274
0.052951 0.052965 0.053104
0.053069 0.052951 0.053174
0.049828 0.049970 0.050047
0.096778 0.096927 0.096982
0.077692 0.078137 0.078929
0.042628 0.042377 0.041937
0.069860 0.070158 0.070700
0.099847 0.100205 0.100590
0.165467 0.167589 0.167776
0.115962 0.116167 0.116134
0.107172 0.105607 0.104583
0.054666 0.054334 0.054319
0.108964 0.110056 0.110858
0.065761 0.066107 0.066157
0.129175 0.129647 0.129708
0.072606 0.073316 0.073507
0.124885 0.117867 0.116647
0.041231 0.041559 0.041264
0.108034 0.109569 0.109359
0.058809 0.058643 0.058929
0.062661 0.065792 0.066156
0.042899 0.042548 0.042710
0.047459 0.047452 0.047580
0.044984 0.045063 0.045512
0.126072 0.129205 0.134298
0.122072 0.122897 0.123662
0.046289 0.046207 0.045970
0.126886 0.126687 0.126077
0.045649 0.046051 0.045647
0.060011 0.059815 0.059309
0.077765 0.077688 0.077049
0.103300 0.100848 0.100092
0.125608 0.125683 0.126361
0.043472 0.043508 0.043227
0.106909 0.108035 0.108331
0.104828 0.104821 0.105379
0.043227 0.043181 0.042925
0.140488 0.140146 0.140111
0.118094 0.117987 0.117979
0.122710 0.123076 0.123257
0.100310 0.100636 0.100923
0.117205 0.122697 0.122911
0.061367 0.061362 0.061141
0.074521 0.074344 0.073884
0.049368 0.049090 0.048709
0.044590 0.044721 0.044924
0.058183 0.058022 0.057961
0.084763 0.084876 0.087995
0.072499 0.071398 0.069772
0.113179 0.113713 0.113961
0.067653 0.067633 0.067458
0.110862 0.113767 0.113585
0.087709 0.088245 0.088023
0.106622 0.106516 0.106679
0.162776 0.162857 0.162473
0.117083 0.116144 0.115934
0.136647 0.136553 0.136753
0.116393 0.115987 0.115701
0.119854 0.120182 0.120199
0.069994 0.069500 0.069082
0.060088 0.060172 0.060100
0.056048 0.056189 0.056139
0.103232 0.102886 0.102706
0.057969 0.057429 0.057534
0.132403 0.132386 0.132182
0.125871 0.126039 0.126215
0.063414 0.063035 0.063653
0.175696 0.177156 0.180918
0.101948 0.102905 0.102947
0.087209 0.089341 0.090237
0.067988 0.068020 0.067938
0.088339 0.088591 0.088589
0.065600 0.065612 0.066072
0.058386 0.058698 0.058778
0.069238 0.068842 0.069422
0.122854 0.119776 0.117035
0.056127 0.056075 0.056168
0.061664 0.061422 0.061276
0.104265 0.104191 0.103931
0.101439 0.100854 0.099836
0.053709 0.052715 0.052689
0.114078 0.112859 0.108079
0.085054 0.085089 0.085161
0.119415 0.115856 0.115535
0.095136 0.094983 0.094450
0.060318 0.060282 0.059221
0.055187 0.055026 0.054864
0.068539 0.069902 0.069955
0.056912 0.056942 0.057050
0.173981 0.173925 0.173881
0.130070 0.130363 0.130664
0.054308 0.054340 0.054388
0.058951 0.058917 0.058568
0.101314 0.102372 0.102470
0.130322 0.130502 0.131101
0.078961 0.080398 0.086475
0.068109 0.068247 0.068140
0.128192 0.128875 0.129414
0.055160 0.054611 0.054706
0.104553 0.104502 0.104332
0.043945 0.044370 0.044065
0.044491 0.044795 0.044808
0.078105 0.078045 0.078141
0.111550 0.111460 0.111447
0.043989 0.043574 0.043800
0.048004 0.047904 0.047955
0.109240 0.110040 0.109806
0.061654 0.061671 0.061406
0.044642 0.044801 0.045136
0.060776 0.060868 0.060925
0.106692 0.106487 0.106098
0.051342 0.052018 0.051826
0.058966 0.058129 0.057578
0.090525 0.092340 0.092294
0.059747 0.060067 0.062786
0.111024 0.111024 0.110719
0.053282 0.053134 0.053207
0.058488 0.058095 0.058076
0.096823 0.096756 0.096734
0.112483 0.112822 0.111302
0.051125 0.050303 0.050340
0.059958 0.059889 0.059790
0.064283 0.064468 0.064428
0.063048 0.063176 0.063557
0.208578 0.208613 0.208437
0.059251 0.059016 0.059169
0.049246 0.049471 0.049349
0.079165 0.079050 0.078797
0.042560 0.042590 0.042616
0.065005 0.065008 0.065061
0.120234 0.120246 0.120881
0.109506 0.109490 0.109607
0.152331 0.152297 0.152122
0.066117 0.066100 0.067731
0.127086 0.127869 0.127800
0.090278 0.090640 0.090799
0.083158 0.083069 0.083192
0.109290 0.109455 0.102286
0.051761 0.050730 0.050791
0.101216 0.102082 0.106444
0.099430 0.103485 0.103339
0.046946 0.046908 0.047259
0.100369 0.099318 0.093016
0.076195 0.076944 0.078848
0.116299 0.113172 0.107786
0.067816 0.067645 0.066932
0.115005 0.114213 0.114247
0.044658 0.044438 0.044094
0.058355 0.058128 0.058427
0.046018 0.045647 0.045685
0.132618 0.132725 0.134224
0.078153 0.079637 0.080293
0.136994 0.136947 0.136793
0.118025 0.117914 0.117655
0.128664 0.131755 0.131204
0.121682 0.122213 0.123023
0.101368 0.101433 0.101507
0.112980 0.114531 0.114758
0.126267 0.123307 0.126416
0.091865 0.092237 0.093347
0.132683 0.132492 0.132684
0.107104 0.106694 0.106510
0.066693 0.066864 0.065409
0.123775 0.123223 0.121526
0.043317 0.044063 0.043786
0.104136 0.104727 0.105467
0.106361 0.104860 0.098570
0.059173 0.059218 0.059852
0.045195 0.044874 0.044057
0.058547 0.058570 0.058861
0.141809 0.142624 0.142266
0.081661 0.081007 0.079820
0.070290 0.069635 0.070055
0.132154 0.126312 0.116482
0.092110 0.092001 0.090869
0.091057 0.091559 0.092063
0.057028 0.057130 0.056914
0.058522 0.058848 0.058785
0.121496 0.123524 0.123573
0.048369 0.048137 0.048538
0.171021 0.170883 0.171054
0.169139 0.168778 0.168846
0.105837 0.106213 0.106328
0.057699 0.057601 0.057454
0.111013 0.110878 0.110136
0.141308 0.141240 0.141526
0.106230 0.106779 0.108222
0.073160 0.072790 0.072762
0.058572 0.059927 0.059789
0.136047 0.135356 0.135193
0.044782 0.044626 0.044565
0.065695 0.065822 0.065490
0.050505 0.050877 0.051004
0.045019 0.045050 0.044564
0.108307 0.109478 0.110169
0.056352 0.056456 0.056744
0.038099 0.038031 0.037856
0.077028 0.076894 0.076403
0.097245 0.097559 0.099427
0.045625 0.045763 0.045522
0.132219 0.132766 0.132495
0.173263 0.168136 0.166636
0.089625 0.087423 0.087066
0.053327 0.053334 0.054102
0.140539 0.139279 0.139174
0.134883 0.134822 0.135725
0.044670 0.045106 0.044924
0.067880 0.068310 0.068703
0.111894 0.109677 0.104402
0.134405 0.134739 0.136504
0.076565 0.078181 0.078793
0.044067 0.044039 0.044359
0.049186 0.049224 0.048558
0.067169 0.067486 0.067410
0.047084 0.047193 0.047238
0.108720 0.104293 0.103687
0.103309 0.103738 0.104109
0.071055 0.071776 0.071823
0.084414 0.082622 0.082368
0.115604 0.117962 0.117427
0.080396 0.080289 0.079756
0.109346 0.108240 0.101227
0.047081 0.047203 0.047290
0.058272 0.057961 0.057800
0.049329 0.048677 0.048527
0.065312 0.065050 0.065141
0.157146 0.158358 0.158613
0.071875 0.071871 0.071883
0.126071 0.125009 0.124481
0.067224 0.067419 0.067610
0.102124 0.101507 0.101374
0.132229 0.132543 0.132476
0.096500 0.095939 0.095921
0.242926 0.242575 0.241656
0.103942 0.104071 0.104080
0.072737 0.071511 0.070379
0.059104 0.058191 0.058123
0.169137 0.168747 0.168853
0.079944 0.080407 0.086109
0.050898 0.050213 0.050199
0.106838 0.106492 0.106161
0.064313 0.064011 0.064074
0.080194 0.080152 0.080313
0.065238 0.065203 0.065167
0.120259 0.120256 0.119908
0.053554 0.053497 0.053826
0.102891 0.100610 0.100787
0.069944 0.069396 0.069502
0.067871 0.067546 0.067016
0.045660 0.045777 0.045880
0.109792 0.111146 0.117008
0.057643 0.057645 0.057473
0.050463 0.049945 0.049487
0.077720 0.077861 0.078474
0.098501 0.099136 0.099264
0.085182 0.085987 0.085677
0.121263 0.121549 0.121922
0.109567 0.109936 0.109795
0.059021 0.058608 0.059248
0.058156 0.058482 0.058489
0.060795 0.060887 0.060915
0.090559 0.090580 0.090576
0.066378 0.066313 0.066282
0.061043 0.061168 0.061424
0.135464 0.135734 0.135899
0.208077 0.208054 0.208503
0.060252 0.060256 0.060256
0.079594 0.080028 0.081080
0.062316 0.062428 0.062026
0.106379 0.106345 0.104407
0.098028 0.098668 0.100703
0.039354 0.039043 0.039853
0.081388 0.081336 0.081680
0.173092 0.173729 0.173940
0.062391 0.063250 0.063234
0.131783 0.131582 0.131201
0.133030 0.133653 0.133436
0.111865 0.112079 0.112710
0.046834 0.046933 0.046967
0.066231 0.066283 0.066617
0.082662 0.081680 0.081041
0.115668 0.115449 0.115511
0.086586 0.084422 0.084492
0.068052 0.067963 0.067807
0.063099 0.063187 0.063384
0.066107 0.066157 0.066102
0.124087 0.122854 0.119776
0.050069 0.049907 0.049879
0.039537 0.039638 0.040056
0.053519 0.053403 0.053357
0.044185 0.044024 0.044113
0.073631 0.073923 0.074718
0.103435 0.103206 0.103356
0.100735 0.100805 0.103300
0.057855 0.058157 0.058369
0.107059 0.106229 0.106046
0.101911 0.099098 0.097946
0.051669 0.052618 0.051897
0.118342 0.119553 0.120212
0.107945 0.107653 0.106909
0.186143 0.185852 0.185466
0.162428 0.162380 0.162360
0.111852 0.115580 0.118458
0.098341 0.098359 0.097502
0.072396 0.072354 0.072316
0.107184 0.107141 0.107338
0.149235 0.148731 0.148435
0.103106 0.121274 0.163982
0.119290 0.118959 0.118295
0.198171 0.199445 0.199887
0.090357 0.090639 0.090609
0.043978 0.044445 0.044906
0.103703 0.103275 0.102847
0.047635 0.047689 0.047990
0.047808 0.047467 0.047123
0.073982 0.073707 0.073480
0.065956 0.066559 0.066934
0.162023 0.161249 0.160714
0.171241 0.171208 0.171103
0.117928 0.117651 0.117538
0.111687 0.110828 0.109989
0.087688 0.087740 0.087298
0.045470 0.045349 0.046006
0.107080 0.107443 0.107213
0.055583 0.054001 0.053494
0.102751 0.104641 0.104537
0.064563 0.063883 0.064152
0.046414 0.048217 0.048604
0.063630 0.063916 0.062391
0.118392 0.118379 0.117688
0.062151 0.062149 0.062169
0.051956 0.051448 0.051294
0.052620 0.052671 0.052856
0.051598 0.051813 0.051845
0.130808 0.129542 0.128635
0.109763 0.113383 0.117696
0.077917 0.078258 0.078617
0.115383 0.110504 0.108644
0.041198 0.041436 0.041310
0.055743 0.056742 0.057131
0.104576 0.103034 0.103459
0.067897 0.067514 0.066971
0.053355 0.053406 0.053282
0.047375 0.047378 0.047939
0.122128 0.123592 0.123016
0.109844 0.116633 0.118208
0.101415 0.103153 0.104498
0.113759 0.113869 0.114876
0.120192 0.120188 0.120184
0.148401 0.140704 0.139199
0.090640 0.090799 0.090500
0.074496 0.074455 0.076250
0.111722 0.111553 0.111543
0.061829 0.061947 0.061651
0.215340 0.187727 0.156302
0.067297 0.067243 0.067555
0.043949 0.043987 0.043829
0.146781 0.146755 0.146897
0.161430 0.162230 0.162853
0.065199 0.065809 0.067180
0.128407 0.128283 0.129062
0.079579 0.079601 0.079593
0.121364 0.121129 0.122174
0.120005 0.121061 0.121603
0.056964 0.058438 0.058672
0.064210 0.063741 0.064006
0.069915 0.070089 0.070250
0.045467 0.045308 0.045299
0.096072 0.097073 0.098276
0.143383 0.148053 0.149120
0.103743 0.104545 0.104657
0.062295 0.063124 0.063537
0.120085 0.119563 0.120312
0.050796 0.050110 0.049489
0.058146 0.057760 0.057344
0.075078 0.067929 0.067312
0.116531 0.116744 0.117023
0.088499 0.089335 0.085255
0.110356 0.110724 0.110551
0.164847 0.160923 0.159524
0.095517 0.091626 0.091442
0.065018 0.064989 0.064979
0.096424 0.095633 0.094090
0.111883 0.112568 0.119253
0.119053 0.119204 0.118927
0.055793 0.056082 0.056351
0.064651 0.064243 0.064558
0.186946 0.186409 0.186130
0.128934 0.129721 0.129903
0.101971 0.108110 0.112174
0.088262 0.088797 0.089037
0.070091 0.071349 0.071875
0.079613 0.079469 0.079435
0.063306 0.063118 0.062331
0.129363 0.129096 0.132466
0.049575 0.049529 0.049939
0.058424 0.057986 0.058279
0.064990 0.065037 0.065096
0.104610 0.102793 0.102896
0.115274 0.115016 0.113192
0.131598 0.131842 0.131273
0.103513 0.102964 0.102806
0.141872 0.141926 0.141540
0.068120 0.068099 0.068103
0.171469 0.171389 0.171256
0.102739 0.102754 0.106125
0.065943 0.066184 0.066398
0.174860 0.176185 0.181497
0.068667 0.068475 0.068979
0.063236 0.063313 0.063420
0.074343 0.086363 0.096194
0.088109 0.088113 0.088351
0.060173 0.060023 0.060328
0.058656 0.059149 0.059290
0.057941 0.058361 0.058197
0.086367 0.085831 0.083855
0.113288 0.113598 0.113613
0.127324 0.129850 0.130173
0.049120 0.049250 0.049360
0.155015 0.155311 0.155368
0.124734 0.107994 0.104307
0.157762 0.158494 0.158723
0.068137 0.067496 0.067320
0.054394 0.053546 0.053519
0.098474 0.098546 0.098360
0.069989 0.073157 0.073204
0.239823 0.242367 0.243377
0.062514 0.062745 0.063264
0.130513 0.129448 0.129013
0.094689 0.094457 0.093778
0.102472 0.103039 0.103811
0.066839 0.066536 0.066310
0.091789 0.092141 0.092123
0.103060 0.102764 0.102962
0.135314 0.135215 0.135262
0.141828 0.141788 0.141668
0.106520 0.107643 0.106334
0.110325 0.110960 0.110998
0.135434 0.139365 0.143416
0.067505 0.067116 0.066816
0.042947 0.042537 0.042810
0.104308 0.106618 0.107005
0.123788 0.123247 0.121793
0.104515 0.106745 0.106577
0.069341 0.069622 0.069984
0.136788 0.136615 0.136246
0.102304 0.102622 0.104013
0.056596 0.056453 0.056379
0.096936 0.098098 0.098299
0.111224 0.111324 0.111000
0.073525 0.072971 0.072981
0.129914 0.132070 0.132364
0.097668 0.097784 0.098462
0.087055 0.088597 0.090298
0.044528 0.044775 0.044777
0.115417 0.115478 0.115437
0.069463 0.069752 0.069716
0.157242 0.156355 0.155544
0.099255 0.098160 0.097320
0.044400 0.044519 0.044409
0.110781 0.110770 0.111676
0.123061 0.122725 0.122015
0.073469 0.072417 0.072464
0.045982 0.045431 0.045493
0.056045 0.056245 0.056152
0.044651 0.044645 0.044523
0.134697 0.134883 0.134957
0.094077 0.094017 0.093026
0.048432 0.048432 0.048876
0.124288 0.124372 0.124101
0.197775 0.197655 0.196665
0.044766 0.044833 0.044722
