0.241416 0.241552 0.242327
0.217071 0.216260 0.215608
0.329822 0.330723 0.330967
0.322010 0.320890 0.332110
0.538404 0.538972 0.539098
0.375317 0.375686 0.375182
0.222341 0.226322 0.225588
0.224372 0.225936 0.226124
0.406167 0.406077 0.406218
0.366870 0.365055 0.362715
0.327436 0.324567 0.324475
0.341465 0.343206 0.337944
0.527472 0.527917 0.514920
0.548185 0.547802 0.547239
0.250647 0.249298 0.249828
0.506088 0.506372 0.506585
0.367318 0.367843 0.363883
0.271302 0.271857 0.274911
0.418074 0.419172 0.420223
0.222193 0.220481 0.221453
0.273809 0.274590 0.275620
0.206693 0.217454 0.221124
0.452691 0.448390 0.447263
0.308181 0.308466 0.311370
0.247325 0.246030 0.246240
0.381650 0.383586 0.383470
0.336042 0.337088 0.339057
0.229311 0.229714 0.230590
0.340213 0.343388 0.349267
0.367820 0.367106 0.364357
0.242085 0.242228 0.239928
0.256277 0.256253 0.255626
0.354741 0.355217 0.352197
0.429645 0.426019 0.428911
0.316330 0.316345 0.314561
0.414457 0.414040 0.413132
0.524357 0.469271 0.466359
0.247775 0.247880 0.247847
0.229060 0.229763 0.229991
0.248479 0.258159 0.258645
0.454497 0.458454 0.458856
0.427973 0.431314 0.449954
0.251138 0.250870 0.251188
0.235896 0.235813 0.234488
0.257280 0.257484 0.256896
0.247603 0.248826 0.248841
0.491627 0.491842 0.491312
0.275140 0.275423 0.276967
0.279294 0.271090 0.268850
0.380816 0.379871 0.378986
0.261731 0.263805 0.263153
0.413521 0.412157 0.411600
0.192928 0.198008 0.200130
0.275007 0.275397 0.276970
0.346700 0.344785 0.348014
0.427328 0.427717 0.428157
0.335337 0.338834 0.340195
0.382433 0.383141 0.383071
0.494167 0.502442 0.505986
0.281251 0.281229 0.282064
0.239703 0.238163 0.235621
0.256067 0.256422 0.260751
0.391888 0.389472 0.389013
0.240801 0.240335 0.240385
0.414536 0.424169 0.424676
0.432278 0.430096 0.430892
0.302746 0.299474 0.301391
0.211794 0.209411 0.205999
0.411248 0.410617 0.409377
0.400721 0.401642 0.402574
0.251124 0.254474 0.255563
0.250276 0.250981 0.253870
0.216136 0.217146 0.218020
0.262678 0.261512 0.262170
0.236786 0.236633 0.236597
0.401087 0.401158 0.409900
0.328616 0.325903 0.325058
0.550480 0.562498 0.562296
0.286057 0.287756 0.288187
0.421506 0.421811 0.421707
0.419733 0.430238 0.421561
0.248863 0.250150 0.250475
0.310191 0.310018 0.310206
0.339966 0.342027 0.342530
0.214945 0.214616 0.214745
0.322484 0.323181 0.324517
0.363211 0.363409 0.363193
0.261129 0.262269 0.269715
0.544722 0.528440 0.531335
0.389091 0.387933 0.377106
0.360890 0.391887 0.395499
0.225365 0.221172 0.221072
0.355422 0.363775 0.365323
0.444191 0.441521 0.439744
0.260282 0.260717 0.269408
0.234558 0.236411 0.238876
0.439463 0.437831 0.439018
0.318715 0.320656 0.324766
0.254918 0.255133 0.256168
0.301899 0.300697 0.301422
0.363142 0.361809 0.353206
0.406488 0.408149 0.408071
0.459731 0.462810 0.462414
0.260797 0.260557 0.252972
0.315784 0.312641 0.313577
0.457805 0.455843 0.455232
0.260255 0.260646 0.260858
0.206671 0.208095 0.208946
0.241573 0.241673 0.241476
0.325851 0.327221 0.327432
0.403606 0.400320 0.400296
0.254876 0.252595 0.250709
0.392499 0.392901 0.395507
0.474089 0.471048 0.470619
0.478311 0.475226 0.473106
0.508641 0.508236 0.507600
0.394252 0.391388 0.388133
0.416516 0.414972 0.415373
0.263187 0.262722 0.262810
0.237520 0.237848 0.239317
0.219733 0.219682 0.219285
0.549089 0.546769 0.544722
0.442643 0.441748 0.441267
0.282538 0.284036 0.288017
0.428602 0.427642 0.423770
0.311341 0.309813 0.310049
0.422183 0.422754 0.427105
0.388379 0.386411 0.387474
0.269957 0.270098 0.269309
0.438581 0.438865 0.439471
0.302995 0.301730 0.301110
0.492847 0.494997 0.495603
0.242798 0.242856 0.242304
0.321720 0.321363 0.320687
0.333504 0.333055 0.333484
0.410042 0.410608 0.412438
0.374364 0.373058 0.371603
0.382446 0.383241 0.377304
0.228837 0.228753 0.230933
0.253990 0.254958 0.255037
0.229155 0.228441 0.228220
0.257816 0.253943 0.253291
0.460789 0.460510 0.461065
0.219174 0.219282 0.217158
0.398109 0.398090 0.395424
0.517699 0.518244 0.516845
0.351755 0.354320 0.356955
0.228218 0.228682 0.227873
0.394307 0.394322 0.394251
0.236580 0.233890 0.231990
0.456905 0.486077 0.494371
0.389082 0.389652 0.389392
0.253172 0.252015 0.251715
0.236090 0.236633 0.235834
0.439929 0.440150 0.439264
0.233678 0.234631 0.235242
0.212403 0.214267 0.212500
0.435081 0.430466 0.428728
0.290584 0.289461 0.290142
0.240524 0.239818 0.239553
0.357150 0.359719 0.356599
0.216028 0.217976 0.217958
0.296312 0.293065 0.292167
0.397356 0.397757 0.396696
0.384443 0.390552 0.391108
0.492291 0.492346 0.492922
0.409587 0.414376 0.416440
0.234653 0.234926 0.238193
0.262227 0.263533 0.262376
0.220054 0.220027 0.221109
0.331523 0.330794 0.332803
0.411947 0.411574 0.409052
0.320902 0.320705 0.320007
0.373116 0.372048 0.372641
0.456807 0.458264 0.458788
0.242522 0.241547 0.239856
0.311111 0.309334 0.309462
0.264924 0.264744 0.264251
0.287098 0.290032 0.296665
0.240046 0.239363 0.239273
0.364683 0.362050 0.361045
0.404644 0.406829 0.395018
0.319113 0.316261 0.313034
0.211722 0.208299 0.207769
0.212238 0.218599 0.220834
0.324001 0.320965 0.317526
0.252070 0.253113 0.253371
0.350971 0.348275 0.349028
0.201046 0.200769 0.200741
0.282196 0.282758 0.283239
0.289588 0.289647 0.286499
0.247558 0.249323 0.250285
0.381358 0.380910 0.381780
0.287964 0.291218 0.296564
0.381379 0.383016 0.384150
0.370601 0.370215 0.369630
0.453818 0.437058 0.437224
0.416901 0.414785 0.414828
0.224215 0.224805 0.220746
0.316880 0.317988 0.316947
0.246629 0.247392 0.251140
0.390280 0.390088 0.390865
0.250785 0.260427 0.261813
0.251928 0.251909 0.249653
0.223983 0.226149 0.227796
0.397106 0.407059 0.412166
0.255632 0.256430 0.256816
0.258140 0.259199 0.255683
0.247162 0.246770 0.245563
0.465679 0.465672 0.466543
0.385066 0.387159 0.385968
0.240128 0.239632 0.239264
0.217397 0.219241 0.218844
0.245421 0.245199 0.244418
0.247048 0.247274 0.247823
0.424705 0.427611 0.437704
0.345149 0.347297 0.347204
0.254002 0.255320 0.253750
0.248220 0.247887 0.247901
0.475779 0.474325 0.464980
0.382076 0.382390 0.377560
0.490597 0.487421 0.485182
0.370276 0.367655 0.367554
0.299967 0.299230 0.300060
0.366196 0.363080 0.361104
0.249724 0.249746 0.249890
0.225413 0.225272 0.225690
0.377588 0.375123 0.365440
0.442901 0.425122 0.424375
0.238907 0.239723 0.238081
0.296954 0.299954 0.302565
0.243886 0.245637 0.254389
0.347649 0.347257 0.348930
0.314829 0.314551 0.314207
0.394776 0.394592 0.392311
0.380556 0.379162 0.377097
0.424959 0.421267 0.420191
0.207585 0.207049 0.206124
0.251352 0.245993 0.241066
0.233674 0.232931 0.231787
0.407111 0.410507 0.411021
0.351404 0.348481 0.346261
0.413367 0.414662 0.414853
0.285870 0.283416 0.279783
0.301447 0.300793 0.300637
0.273401 0.274788 0.274387
0.421871 0.422675 0.422257
0.410622 0.411629 0.413395
0.298344 0.299996 0.304365
0.376441 0.376474 0.384612
0.338785 0.336313 0.341658
0.208042 0.206784 0.205972
0.208180 0.206159 0.206149
0.273904 0.273737 0.275274
0.336847 0.348953 0.349818
0.489706 0.489510 0.490324
0.237994 0.239355 0.240151
0.233698 0.233869 0.233780
0.340191 0.341944 0.342167
0.274838 0.274860 0.275357
0.366631 0.365592 0.363345
0.222838 0.223172 0.223462
0.370283 0.372291 0.376694
0.243570 0.242737 0.241627
0.475196 0.460468 0.459871
0.254969 0.253994 0.253126
0.348998 0.344500 0.326584
0.434860 0.440682 0.441417
0.542502 0.542870 0.543088
0.504094 0.503145 0.495110
0.244382 0.242517 0.241648
0.331784 0.330036 0.328672
0.440001 0.428686 0.429084
0.251099 0.251372 0.250529
0.449135 0.457449 0.457437
0.227393 0.228369 0.230126
0.446946 0.433919 0.430652
0.395309 0.395079 0.393540
0.290067 0.290188 0.289881
0.410807 0.412979 0.408735
0.226686 0.227818 0.230756
0.323484 0.325564 0.323335
0.232853 0.233115 0.232641
0.249276 0.249433 0.249784
0.226258 0.224027 0.223493
0.263253 0.262329 0.261480
0.383421 0.387387 0.388102
0.229694 0.230652 0.229952
0.480179 0.481485 0.484914
0.358899 0.354892 0.354649
0.319782 0.316957 0.321691
0.229879 0.230691 0.232406
0.211968 0.210216 0.208498
0.299754 0.300230 0.301236
0.260993 0.259250 0.260264
0.359980 0.359895 0.383623
0.234784 0.234398 0.228331
0.388109 0.389091 0.384835
0.478983 0.489706 0.489510
0.293675 0.295358 0.295375
0.330015 0.329175 0.329406
0.261371 0.260311 0.253805
0.188772 0.188130 0.187416
0.312459 0.310276 0.311809
0.397079 0.395675 0.391171
0.353669 0.353475 0.352141
0.208426 0.206506 0.206735
0.219685 0.219501 0.221313
0.254956 0.251622 0.251581
0.527065 0.526325 0.526484
0.248568 0.249700 0.250051
0.261209 0.251758 0.253129
0.523317 0.524363 0.525407
0.356570 0.358932 0.367518
0.427295 0.428347 0.428419
0.218020 0.217923 0.219058
0.539325 0.534281 0.534230
0.250557 0.251307 0.251427
0.220102 0.219142 0.219445
0.282552 0.284681 0.287440
0.495820 0.497008 0.497321
0.447676 0.445886 0.447952
0.452467 0.429287 0.430295
0.372261 0.376556 0.377697
0.412079 0.412076 0.411191
0.214877 0.214077 0.214373
0.225164 0.225316 0.224591
0.331807 0.331261 0.328404
0.249867 0.249724 0.249746
0.317178 0.316014 0.316266
0.419254 0.416659 0.415015
0.215439 0.211160 0.209212
0.249153 0.246517 0.246715
0.510575 0.512487 0.518221
0.367057 0.368335 0.367926
0.339527 0.339673 0.342241
0.369573 0.369509 0.366099
0.467186 0.467308 0.468216
0.346833 0.345142 0.345266
0.408282 0.409553 0.410900
0.313364 0.307236 0.306982
0.234964 0.235348 0.235359
0.207985 0.207025 0.207459
0.330933 0.335356 0.335873
0.230887 0.230478 0.229467
0.241580 0.241526 0.242629
0.493290 0.492874 0.480883
0.412511 0.411916 0.410824
0.380942 0.379711 0.380443
0.506521 0.506496 0.506345
0.535194 0.534085 0.533354
0.305012 0.298496 0.294271
0.434361 0.433909 0.431289
0.290593 0.290414 0.290247
0.277049 0.272157 0.272610
0.245235 0.244490 0.244870
0.222855 0.222770 0.223119
0.265430 0.271221 0.272046
0.504633 0.503650 0.500976
0.320022 0.317641 0.315202
0.363582 0.359434 0.353663
0.213225 0.212868 0.215157
0.228978 0.227831 0.228416
0.421672 0.423085 0.415519
0.500433 0.500050 0.498782
0.259884 0.259806 0.260639
0.242214 0.241984 0.241563
0.412727 0.412742 0.412855
0.493341 0.493340 0.493801
0.255039 0.254997 0.252084
0.532648 0.533517 0.534984
0.328087 0.330065 0.331056
0.277597 0.281237 0.280391
0.338853 0.337264 0.336367
0.244637 0.240968 0.240438
0.494514 0.498547 0.496516
0.257904 0.258718 0.259305
0.247412 0.246934 0.248147
0.404720 0.408929 0.408355
0.283924 0.285009 0.289371
0.375753 0.374381 0.369029
0.425480 0.426537 0.428958
0.452422 0.453069 0.452990
0.411801 0.417998 0.418511
0.233182 0.232572 0.234834
0.200747 0.200444 0.201561
0.476166 0.477210 0.479269
0.275097 0.275192 0.275163
0.242952 0.242119 0.241892
0.309846 0.310639 0.309342
0.206577 0.207230 0.207559
0.456923 0.457004 0.457334
0.364183 0.363480 0.365192
0.297190 0.298489 0.298091
0.398584 0.402023 0.403381
0.364589 0.365848 0.365249
0.405709 0.407425 0.407845
0.266882 0.256874 0.256074
0.412422 0.411785 0.412217
0.415650 0.415979 0.415248
0.265081 0.259066 0.260286
0.206381 0.208547 0.208183
0.240661 0.240922 0.243899
0.329051 0.322478 0.315668
0.475109 0.474662 0.473726
0.324543 0.319333 0.318624
0.304863 0.304737 0.301850
0.396228 0.395304 0.395309
0.258626 0.258062 0.256823
0.381249 0.383134 0.385447
0.460080 0.459358 0.458831
0.500044 0.495363 0.480895
0.359615 0.361147 0.361896
0.260397 0.257747 0.256446
0.248556 0.251153 0.250713
0.229478 0.229236 0.227229
0.493340 0.493801 0.494137
0.249462 0.250705 0.251248
0.347636 0.346268 0.345939
0.435284 0.434633 0.432294
0.379117 0.377576 0.358200
0.250117 0.250964 0.250117
0.319769 0.322935 0.325371
0.477097 0.477178 0.480043
0.348277 0.347874 0.347414
0.300680 0.301604 0.304989
0.494736 0.491564 0.492229
0.330003 0.333675 0.335264
0.419009 0.420375 0.422491
0.456004 0.453124 0.449877
0.293380 0.294469 0.294488
0.339673 0.335305 0.330905
0.429275 0.425503 0.424361
0.222544 0.221538 0.220528
0.361179 0.361714 0.359336
0.359957 0.361167 0.361898
0.311231 0.309749 0.309250
0.496371 0.498171 0.506636
0.427551 0.427114 0.427006
0.249142 0.249134 0.249324
0.208010 0.207423 0.207566
0.482181 0.481832 0.470979
0.246287 0.247336 0.248821
0.228120 0.228731 0.229233
0.282903 0.283740 0.282911
0.244708 0.242056 0.241263
0.252770 0.253456 0.253754
0.207329 0.207675 0.206021
0.268378 0.271604 0.277140
0.250890 0.250497 0.249786
0.506023 0.506431 0.510141
0.496517 0.496413 0.496380
0.236787 0.239097 0.241987
0.282909 0.282126 0.282803
0.247295 0.247337 0.249773
0.374016 0.376025 0.373536
0.248588 0.248566 0.248706
0.243568 0.243926 0.243886
0.254674 0.255238 0.253680
0.354814 0.353765 0.353886
0.427328 0.427089 0.426571
0.317589 0.317632 0.316502
0.245175 0.240758 0.241649
0.238579 0.239737 0.240356
0.261323 0.262823 0.259517
0.503112 0.503049 0.502973
0.465473 0.462094 0.459216
0.398152 0.399401 0.400885
0.382884 0.374514 0.372744
0.285966 0.286160 0.286671
0.375668 0.375089 0.375159
0.446614 0.446657 0.444801
0.204331 0.205701 0.209052
0.273512 0.273331 0.272610
0.288332 0.288142 0.287671
0.237194 0.223628 0.224627
0.524271 0.528326 0.528124
0.329032 0.331058 0.340461
0.343146 0.344789 0.346807
0.311417 0.312382 0.311990
0.227307 0.228126 0.226695
0.286165 0.286903 0.292626
0.423875 0.425217 0.428944
0.296130 0.296537 0.297485
0.439073 0.437442 0.439371
0.325737 0.325875 0.325567
0.229531 0.230296 0.230320
0.366081 0.365401 0.363403
0.247062 0.247608 0.248728
0.435998 0.433853 0.436231
0.395350 0.397938 0.396025
0.327221 0.327432 0.324170
0.334733 0.335962 0.335755
0.494839 0.484639 0.489571
0.276272 0.277088 0.276256
0.260873 0.255672 0.253346
0.242868 0.240600 0.241201
0.272569 0.273067 0.272853
0.362128 0.362339 0.363385
0.251255 0.267543 0.268502
0.310870 0.311436 0.311341
0.252098 0.252665 0.252324
0.332186 0.334107 0.335061
0.317454 0.317081 0.317430
0.456071 0.454454 0.454994
0.247226 0.244114 0.241888
0.281830 0.285162 0.287333
0.488809 0.484331 0.485109
0.225292 0.222709 0.222627
0.550644 0.546332 0.544619
0.500864 0.499514 0.498498
0.220635 0.221297 0.222371
0.223302 0.223054 0.223204
0.551854 0.558887 0.559083
0.415534 0.406696 0.408287
0.202079 0.204125 0.204124
0.322537 0.322730 0.323211
0.403256 0.409650 0.408452
0.531120 0.530145 0.528543
0.379834 0.369124 0.343114
0.272726 0.272177 0.268782
0.292363 0.292446 0.289600
0.220776 0.220296 0.221450
0.318467 0.318888 0.317894
0.372048 0.372641 0.372770
0.250475 0.251203 0.248953
0.328625 0.325519 0.324642
0.326431 0.325637 0.323596
0.348605 0.348656 0.348141
0.210179 0.210287 0.209766
0.211003 0.210298 0.209661
0.404311 0.403785 0.404899
0.428489 0.428593 0.429419
0.409875 0.413151 0.417632
0.315065 0.312693 0.310458
0.309079 0.309352 0.308555
0.412183 0.414081 0.415289
0.425410 0.423337 0.439254
0.243841 0.244904 0.245852
0.406696 0.408287 0.410226
0.209342 0.211003 0.210298
0.229132 0.231240 0.232534
0.310201 0.309856 0.309960
0.222241 0.225212 0.226542
0.334703 0.329007 0.327541
0.418648 0.417494 0.413675
0.366923 0.366257 0.363957
0.207675 0.206021 0.205665
0.323570 0.280997 0.273512
0.284781 0.284822 0.283992
0.238196 0.238493 0.236417
0.360635 0.360818 0.360358
0.362571 0.361580 0.361793
0.256251 0.258030 0.259521
0.516708 0.516054 0.515815
0.363419 0.364286 0.363762
0.303625 0.301740 0.301720
0.301056 0.300767 0.303154
0.215290 0.208411 0.207027
0.272485 0.273566 0.269643
0.252230 0.252674 0.254131
0.399640 0.388572 0.388467
0.405063 0.408381 0.409082
0.441196 0.441821 0.441051
0.502627 0.503264 0.503296
0.253533 0.256469 0.255502
0.203004 0.201989 0.200762
0.302431 0.302380 0.301424
0.207599 0.206847 0.205231
0.365218 0.386076 0.388559
0.373262 0.371951 0.371809
0.369464 0.372114 0.370566
0.372702 0.371647 0.371966
0.189817 0.189437 0.189228
0.251993 0.249874 0.247693
0.434024 0.446811 0.448487
0.268984 0.268751 0.267227
0.329438 0.331793 0.333418
0.321236 0.325351 0.336709
0.345940 0.345390 0.343889
0.303159 0.301712 0.301867
0.258172 0.258144 0.258335
0.431294 0.431370 0.440558
0.319355 0.318527 0.317589
0.480243 0.486652 0.492601
0.406351 0.404530 0.405354
0.384150 0.383843 0.385214
0.370009 0.375971 0.376022
0.308594 0.307253 0.306560
0.255393 0.255301 0.255134
0.247925 0.244533 0.243798
0.442692 0.440500 0.437307
0.478542 0.477873 0.478883
0.502628 0.500946 0.500383
0.301203 0.300828 0.301342
0.371951 0.371809 0.371407
0.227781 0.233396 0.233342
0.236588 0.235748 0.234136
0.373786 0.372164 0.373641
0.260485 0.259481 0.259481
0.313068 0.312683 0.312040
0.524686 0.522965 0.523123
0.239456 0.238185 0.239055
0.415026 0.414157 0.415658
0.374077 0.383129 0.375316
0.251134 0.254509 0.254647
0.264243 0.265425 0.265400
0.273083 0.276446 0.277673
0.293039 0.303433 0.302645
0.220344 0.220411 0.220074
0.384477 0.382573 0.382289
0.351280 0.349837 0.348886
0.251027 0.250615 0.248220
0.348001 0.348019 0.347336
0.305440 0.309079 0.309352
0.234027 0.231832 0.233053
0.282396 0.282733 0.283362
0.235425 0.235206 0.235937
0.300111 0.304026 0.301753
0.262871 0.262961 0.264499
0.405381 0.403337 0.401935
0.290395 0.290202 0.290070
0.330259 0.330990 0.332504
0.404224 0.409372 0.409962
0.242728 0.243104 0.243044
0.253479 0.254878 0.261415
0.460404 0.461103 0.459130
0.231555 0.239238 0.240541
0.260730 0.260903 0.256803
0.256952 0.257816 0.253943
0.366663 0.364960 0.362883
0.343223 0.342979 0.342733
0.237652 0.237936 0.237622
0.373310 0.372977 0.372935
0.280482 0.283921 0.284533
0.230320 0.229837 0.229934
0.270096 0.267574 0.267684
0.375241 0.375263 0.366297
0.372894 0.373987 0.380425
0.218119 0.212346 0.210953
0.301229 0.301150 0.301034
0.296211 0.299343 0.319704
0.198705 0.197718 0.191287
0.492874 0.480883 0.477779
0.394198 0.393466 0.394192
0.287103 0.284654 0.270437
0.473942 0.476934 0.481804
0.382093 0.381732 0.377596
0.231827 0.231362 0.232568
0.222261 0.222138 0.222095
0.411524 0.412671 0.412288
0.479380 0.479229 0.478031
0.405623 0.404247 0.403468
0.388469 0.389923 0.391382
0.379711 0.380443 0.383509
0.309955 0.310910 0.310442
0.248968 0.244552 0.243659
0.311360 0.309179 0.309208
0.284094 0.284265 0.283034
0.402099 0.401036 0.402363
0.492567 0.495948 0.495434
0.429939 0.428485 0.429871
0.294447 0.294850 0.294642
0.346975 0.346700 0.344785
0.310831 0.316098 0.317966
0.417574 0.415075 0.413341
0.255078 0.255604 0.255967
0.229755 0.229585 0.219097
0.539273 0.539325 0.534281
0.487843 0.490030 0.490418
0.262210 0.261323 0.262823
0.254389 0.257880 0.257539
0.269386 0.269207 0.265315
0.420809 0.420271 0.419437
0.345337 0.344928 0.344646
0.415871 0.415523 0.413646
0.254790 0.253172 0.252015
0.410672 0.399599 0.399655
0.442721 0.454722 0.456180
0.412828 0.412878 0.412913
0.343739 0.343679 0.343527
0.197537 0.194551 0.191439
0.438748 0.431915 0.430295
0.402731 0.401468 0.401752
0.208183 0.207917 0.221406
0.268160 0.268866 0.269281
0.235137 0.231053 0.227897
0.247337 0.246453 0.246413
0.219929 0.219727 0.219644
0.429786 0.434497 0.436681
0.428837 0.447756 0.451436
0.257748 0.259082 0.258849
0.303226 0.308000 0.308354
0.205482 0.206491 0.207225
0.315486 0.321261 0.323055
0.397846 0.398222 0.398656
0.247830 0.247388 0.244853
0.300102 0.300608 0.302313
0.246294 0.244563 0.245148
0.370230 0.371795 0.375564
0.253540 0.256387 0.259238
0.409580 0.407571 0.405669
0.359112 0.360998 0.360591
0.449937 0.454276 0.455891
0.344245 0.348559 0.347367
0.497456 0.495595 0.495081
0.517426 0.516336 0.517335
0.252012 0.250040 0.249214
0.358390 0.358770 0.358516
0.379565 0.378565 0.370098
0.207471 0.205945 0.207114
0.251907 0.250702 0.248310
0.411359 0.412173 0.413198
0.371809 0.371407 0.386903
0.312416 0.306074 0.306626
0.341072 0.342222 0.341762
0.357630 0.344408 0.342937
0.316832 0.319218 0.321101
0.471623 0.473672 0.478228
0.606419 0.605102 0.586590
0.443914 0.444035 0.445370
0.497108 0.496477 0.495698
0.253134 0.253930 0.250817
0.264062 0.263825 0.263925
0.320763 0.318317 0.313994
0.436442 0.438452 0.439202
0.207891 0.207452 0.207880
0.259017 0.258340 0.255895
0.349008 0.346655 0.345477
0.252453 0.248709 0.254652
0.352815 0.344038 0.343756
0.302644 0.299610 0.297067
0.310710 0.313198 0.312170
0.323653 0.320431 0.323035
0.474569 0.477965 0.480518
0.515326 0.517870 0.527493
0.232351 0.232871 0.236338
0.437531 0.438392 0.420072
0.381725 0.380373 0.374699
0.398908 0.408825 0.418618
0.233368 0.233300 0.232374
0.297951 0.299055 0.299139
0.371235 0.371649 0.372653
0.462588 0.462332 0.461032
0.408335 0.407779 0.409874
0.465723 0.465505 0.465469
0.472855 0.470566 0.466399
0.514585 0.514610 0.518568
0.249132 0.246695 0.246932
0.251206 0.255783 0.257846
0.228712 0.234989 0.236754
0.469184 0.468777 0.468903
0.234918 0.235057 0.234296
0.379762 0.381080 0.381548
0.216665 0.216303 0.217351
0.477108 0.480842 0.480239
0.248500 0.249211 0.249587
0.239296 0.238932 0.230616
0.488667 0.486125 0.488300
0.475503 0.477291 0.477982
0.268024 0.271515 0.276786
0.279914 0.282543 0.282233
0.266622 0.268543 0.270737
0.369194 0.368703 0.367440
0.492221 0.492353 0.492016
0.253794 0.252357 0.250703
0.406251 0.408880 0.410178
0.315102 0.316515 0.327117
0.392775 0.392048 0.392684
0.408499 0.406061 0.404172
0.337573 0.336981 0.338079
0.472555 0.474473 0.474976
0.398352 0.398330 0.398289
0.390088 0.390865 0.384644
0.233369 0.231537 0.230696
0.405555 0.406756 0.410103
0.213895 0.215461 0.216009
0.496524 0.497848 0.498161
0.246907 0.245015 0.241135
0.283342 0.284452 0.287953
0.230300 0.230175 0.230406
0.233668 0.232921 0.232570
0.346867 0.346742 0.345012
0.272807 0.273742 0.274022
0.221864 0.221334 0.219253
0.373277 0.373601 0.377883
0.419246 0.419611 0.421827
0.249156 0.251047 0.252330
0.381343 0.380646 0.381116
0.408735 0.407786 0.405776
0.421966 0.421830 0.425902
0.198900 0.200358 0.201586
0.517265 0.515164 0.515432
0.241155 0.241070 0.240546
0.234259 0.228287 0.228630
0.209043 0.213665 0.214113
0.349995 0.350274 0.350249
0.194260 0.191933 0.190880
0.422425 0.429313 0.432286
0.422629 0.421538 0.423580
0.235401 0.236242 0.240122
0.269413 0.266622 0.268543
0.413657 0.399758 0.394705
0.369255 0.370154 0.366679
0.398326 0.398856 0.401671
0.233529 0.233698 0.233076
0.211523 0.213743 0.222676
0.464038 0.469084 0.472740
0.248884 0.247552 0.245278
0.347778 0.351622 0.351281
0.300196 0.304144 0.322529
0.251204 0.255771 0.258841
0.439917 0.439889 0.440001
0.403173 0.403250 0.399858
0.478704 0.479755 0.481061
0.299392 0.298246 0.298177
0.225118 0.226195 0.226176
0.362934 0.364417 0.363317
0.429451 0.431407 0.428138
0.364141 0.365155 0.366463
0.309545 0.309277 0.308506
0.284728 0.283412 0.284712
0.371647 0.372423 0.373858
0.238127 0.238787 0.240216
0.256514 0.257972 0.254488
0.239561 0.242074 0.244322
0.445261 0.445354 0.452114
0.190180 0.191317 0.191122
0.443968 0.444425 0.445371
0.463095 0.467083 0.466449
0.341161 0.340644 0.339090
0.239763 0.244877 0.245354
0.217945 0.217081 0.215743
0.389676 0.385044 0.382454
0.383180 0.387924 0.387920
0.328729 0.328320 0.325680
0.420060 0.419053 0.418430
0.551828 0.550676 0.551838
0.319370 0.319835 0.324363
0.454573 0.453502 0.445099
0.232354 0.232237 0.232302
0.400508 0.399459 0.405500
0.358779 0.355231 0.361996
0.272788 0.274668 0.275347
0.274499 0.276125 0.276394
0.475878 0.483935 0.488889
0.360740 0.361386 0.362309
0.380503 0.380816 0.379871
0.385172 0.384495 0.381547
0.243036 0.239254 0.241485
0.379500 0.377743 0.378298
0.289995 0.290108 0.289467
0.361477 0.362519 0.360464
0.399740 0.399930 0.400883
0.258665 0.251958 0.254029
0.207001 0.208261 0.207719
0.330691 0.331740 0.331715
0.522013 0.515206 0.514935
0.390140 0.390372 0.394349
0.246823 0.246530 0.247114
0.393074 0.391382 0.382130
0.241040 0.237151 0.223626
0.379535 0.379112 0.383583
0.357810 0.356823 0.354279
0.246467 0.242582 0.241817
0.240278 0.239236 0.236324
0.402389 0.403064 0.403763
0.229198 0.229128 0.228418
0.245787 0.244565 0.243555
0.294375 0.294470 0.294316
0.419476 0.419246 0.419611
0.241321 0.241485 0.241190
0.421608 0.421113 0.418270
0.462167 0.464038 0.469084
0.467127 0.467225 0.467311
0.209102 0.209153 0.208681
0.353336 0.353747 0.351941
0.247271 0.247579 0.248072
0.461714 0.460598 0.460550
0.257359 0.255910 0.258553
0.421268 0.420921 0.419776
0.200114 0.197358 0.198141
0.282790 0.283162 0.283474
0.379332 0.375739 0.373878
0.254755 0.256035 0.256795
0.286456 0.286454 0.286603
0.346163 0.347324 0.346016
0.268594 0.268527 0.271101
0.328672 0.319401 0.317439
0.224169 0.224297 0.227316
0.250006 0.249866 0.248739
0.237837 0.237897 0.237168
0.300784 0.300725 0.301146
0.267264 0.268551 0.267701
0.285963 0.286456 0.289029
0.320762 0.320859 0.321788
0.312077 0.313858 0.313494
0.592660 0.594331 0.610714
0.412288 0.411870 0.411086
0.491359 0.496034 0.493802
0.430869 0.429080 0.427213
0.247530 0.246885 0.246448
0.236007 0.235444 0.235170
0.420590 0.416143 0.414729
0.466734 0.470460 0.473875
0.231592 0.229856 0.228960
0.466780 0.467186 0.467308
0.487626 0.487739 0.487894
0.559178 0.559209 0.558184
0.382637 0.387845 0.380640
0.451270 0.451886 0.451924
0.248103 0.249044 0.252167
0.482074 0.479935 0.475412
0.295205 0.297157 0.295067
0.270795 0.271279 0.271539
0.295168 0.294720 0.280994
0.425583 0.435489 0.438508
0.508340 0.505563 0.499327
0.368851 0.369798 0.368593
0.462376 0.461850 0.461758
0.320031 0.326053 0.326532
0.276602 0.276013 0.275427
0.268387 0.268796 0.273778
0.206038 0.206304 0.207624
0.313896 0.310435 0.312459
0.454533 0.461030 0.461869
0.252944 0.253301 0.255680
0.235278 0.229440 0.232483
0.249513 0.249588 0.251702
0.232350 0.232271 0.230232
0.208228 0.207186 0.204388
0.279135 0.278963 0.279900
0.397840 0.398107 0.398061
0.486850 0.478307 0.479540
0.507245 0.505302 0.508884
0.402739 0.402163 0.399922
0.220746 0.220059 0.220001
0.448630 0.446274 0.441157
0.386260 0.372984 0.368724
0.437704 0.438601 0.420098
0.362358 0.379893 0.380664
0.270075 0.272311 0.273613
0.312992 0.310443 0.298965
0.360998 0.360591 0.363385
0.416355 0.414808 0.409428
0.395477 0.394720 0.390750
0.341538 0.343266 0.361165
0.205555 0.202721 0.201093
0.434694 0.435676 0.435311
0.367489 0.369955 0.364924
0.460813 0.470544 0.476003
0.257222 0.254346 0.255839
0.229927 0.229567 0.229478
0.453217 0.450659 0.451720
0.262900 0.262755 0.261843
0.257220 0.256976 0.257732
0.341886 0.344774 0.342258
0.369879 0.369061 0.368925
0.207680 0.208791 0.210283
0.480554 0.479299 0.477454
0.524553 0.499346 0.497456
0.411274 0.411309 0.413026
0.256618 0.258787 0.259100
0.210819 0.211416 0.207399
0.219250 0.224194 0.226029
0.203696 0.200596 0.201134
0.376920 0.376928 0.382028
0.433853 0.439386 0.438509
0.212463 0.214198 0.213476
0.241929 0.246054 0.249820
0.457930 0.459783 0.460965
0.288838 0.287965 0.288213
0.272853 0.275432 0.276598
0.305576 0.297913 0.298216
0.515830 0.525218 0.524440
0.413456 0.412662 0.413169
0.436578 0.436503 0.434852
0.338764 0.327653 0.329382
0.320345 0.320156 0.320085
0.342295 0.342788 0.343032
0.292492 0.292979 0.294198
0.269314 0.270341 0.267517
0.230338 0.230234 0.230258
0.334978 0.336630 0.337427
0.438098 0.439849 0.439581
0.341722 0.342035 0.342377
0.220558 0.220857 0.221511
0.203703 0.202813 0.203378
0.394000 0.394128 0.392453
0.246692 0.246556 0.245859
0.219202 0.220003 0.222702
0.380998 0.381821 0.379643
0.231749 0.230471 0.226572
0.500192 0.499259 0.498511
0.417145 0.416534 0.415171
0.286867 0.286587 0.286159
0.327701 0.325186 0.324874
0.387361 0.383422 0.383816
0.413937 0.414003 0.411342
0.370636 0.369802 0.368603
