0.092681 0.093779 0.094011
0.164622 0.182116 0.184317
0.162023 0.160327 0.156466
0.050475 0.047454 0.046646
0.174911 0.174914 0.174865
0.226505 0.226710 0.226893
0.224708 0.224521 0.226533
0.183809 0.182382 0.182820
0.089943 0.090332 0.090339
0.203738 0.213751 0.215510
0.089091 0.089076 0.089363
0.075575 0.074704 0.074058
0.163826 0.163718 0.163529
0.171440 0.171394 0.172128
0.187416 0.189731 0.189518
0.123930 0.124945 0.125224
0.132291 0.135759 0.144022
0.196000 0.196786 0.197068
0.224332 0.221088 0.221200
0.124283 0.125381 0.125444
0.134382 0.135520 0.135244
0.201621 0.199993 0.199004
0.196315 0.196118 0.195424
0.166326 0.165442 0.165590
0.123441 0.123578 0.123898
0.163464 0.161659 0.159006
0.044662 0.044704 0.044746
0.181596 0.181370 0.180370
0.130769 0.131456 0.131489
0.311320 0.311372 0.311643
0.149728 0.149753 0.149753
0.198136 0.197841 0.195584
0.171210 0.171131 0.170429
0.122321 0.113120 0.111118
0.140486 0.139939 0.140116
0.181641 0.181302 0.180959
0.233220 0.233037 0.232232
0.150995 0.151698 0.151819
0.180045 0.180091 0.179765
0.091433 0.093823 0.094464
0.146624 0.145482 0.144823
0.198603 0.198590 0.198489
0.217078 0.216997 0.215755
0.170565 0.169653 0.182368
0.129208 0.127979 0.127537
0.083323 0.086513 0.087410
0.192373 0.191557 0.191744
0.126855 0.125662 0.124163
0.106617 0.106612 0.106614
0.176366 0.175983 0.176213
0.192629 0.192038 0.191544
0.107173 0.107525 0.107524
0.090136 0.089659 0.089475
0.069616 0.070892 0.071163
0.178312 0.178826 0.178982
0.181641 0.182886 0.183410
0.155843 0.156795 0.163284
0.137179 0.137160 0.137093
0.199466 0.200107 0.200446
0.271165 0.274074 0.274689
0.153828 0.153260 0.155828
0.131789 0.131953 0.131800
0.199055 0.202616 0.204233
0.104958 0.100948 0.089490
0.160666 0.161182 0.161714
0.184704 0.184464 0.184676
0.167519 0.166470 0.167930
0.124354 0.117810 0.117530
0.151281 0.150914 0.150653
0.158543 0.158593 0.158606
0.203494 0.203009 0.202981
0.092642 0.092948 0.093052
0.211845 0.211328 0.208299
0.178161 0.177518 0.177688
0.268332 0.267992 0.267608
0.175883 0.178193 0.172623
0.233354 0.233344 0.233167
0.236478 0.237088 0.235702
0.118490 0.122982 0.123634
0.225893 0.226033 0.224223
0.198207 0.176021 0.177619
0.207858 0.207375 0.192216
0.133820 0.134020 0.133451
0.187697 0.183521 0.183288
0.174231 0.174072 0.173216
0.173308 0.172665 0.171407
0.153595 0.152318 0.153251
0.171966 0.155791 0.156381
0.231573 0.230706 0.230566
0.196880 0.197561 0.197377
0.194166 0.189799 0.186762
0.188987 0.174034 0.173318
0.206329 0.207090 0.207402
0.174463 0.174073 0.174772
0.139792 0.140506 0.141238
0.117899 0.117299 0.118214
0.149171 0.148492 0.147911
0.179743 0.183734 0.184256
0.168159 0.168125 0.168430
0.104226 0.113754 0.114509
0.162288 0.160808 0.158241
0.176589 0.177683 0.177888
0.126512 0.128026 0.129240
0.120329 0.119624 0.120207
0.189685 0.186330 0.195990
0.142718 0.142421 0.142389
0.192333 0.192485 0.191333
0.120725 0.120267 0.120577
0.142798 0.142953 0.143456
0.236777 0.236810 0.236801
0.318716 0.320110 0.318559
0.164441 0.163751 0.163371
0.049244 0.052086 0.052411
0.137621 0.134318 0.133571
0.039009 0.039014 0.039082
0.133881 0.134341 0.136492
0.135387 0.135470 0.134833
0.230069 0.228352 0.224842
0.172850 0.174339 0.173660
0.166472 0.166704 0.166183
0.070064 0.069717 0.069468
0.133022 0.133095 0.132578
0.213541 0.215064 0.216194
0.059421 0.059981 0.061274
0.168484 0.168053 0.166454
0.046397 0.046471 0.046468
0.137398 0.137605 0.136503
0.117499 0.113380 0.113016
0.237305 0.236841 0.236279
0.138361 0.138339 0.138282
0.166654 0.166459 0.165230
0.137851 0.137308 0.133129
0.112569 0.112263 0.112436
0.173104 0.173826 0.172997
0.181608 0.184947 0.201021
0.110072 0.111375 0.112754
0.128469 0.125731 0.125402
0.201549 0.201369 0.199734
0.126402 0.126815 0.127672
0.111667 0.111397 0.109631
0.137172 0.137295 0.135354
0.225893 0.224692 0.222913
0.150141 0.153643 0.154887
0.147004 0.146828 0.147295
0.106868 0.106906 0.107197
0.133373 0.134408 0.134557
0.108403 0.107476 0.107189
0.117380 0.117556 0.117652
0.170000 0.170742 0.171157
0.106611 0.106610 0.106613
0.133065 0.131679 0.130249
0.270292 0.270404 0.267316
0.154656 0.153868 0.149599
0.151686 0.151426 0.151340
0.140697 0.141138 0.144433
0.195473 0.196937 0.195995
0.129008 0.128675 0.128392
0.175926 0.176069 0.176583
0.143803 0.143710 0.143879
0.138198 0.134095 0.132855
0.175196 0.175228 0.174916
0.111267 0.114482 0.116112
0.111739 0.111627 0.110904
0.098783 0.089088 0.085274
0.171971 0.172158 0.176874
0.141011 0.142872 0.143427
0.106829 0.107025 0.107125
0.152561 0.153856 0.155414
0.147426 0.149088 0.148733
0.217062 0.217066 0.217078
0.211136 0.208806 0.210296
0.159939 0.160393 0.159047
0.182228 0.182464 0.180896
0.114791 0.122153 0.123187
0.237775 0.238174 0.240584
0.233286 0.234066 0.234108
0.201958 0.202933 0.202858
0.187043 0.186772 0.185334
0.207812 0.207904 0.208115
0.182848 0.183292 0.183322
0.154636 0.154304 0.154207
0.197324 0.197820 0.196732
0.130095 0.130860 0.132245
0.155696 0.155419 0.155180
0.183154 0.184734 0.184299
0.102624 0.106278 0.107313
0.210378 0.209102 0.208009
0.109592 0.109474 0.109441
0.073846 0.073744 0.073403
0.118395 0.116969 0.119171
0.057898 0.058320 0.058621
0.099406 0.100557 0.106713
0.098173 0.099567 0.101100
0.063389 0.055793 0.053739
0.170591 0.170676 0.170521
0.141943 0.142465 0.142073
0.101474 0.099284 0.099792
0.228816 0.230811 0.231668
0.134007 0.134270 0.134788
0.204408 0.203255 0.201811
0.141668 0.141459 0.141311
0.176596 0.176733 0.176823
0.150578 0.149310 0.148631
0.136783 0.137254 0.133883
0.198485 0.197857 0.197105
0.121978 0.122999 0.123438
0.145180 0.144361 0.142063
0.221179 0.220745 0.220605
0.163724 0.164175 0.164769
0.213056 0.212881 0.212991
0.152742 0.153341 0.153820
0.131626 0.132088 0.134275
0.129107 0.132112 0.132452
0.138277 0.137979 0.137238
0.196694 0.196653 0.196650
0.162307 0.160931 0.159019
0.280847 0.281001 0.279320
0.171419 0.171277 0.170477
0.096137 0.094699 0.092945
0.054083 0.058600 0.061416
0.148906 0.149275 0.149637
0.241308 0.240802 0.240388
0.047296 0.047305 0.047305
0.233366 0.233229 0.233031
0.101974 0.101992 0.099901
0.166670 0.166537 0.166116
0.167685 0.160905 0.142877
0.117271 0.117021 0.117018
0.178473 0.179550 0.182785
0.186691 0.187155 0.189948
0.171465 0.174397 0.174392
0.179811 0.180041 0.180069
0.107486 0.107343 0.107248
0.043935 0.044331 0.044521
0.136816 0.137021 0.138311
0.186981 0.187229 0.187527
0.156877 0.157698 0.158147
0.157462 0.157585 0.154829
0.281184 0.279326 0.280257
0.047306 0.047298 0.047272
0.318630 0.318716 0.320110
0.198365 0.198477 0.198249
0.226656 0.223964 0.229931
0.159333 0.160010 0.160242
0.110500 0.111234 0.110486
0.119221 0.119337 0.120254
0.114244 0.114286 0.114239
0.175359 0.174438 0.174215
0.145313 0.144534 0.144431
0.165826 0.199518 0.203314
0.047934 0.047931 0.047935
0.145768 0.145666 0.145513
0.119465 0.120548 0.132922
0.105417 0.108946 0.103683
0.171540 0.172311 0.172309
0.164743 0.164494 0.163905
0.132634 0.132919 0.132799
0.152551 0.152261 0.152086
0.132306 0.129436 0.128949
0.133532 0.134750 0.135110
0.211261 0.210004 0.209494
0.213653 0.213254 0.212682
0.089132 0.089125 0.089117
0.134150 0.133703 0.133108
0.136687 0.139492 0.139841
0.197465 0.197221 0.196073
0.174307 0.174934 0.174514
0.073760 0.073498 0.070759
0.150425 0.147107 0.146021
0.182536 0.182368 0.182361
0.120012 0.120351 0.121266
0.113105 0.112624 0.111084
0.177872 0.179517 0.179786
0.190734 0.192600 0.193336
0.181437 0.181989 0.182229
0.047740 0.050055 0.050665
0.152157 0.152153 0.152153
0.148148 0.150691 0.152350
0.146001 0.145777 0.145527
0.312601 0.314033 0.313582
0.176778 0.176503 0.177093
0.140952 0.141569 0.141786
0.046469 0.046467 0.046438
0.040598 0.039957 0.039695
0.093480 0.092434 0.092183
0.123261 0.123252 0.123249
0.179859 0.179888 0.179939
0.149284 0.146569 0.145330
0.178951 0.196568 0.205626
0.217478 0.217615 0.216273
0.135682 0.137500 0.144962
0.167993 0.167992 0.168136
0.121490 0.121570 0.121565
0.091268 0.089175 0.088442
0.114237 0.114292 0.114236
0.173110 0.173586 0.173001
0.125043 0.123717 0.123446
0.146561 0.147407 0.147608
0.131439 0.130650 0.129314
0.156976 0.155896 0.155490
0.137325 0.137645 0.139896
0.124737 0.127534 0.129282
0.111440 0.109928 0.109466
0.090866 0.090004 0.090029
0.109686 0.109606 0.109471
0.131962 0.131359 0.129518
0.060409 0.060413 0.060110
0.245852 0.245623 0.245278
0.183250 0.182140 0.180796
0.196078 0.196302 0.196732
0.225738 0.225297 0.224169
0.115988 0.116571 0.116809
0.107132 0.107148 0.107335
0.152930 0.152928 0.152766
0.223008 0.222140 0.221670
0.166245 0.166304 0.164133
0.263832 0.264758 0.267756
0.169348 0.169322 0.169259
0.156079 0.156434 0.156489
0.174758 0.176151 0.175926
0.182203 0.182529 0.182526
0.160694 0.158940 0.143292
0.231334 0.223562 0.219913
0.105280 0.105270 0.105263
0.184399 0.184006 0.181306
0.054211 0.053570 0.053504
0.126079 0.125878 0.131449
0.233520 0.229633 0.227997
0.132980 0.138241 0.139470
0.174012 0.173478 0.169561
0.145527 0.145527 0.145517
0.239590 0.239015 0.236965
0.240317 0.239754 0.239832
0.092971 0.092977 0.092909
0.169601 0.171718 0.173253
0.238668 0.237792 0.237619
0.195599 0.195662 0.196075
0.097734 0.097746 0.097704
0.152771 0.152729 0.152710
0.139608 0.139973 0.140154
0.186633 0.186952 0.187194
0.082961 0.086205 0.086790
0.141411 0.140632 0.140552
0.198597 0.198186 0.200268
0.136029 0.135774 0.135576
0.203171 0.206102 0.207873
0.140097 0.140168 0.142643
0.057454 0.059666 0.060065
0.164558 0.164964 0.164507
0.132001 0.130494 0.131274
0.199167 0.203503 0.203311
0.196093 0.198756 0.201792
0.050323 0.050336 0.050379
0.175605 0.176973 0.178375
0.134458 0.139070 0.140530
0.115430 0.114572 0.114067
0.197857 0.197946 0.197578
0.234476 0.236583 0.236765
0.137744 0.138363 0.140093
0.181829 0.180836 0.178019
0.192848 0.191827 0.192445
0.152468 0.153269 0.153785
0.197093 0.196404 0.194577
0.142162 0.142215 0.142911
0.183301 0.183747 0.183941
0.206379 0.206120 0.205592
0.152242 0.151568 0.152107
0.199104 0.201381 0.201549
0.106760 0.106770 0.106775
0.104829 0.105890 0.110609
0.133476 0.133215 0.133141
0.104351 0.104778 0.105511
0.174267 0.176640 0.174534
0.224795 0.224708 0.224521
0.097792 0.096673 0.095795
0.203075 0.204151 0.203258
0.137263 0.139842 0.142639
0.213029 0.207710 0.204124
0.114163 0.108623 0.107544
0.177291 0.177313 0.177573
0.181261 0.181782 0.182346
0.239075 0.236280 0.235849
0.180585 0.180078 0.179077
0.313301 0.311340 0.310057
0.176901 0.176866 0.178722
0.133464 0.134458 0.139070
0.123844 0.124075 0.123831
0.184692 0.185147 0.184873
0.140386 0.140065 0.140697
0.135080 0.134395 0.131314
0.169699 0.171708 0.173090
0.207353 0.211563 0.212160
0.113605 0.114158 0.115889
0.143520 0.143121 0.142378
0.165298 0.165933 0.165265
0.162185 0.161168 0.157036
0.151733 0.152707 0.153010
0.114701 0.114077 0.113946
0.177438 0.175636 0.177222
0.090311 0.090329 0.090365
0.215991 0.216215 0.216342
0.245673 0.245671 0.246022
0.117950 0.117788 0.117796
0.086986 0.087319 0.087330
0.059213 0.059228 0.059203
0.089188 0.087981 0.085684
0.072705 0.072685 0.072696
0.144634 0.143035 0.142634
0.179299 0.181705 0.183019
0.214421 0.213804 0.213661
0.049899 0.050482 0.050729
0.163076 0.164705 0.166014
0.142099 0.141500 0.140486
0.165819 0.165159 0.163788
0.186546 0.185854 0.185494
0.128121 0.127373 0.123944
0.103714 0.103694 0.103687
0.069498 0.069831 0.069884
0.099500 0.098762 0.097921
0.142515 0.143923 0.146597
0.149846 0.153071 0.174723
0.136405 0.136437 0.136621
0.150535 0.150845 0.150937
0.117266 0.120297 0.121801
0.053569 0.053488 0.053437
0.129655 0.128116 0.125852
0.200107 0.200446 0.201264
0.122668 0.121658 0.121471
0.258126 0.258424 0.258534
0.094011 0.094264 0.094985
0.113366 0.113464 0.116092
0.191749 0.191329 0.191117
0.170286 0.170097 0.170949
0.113628 0.109627 0.108750
0.140583 0.140554 0.140557
0.169327 0.169247 0.168778
0.154923 0.155590 0.155820
0.182244 0.181193 0.180009
0.183189 0.181784 0.180914
0.199007 0.199335 0.199280
0.173198 0.171745 0.170165
0.192484 0.191472 0.188464
0.226461 0.226587 0.226610
0.180579 0.180742 0.180716
0.178427 0.178837 0.179298
0.165919 0.166222 0.167459
0.186253 0.183079 0.181637
0.210345 0.210449 0.210187
0.265096 0.267611 0.268307
0.098230 0.098318 0.098470
0.088410 0.089003 0.089070
0.154715 0.156552 0.158190
0.161848 0.161699 0.164346
0.267000 0.269418 0.265696
0.234582 0.232317 0.232638
0.239810 0.240208 0.240139
0.230501 0.230315 0.230331
0.088197 0.088686 0.088261
0.185765 0.186053 0.186481
0.145622 0.141833 0.141513
0.162994 0.162990 0.162985
0.181407 0.204830 0.208008
0.112270 0.111666 0.110265
0.217311 0.217639 0.216926
0.228237 0.229383 0.231142
0.168096 0.170715 0.170389
0.060459 0.060433 0.060425
0.174465 0.174527 0.174246
0.173939 0.173218 0.170407
0.296252 0.305939 0.310552
0.210412 0.209327 0.209136
0.195462 0.196319 0.196461
0.196456 0.195685 0.195416
0.141949 0.141630 0.139770
0.291677 0.290205 0.288725
0.131012 0.131069 0.131251
0.239624 0.240271 0.240072
0.124161 0.134663 0.137809
0.217755 0.209623 0.207937
0.316317 0.318410 0.319323
0.140558 0.140589 0.140605
0.169766 0.169639 0.170521
0.050995 0.050916 0.050893
0.175228 0.174325 0.174307
0.244623 0.249347 0.255296
0.118996 0.119092 0.119102
0.175744 0.175121 0.174912
0.154450 0.146395 0.148305
0.103569 0.103227 0.103177
0.140666 0.140188 0.139385
0.116716 0.116696 0.116699
0.197755 0.196014 0.195964
0.170714 0.169983 0.169986
0.215989 0.216257 0.216338
0.149030 0.149409 0.148565
0.173676 0.173773 0.173413
0.195760 0.195744 0.195821
0.128103 0.128796 0.129451
0.196790 0.196694 0.196653
0.187080 0.186812 0.186849
0.123789 0.123488 0.121573
0.068440 0.068119 0.068093
0.165860 0.165624 0.165260
0.206340 0.205680 0.205093
0.125218 0.124705 0.123523
0.266757 0.268148 0.261644
0.218821 0.219207 0.220695
0.178908 0.179632 0.180512
0.291248 0.292467 0.294229
0.197529 0.189931 0.176938
0.162234 0.164300 0.168545
0.097039 0.097018 0.097022
0.156170 0.157903 0.158676
0.112465 0.112469 0.112413
0.245819 0.247609 0.248762
0.087817 0.089043 0.093910
0.146644 0.146606 0.146155
0.157909 0.158679 0.160195
0.224223 0.223911 0.224611
0.189937 0.191598 0.192378
0.153645 0.156618 0.168009
0.132112 0.132452 0.133097
0.240072 0.237165 0.235865
0.128558 0.126651 0.125674
0.223040 0.222223 0.221716
0.159077 0.161028 0.160981
0.152765 0.152643 0.152697
0.088560 0.087639 0.084954
0.181642 0.180272 0.179002
0.138543 0.139682 0.140734
0.159594 0.151747 0.148030
0.133866 0.135406 0.138083
0.050402 0.049739 0.049726
0.168648 0.167673 0.167191
0.203233 0.205018 0.207113
0.213483 0.211845 0.211328
0.190528 0.190482 0.185140
0.176523 0.175907 0.175082
0.109593 0.109495 0.109413
0.146474 0.145283 0.143898
0.171259 0.171373 0.171446
0.037101 0.038611 0.038779
0.135012 0.136060 0.136534
0.171876 0.170829 0.168681
0.143970 0.143833 0.143843
0.127455 0.127473 0.127474
0.177201 0.176185 0.178591
0.117965 0.126625 0.127932
0.120577 0.118567 0.117837
0.138918 0.138824 0.138760
0.109524 0.109534 0.109585
0.149917 0.150911 0.151330
0.185921 0.186239 0.186378
0.184404 0.183998 0.183563
0.126731 0.126327 0.126303
0.233542 0.227938 0.225915
0.166602 0.166579 0.166134
0.156709 0.154509 0.152893
0.196732 0.195816 0.194447
0.186479 0.185549 0.181521
0.127467 0.127472 0.127498
0.046466 0.046588 0.046724
0.145440 0.143800 0.143170
0.046630 0.046460 0.046463
0.225604 0.229077 0.230212
0.142493 0.143028 0.144265
0.151328 0.151321 0.151318
0.173151 0.179164 0.179258
0.095968 0.095969 0.095550
0.087386 0.087146 0.086956
0.228937 0.228433 0.230254
0.045348 0.045425 0.045491
0.134102 0.134150 0.133703
0.119089 0.119077 0.118624
0.175378 0.175345 0.175362
0.227499 0.226352 0.225527
0.170058 0.169382 0.167482
0.174797 0.174478 0.175859
0.064104 0.069870 0.071179
0.161289 0.161641 0.162028
0.122811 0.122503 0.123600
0.143420 0.144688 0.144979
0.150612 0.150796 0.150994
0.245687 0.245985 0.245753
0.207859 0.207888 0.207911
0.038923 0.038967 0.038944
0.049244 0.048947 0.049245
0.147593 0.147317 0.147092
0.214684 0.212203 0.204775
0.180042 0.180049 0.179442
0.168981 0.170571 0.170633
0.124700 0.119792 0.120092
0.192545 0.191527 0.192024
0.195279 0.195765 0.196094
0.175584 0.172237 0.171596
0.239370 0.239068 0.235568
0.096426 0.095121 0.093913
0.181361 0.181281 0.180979
0.127721 0.125392 0.118816
0.127965 0.126562 0.123898
0.183226 0.180437 0.172804
0.154980 0.172816 0.177365
0.092991 0.093072 0.093046
0.183052 0.182713 0.180990
0.133113 0.133072 0.132862
0.100217 0.100249 0.099732
0.156346 0.147965 0.143948
0.201910 0.201667 0.200698
0.214883 0.214709 0.213860
0.109301 0.119763 0.119724
0.151046 0.152678 0.152996
0.148437 0.148347 0.148899
0.058705 0.058804 0.059342
0.168875 0.170158 0.170955
0.198737 0.197676 0.189615
0.135470 0.134833 0.132995
0.144037 0.142841 0.134166
0.109659 0.109508 0.108489
0.148762 0.148735 0.148351
0.181960 0.182156 0.179001
0.100132 0.101127 0.101144
0.164027 0.163355 0.145402
0.266737 0.268354 0.268182
0.244658 0.244000 0.241795
0.059218 0.059207 0.059216
0.301560 0.296876 0.289419
0.092762 0.092763 0.092769
0.151310 0.151280 0.151290
0.126949 0.136117 0.138526
0.197603 0.197734 0.198341
0.196493 0.197550 0.197489
0.143884 0.145648 0.146774
0.133747 0.129113 0.125886
0.147454 0.146188 0.145295
0.132878 0.134595 0.135382
0.130271 0.129555 0.129362
0.055077 0.055326 0.055357
0.168306 0.168828 0.170343
0.169885 0.169390 0.173866
0.162675 0.162103 0.161535
0.093074 0.093129 0.093461
0.185513 0.184971 0.184830
0.153832 0.155902 0.161121
0.176677 0.176237 0.175986
0.177810 0.175482 0.173486
0.238148 0.236328 0.235577
0.176906 0.178146 0.181407
0.246251 0.250242 0.255620
0.177813 0.178164 0.178485
0.184950 0.185142 0.183095
0.147200 0.146972 0.149281
0.209706 0.209616 0.210356
0.190146 0.186473 0.178369
0.165877 0.165697 0.165868
0.047241 0.049728 0.050408
0.200265 0.201599 0.204506
0.188951 0.189217 0.189500
0.209858 0.209842 0.209736
0.083587 0.083564 0.083565
0.191146 0.191927 0.191749
0.157461 0.157518 0.157568
0.045059 0.045021 0.045029
0.045096 0.045089 0.045057
0.150378 0.152696 0.152849
0.124725 0.123785 0.121787
0.307670 0.310576 0.311655
0.138806 0.138515 0.137800
0.109588 0.109636 0.109826
0.175986 0.176211 0.175569
0.089545 0.089569 0.089599
0.176635 0.175023 0.172588
0.147778 0.147373 0.147561
0.148417 0.148161 0.147658
0.156741 0.158501 0.158813
0.174474 0.169165 0.167203
0.117588 0.121787 0.121644
0.141171 0.141310 0.141474
0.165606 0.163804 0.161652
0.212497 0.214079 0.214643
0.174184 0.176779 0.185059
0.107525 0.107541 0.107782
0.159010 0.158926 0.158682
0.156793 0.157448 0.157621
0.134141 0.133685 0.133030
0.168044 0.166791 0.166606
0.141944 0.148499 0.149210
0.165345 0.165093 0.165653
0.113754 0.114509 0.112839
0.282520 0.273887 0.267982
0.151070 0.150739 0.150265
0.139587 0.138032 0.137921
0.073637 0.073837 0.073846
0.190463 0.190401 0.188844
0.283923 0.284287 0.297184
0.183772 0.192901 0.196989
0.107597 0.105431 0.104198
0.049425 0.049400 0.049267
0.143650 0.143607 0.143603
0.204393 0.204130 0.202731
0.045886 0.045911 0.045957
0.178840 0.179746 0.179716
0.237555 0.237196 0.237803
0.129037 0.129023 0.128977
0.254830 0.255065 0.256668
0.136098 0.135832 0.135705
0.112741 0.114931 0.114975
0.184841 0.185110 0.185083
0.228545 0.235340 0.235724
0.109535 0.109515 0.109515
0.242101 0.243188 0.243416
0.110272 0.108717 0.109279
0.200112 0.199268 0.198136
0.150881 0.151780 0.151577
0.053416 0.053425 0.053497
0.185864 0.185360 0.186492
0.293916 0.310340 0.307177
0.114394 0.115401 0.117973
0.139972 0.140800 0.140961
0.170561 0.170730 0.170773
0.143286 0.144662 0.146076
0.237255 0.236783 0.237348
0.190508 0.190715 0.190767
0.187365 0.185567 0.184954
0.144048 0.143867 0.143391
0.138025 0.136974 0.139459
0.144041 0.142491 0.143307
0.186762 0.183809 0.182382
0.059229 0.053849 0.052104
0.135569 0.131284 0.129671
0.109867 0.109817 0.109777
0.175552 0.176646 0.176872
0.050954 0.050995 0.050916
0.092945 0.092804 0.092747
0.144039 0.144243 0.143634
0.171297 0.170595 0.170703
0.060691 0.060699 0.060741
0.163711 0.163578 0.163484
0.233431 0.233155 0.233246
0.174269 0.174353 0.174463
0.168683 0.169592 0.175871
0.124140 0.125401 0.125490
0.114190 0.112767 0.112273
0.261534 0.262312 0.261358
0.157832 0.156838 0.156039
0.180061 0.179124 0.179079
0.107238 0.107203 0.107154
0.148857 0.150247 0.149933
0.164678 0.165746 0.169583
0.104270 0.107327 0.114812
0.045212 0.045073 0.044991
0.161351 0.160053 0.158610
0.192761 0.192798 0.192800
0.124750 0.127698 0.130012
0.231915 0.231238 0.231518
0.166005 0.166305 0.166058
0.267689 0.269753 0.269227
0.198037 0.196305 0.197096
0.149911 0.155998 0.158731
0.236328 0.235577 0.235265
0.106738 0.106828 0.107017
0.106911 0.107289 0.107463
0.121473 0.114762 0.112671
0.219155 0.219088 0.219896
0.204656 0.204850 0.204977
0.106046 0.103754 0.103755
0.279548 0.269662 0.267770
0.143086 0.143499 0.143636
0.201676 0.199756 0.200119
0.281001 0.279320 0.280326
0.147598 0.147856 0.145943
0.087531 0.086538 0.087302
0.109597 0.109813 0.109732
0.071306 0.071697 0.072056
0.150365 0.150437 0.151590
0.170583 0.172011 0.172858
0.261267 0.262222 0.261332
0.136023 0.135748 0.135815
0.235955 0.238111 0.231792
0.142925 0.143793 0.144031
0.145604 0.145590 0.146172
0.240193 0.239916 0.239781
0.114975 0.114950 0.112831
0.154339 0.154211 0.154118
0.228044 0.228798 0.237440
0.202933 0.202858 0.206363
0.163976 0.166506 0.166995
0.285310 0.296862 0.295280
0.154430 0.146051 0.147037
0.148971 0.147648 0.145322
0.146954 0.149583 0.150606
0.228034 0.225439 0.224864
0.192988 0.188601 0.188218
0.179363 0.179222 0.177071
0.072670 0.072687 0.072715
0.197478 0.201210 0.202200
0.175908 0.175206 0.178043
0.215601 0.212534 0.217927
0.111819 0.111608 0.110360
0.046470 0.046470 0.046448
0.180580 0.182706 0.189828
0.149751 0.149711 0.149610
0.164392 0.164526 0.170616
0.275161 0.276295 0.277653
0.164924 0.166422 0.171363
0.145466 0.145307 0.145845
0.138160 0.138153 0.138148
0.208355 0.208708 0.209106
0.049375 0.049231 0.049251
0.114000 0.113900 0.113854
0.144695 0.144948 0.144586
0.170738 0.170714 0.169983
0.236009 0.237835 0.235770
0.128488 0.130458 0.130464
0.123554 0.123704 0.124352
0.130895 0.131371 0.133521
0.160640 0.160740 0.161612
0.143838 0.143830 0.143763
0.127539 0.127857 0.128327
0.175397 0.176412 0.178518
0.100260 0.101668 0.104806
0.236337 0.236339 0.235955
0.132380 0.131284 0.129522
0.249559 0.249562 0.249215
0.102042 0.102624 0.106278
0.113449 0.112341 0.113113
0.322543 0.322654 0.321936
0.128629 0.128310 0.128240
0.097812 0.098173 0.099567
0.146126 0.144495 0.143044
0.159736 0.159905 0.160188
0.188199 0.186106 0.179370
0.204306 0.204395 0.204983
0.210914 0.209483 0.209734
0.044115 0.044234 0.045082
0.095724 0.096168 0.097734
0.144626 0.146021 0.147015
0.116966 0.116829 0.116873
0.050349 0.050321 0.050173
0.099617 0.103602 0.103452
0.055383 0.054949 0.052770
0.141002 0.140305 0.140179
0.130454 0.130472 0.130473
0.153366 0.153887 0.154647
0.117307 0.120464 0.121493
0.099901 0.093966 0.093108
0.185169 0.186347 0.186124
0.208600 0.209070 0.209536
0.298030 0.298065 0.299801
0.149487 0.153354 0.153895
0.196800 0.197270 0.197924
0.164036 0.164129 0.163845
0.170957 0.170690 0.170055
0.113491 0.114784 0.119331
0.131112 0.131426 0.131679
0.111171 0.111190 0.111220
0.111806 0.113194 0.114404
0.213993 0.214479 0.214890
0.151312 0.151296 0.151290
0.306847 0.312640 0.314252
0.158605 0.157912 0.163758
0.153928 0.154105 0.153645
0.177574 0.184612 0.181961
0.043817 0.046257 0.047491
0.154167 0.153532 0.150143
0.146847 0.145485 0.145291
0.170876 0.158974 0.158514
0.111898 0.109957 0.109334
0.134020 0.133451 0.131322
0.134595 0.135382 0.142863
0.177639 0.179352 0.179091
0.201279 0.199461 0.197063
0.231296 0.230228 0.229704
0.160051 0.158782 0.158557
0.147435 0.147510 0.148814
0.053776 0.055072 0.058423
0.186535 0.188645 0.189171
0.289129 0.289619 0.290035
0.231949 0.231788 0.232656
0.194589 0.194556 0.194018
0.218733 0.217652 0.214509
0.186249 0.188643 0.189066
0.198652 0.199342 0.200253
0.184584 0.184952 0.184376
0.090329 0.090365 0.090364
0.129428 0.129419 0.129653
0.163420 0.163229 0.163846
0.119399 0.119191 0.120167
0.118889 0.120101 0.120528
0.181272 0.181707 0.182560
0.050823 0.050945 0.050947
0.149061 0.152344 0.152781
0.039103 0.039085 0.039079
0.222765 0.222898 0.222353
0.180588 0.180610 0.180403
0.125573 0.118843 0.112069
0.157815 0.160279 0.161561
0.241040 0.241921 0.242585
0.044152 0.043466 0.043463
0.155455 0.157351 0.157999
0.163403 0.163111 0.157408
0.164750 0.165535 0.166933
0.089125 0.089117 0.089092
0.169354 0.168602 0.168097
0.174914 0.174865 0.174403
0.186799 0.186833 0.185826
0.121555 0.119588 0.119291
0.305387 0.306100 0.307670
0.156071 0.174794 0.187433
0.146577 0.146616 0.146253
0.182873 0.184587 0.191724
0.171102 0.172138 0.172290
0.198564 0.200015 0.201052
0.226184 0.225987 0.226528
0.136825 0.137347 0.137331
0.062914 0.067692 0.069973
0.198063 0.202388 0.203691
0.145589 0.145599 0.145718
0.119401 0.117959 0.114866
0.047277 0.047289 0.047296
0.148557 0.148204 0.148874
0.186239 0.186378 0.184501
0.088086 0.086428 0.085856
0.194015 0.193557 0.193463
0.149988 0.150586 0.152740
0.298370 0.297848 0.299764
0.106888 0.106894 0.106910
0.132715 0.133035 0.132984
0.045043 0.045212 0.045073
0.151368 0.152502 0.154621
0.039744 0.039649 0.039443
0.144059 0.143871 0.143545
0.303173 0.303215 0.302498
0.155150 0.154622 0.155002
0.152841 0.152840 0.152850
0.112089 0.112357 0.111500
0.119829 0.117364 0.114064
0.153357 0.153642 0.154490
0.158577 0.158522 0.158547
0.138660 0.144961 0.145732
0.185641 0.184771 0.185793
0.140696 0.139318 0.138862
0.303829 0.306434 0.309334
0.103430 0.103643 0.101025
0.168561 0.168592 0.167638
0.131449 0.131451 0.131477
0.168823 0.169205 0.169709
0.107463 0.106610 0.106881
0.126144 0.125830 0.123919
0.170505 0.170580 0.170563
0.204685 0.205399 0.205257
0.118539 0.118826 0.120208
0.137685 0.137353 0.136359
0.132928 0.133054 0.131937
0.196012 0.195967 0.195739
0.196041 0.195324 0.194143
0.171426 0.172547 0.173877
0.235376 0.235602 0.236200
0.141297 0.140630 0.140552
0.117047 0.117549 0.117602
0.205272 0.207059 0.205639
0.189514 0.194135 0.195756
0.148898 0.148239 0.148332
0.150694 0.150819 0.151102
0.143127 0.137615 0.133071
0.311624 0.316563 0.317321
0.155540 0.156703 0.157362
0.123926 0.124888 0.124697
0.106851 0.106285 0.103956
0.145561 0.151854 0.153411
0.163081 0.173459 0.181586
0.189979 0.189394 0.188516
0.203652 0.204152 0.205378
0.159296 0.159000 0.158522
0.127131 0.127241 0.127249
0.154035 0.153620 0.150897
0.187929 0.188093 0.187798
0.137452 0.137110 0.136081
0.172817 0.171443 0.171109
0.174977 0.180147 0.180029
0.146101 0.153097 0.154279
0.134196 0.132906 0.133982
0.168721 0.167474 0.168038
0.176472 0.176846 0.175772
0.247618 0.248932 0.249241
0.073444 0.073693 0.073850
0.185123 0.185583 0.184354
0.159956 0.160805 0.162903
0.152289 0.151872 0.152708
0.058710 0.058703 0.059269
0.233155 0.233246 0.233426
0.092523 0.092563 0.092681
0.154151 0.154699 0.154700
0.201360 0.201632 0.200979
0.092433 0.092466 0.092523
0.134319 0.136680 0.135350
0.117938 0.117792 0.117796
0.148336 0.147880 0.146834
0.227064 0.227294 0.227213
0.142709 0.143333 0.143697
0.157838 0.159099 0.159694
