0.217368 0.217568 0.220152
0.220504 0.224246 0.223705
0.236175 0.237350 0.237181
0.219067 0.222590 0.223266
0.205904 0.205412 0.204487
0.212927 0.217040 0.223594
0.199511 0.199616 0.199032
0.235802 0.236731 0.232886
0.235809 0.236588 0.237481
0.284554 0.285039 0.285155
0.213776 0.214377 0.214491
0.200341 0.199129 0.196625
0.263435 0.263551 0.264034
0.233109 0.232024 0.232576
0.239489 0.238995 0.239452
0.260791 0.261958 0.265307
0.265068 0.265408 0.265621
0.236262 0.235344 0.235466
0.236104 0.237523 0.236441
0.229242 0.229794 0.229228
0.232204 0.231911 0.231721
0.205517 0.204566 0.204659
0.263523 0.264379 0.264186
0.212837 0.210625 0.211911
0.197175 0.197681 0.195877
0.218532 0.214635 0.210356
0.226557 0.225761 0.224738
0.212952 0.212599 0.212617
0.206545 0.203670 0.204216
0.253841 0.255867 0.255325
0.230281 0.233499 0.232120
0.236932 0.239297 0.236782
0.224753 0.226119 0.227919
0.231266 0.232073 0.232390
0.223477 0.217354 0.216264
0.223323 0.224763 0.224031
0.212923 0.211353 0.210539
0.266073 0.265006 0.263502
0.288324 0.289402 0.291896
0.222426 0.221844 0.222089
0.246080 0.247270 0.247854
0.198911 0.195863 0.196519
0.272899 0.271546 0.270238
0.228160 0.228617 0.227993
0.198329 0.197413 0.197051
0.272044 0.271027 0.270934
0.284422 0.283366 0.287696
0.237244 0.237405 0.237488
0.215349 0.216020 0.224586
0.215166 0.214982 0.214975
0.242203 0.241995 0.242336
0.218107 0.219517 0.220356
0.206265 0.206649 0.204269
0.270737 0.269190 0.269540
0.271844 0.270796 0.271967
0.277882 0.271809 0.272450
0.222492 0.222316 0.219864
0.239732 0.241327 0.241903
0.275976 0.274899 0.272027
0.231655 0.231716 0.231646
0.241320 0.241440 0.241104
0.234292 0.236287 0.237762
0.224311 0.224382 0.226919
0.209192 0.210283 0.211666
0.277109 0.276986 0.275181
0.232703 0.230778 0.223584
0.284353 0.288011 0.296873
0.209582 0.208004 0.208822
0.217355 0.217365 0.216711
0.217472 0.217543 0.218727
0.234102 0.234645 0.234122
0.208467 0.209470 0.210475
0.232462 0.228073 0.228218
0.259701 0.260235 0.262051
0.293511 0.293708 0.295349
0.252877 0.252748 0.251931
0.204588 0.204447 0.204183
0.252972 0.251671 0.250878
0.217280 0.217221 0.217569
0.238390 0.236791 0.234296
0.309914 0.309060 0.309142
0.235602 0.237260 0.237896
0.216243 0.214625 0.207421
0.226756 0.225668 0.225556
0.284628 0.284279 0.284468
0.237926 0.240022 0.240934
0.218668 0.219392 0.217581
0.251931 0.250881 0.253603
0.275808 0.274450 0.273290
0.236600 0.236180 0.236559
0.214167 0.214905 0.214203
0.256015 0.255914 0.254694
0.200051 0.199393 0.196268
0.243485 0.236988 0.231735
0.264465 0.264847 0.264546
0.274052 0.273913 0.273450
0.207621 0.203851 0.200271
0.258759 0.258464 0.258559
0.197487 0.197640 0.197219
0.210013 0.210676 0.211069
0.241009 0.242720 0.244375
0.360382 0.361851 0.361988
0.217774 0.216413 0.216670
0.288501 0.288140 0.285492
0.260690 0.262494 0.266009
0.220075 0.218568 0.220557
0.215911 0.215983 0.215482
0.253275 0.252387 0.251753
0.266328 0.249539 0.242869
0.211592 0.211432 0.211736
0.238748 0.238404 0.238080
0.276668 0.276506 0.277420
0.252171 0.252957 0.256106
0.229878 0.229694 0.229916
0.232183 0.233895 0.233215
0.285852 0.285465 0.287270
0.225701 0.227306 0.228248
0.256362 0.256121 0.255282
0.231469 0.231721 0.230409
0.201095 0.198479 0.198967
0.216117 0.214106 0.218028
0.233954 0.236733 0.236757
0.269196 0.269272 0.269467
0.199813 0.199918 0.200657
0.230891 0.229820 0.230325
0.235572 0.236513 0.237361
0.211121 0.212899 0.216345
0.368097 0.366819 0.366905
0.236829 0.236645 0.235981
0.301714 0.285216 0.281345
0.239670 0.239003 0.239044
0.191855 0.194258 0.193660
0.232083 0.229164 0.229794
0.237409 0.239082 0.238912
0.193387 0.193581 0.192958
0.297179 0.297692 0.296797
0.254855 0.255102 0.257965
0.232827 0.232963 0.234488
0.270207 0.270784 0.269768
0.207638 0.207407 0.210075
0.224908 0.219886 0.216652
0.282728 0.285259 0.284448
0.226362 0.228906 0.229071
0.256200 0.255382 0.253565
0.224060 0.223273 0.224412
0.237514 0.236106 0.235860
0.227196 0.228170 0.229132
0.277739 0.277569 0.282324
0.204515 0.204605 0.203970
0.237303 0.237479 0.237791
0.228339 0.228500 0.226901
0.227044 0.226498 0.225521
0.267999 0.268336 0.267144
0.362845 0.362994 0.363322
0.225247 0.224748 0.224222
0.207670 0.208191 0.208378
0.222123 0.224539 0.224747
0.220598 0.224158 0.224173
0.255266 0.253542 0.252485
0.234047 0.236149 0.236021
0.214370 0.209855 0.210597
0.230720 0.230260 0.224320
0.223254 0.217993 0.218468
0.207972 0.204250 0.202921
0.209321 0.208833 0.208491
0.231822 0.230859 0.230476
0.277559 0.277280 0.277988
0.258485 0.258406 0.258390
0.244590 0.244614 0.244349
0.217179 0.220393 0.222439
0.229995 0.232238 0.235749
0.285824 0.286345 0.289915
0.196988 0.197361 0.197856
0.285200 0.285472 0.287313
0.230960 0.233375 0.231483
0.229730 0.231169 0.232455
0.295935 0.296442 0.302105
0.268739 0.268663 0.268081
0.230784 0.229933 0.230962
0.260615 0.260416 0.259621
0.216223 0.215598 0.214912
0.254096 0.252278 0.253065
0.222312 0.221953 0.222758
0.272260 0.271831 0.272895
0.240119 0.241738 0.241990
0.216985 0.213391 0.204269
0.236881 0.236999 0.237945
0.227708 0.228773 0.229011
0.213798 0.213945 0.213327
0.281392 0.280054 0.282968
0.224562 0.233485 0.234224
0.244331 0.243921 0.244117
0.223376 0.224057 0.224255
0.360406 0.363122 0.366458
0.226388 0.226229 0.226521
0.286727 0.288300 0.287810
0.230280 0.230234 0.228469
0.266255 0.268841 0.269550
0.230383 0.230654 0.231000
0.269384 0.268424 0.269255
0.338768 0.338028 0.336942
0.271166 0.271101 0.271295
0.215071 0.217152 0.217166
0.238356 0.237174 0.240529
0.280455 0.283359 0.286816
0.227477 0.228103 0.226345
0.232280 0.232324 0.232547
0.254003 0.253090 0.251681
0.239735 0.239769 0.240024
0.217670 0.216228 0.217465
0.244297 0.247717 0.257672
0.211164 0.213573 0.216192
0.225527 0.222426 0.222746
0.271430 0.266216 0.268424
0.283681 0.283694 0.284856
0.235316 0.234141 0.231573
0.197317 0.195577 0.195755
0.238510 0.238423 0.238104
0.216407 0.216005 0.215624
0.222465 0.218131 0.218230
0.195956 0.194328 0.195806
0.272433 0.271747 0.272615
0.247541 0.251924 0.254242
0.222606 0.219492 0.218173
0.227919 0.227400 0.227946
0.275808 0.277550 0.277854
0.241208 0.242451 0.245785
0.213291 0.211262 0.213341
0.229540 0.229216 0.229752
0.196887 0.197672 0.198424
0.219371 0.220747 0.222923
0.235147 0.235217 0.235297
0.188646 0.189216 0.188509
0.202492 0.199170 0.197110
0.231929 0.231104 0.232639
0.208780 0.208665 0.209319
0.229891 0.229764 0.228931
0.237948 0.237516 0.237149
0.194516 0.195081 0.194783
0.222311 0.219763 0.220800
0.319851 0.320682 0.321267
0.209766 0.209937 0.210015
0.225834 0.226039 0.226920
0.261158 0.263703 0.263857
0.258365 0.258441 0.258422
0.247796 0.246537 0.243231
0.218831 0.220679 0.220234
0.198566 0.198192 0.198332
0.298169 0.302485 0.307273
0.230967 0.231180 0.231532
0.236737 0.231819 0.231440
0.216245 0.217048 0.217811
0.211329 0.211163 0.213558
0.220024 0.219231 0.220242
0.269358 0.268278 0.269472
0.256799 0.256207 0.254054
0.216847 0.215797 0.219381
0.255309 0.255137 0.250061
0.275006 0.275554 0.275570
0.270795 0.268027 0.266522
0.226008 0.227178 0.227288
0.211929 0.213255 0.216245
0.208610 0.211649 0.213491
0.270654 0.269655 0.267882
0.218487 0.217756 0.219240
0.221251 0.218246 0.216944
0.216026 0.214396 0.212916
0.263672 0.262919 0.262293
0.239672 0.240279 0.240216
0.275812 0.275395 0.273866
0.216429 0.214529 0.211902
0.213199 0.213013 0.213941
0.264491 0.264550 0.264144
0.209470 0.210475 0.210153
0.237075 0.235852 0.235667
0.233444 0.233001 0.235900
0.241881 0.241087 0.238486
0.318874 0.319392 0.319160
0.215366 0.215519 0.215280
0.209376 0.203706 0.203107
0.237676 0.235965 0.237265
0.219030 0.219109 0.216903
0.234205 0.231728 0.231811
0.243076 0.242247 0.239182
0.215454 0.215021 0.215868
0.187358 0.191480 0.192980
0.224053 0.226272 0.231298
0.210043 0.211687 0.215820
0.202356 0.202894 0.201812
0.230965 0.231703 0.228869
0.223313 0.223017 0.221787
0.263596 0.263564 0.263747
0.241234 0.240805 0.240904
0.192693 0.193444 0.193139
0.217944 0.218034 0.219698
0.229535 0.229907 0.230592
0.298849 0.301679 0.303755
0.242219 0.244434 0.247877
0.221613 0.221598 0.221399
0.233516 0.237495 0.239266
0.250013 0.248766 0.249394
0.220316 0.218740 0.217722
0.223450 0.223033 0.222768
0.240058 0.240483 0.241142
0.251813 0.252025 0.252268
0.341455 0.340925 0.338724
0.245033 0.245978 0.246000
0.224771 0.225882 0.223095
0.219779 0.218616 0.218715
0.229157 0.229480 0.229989
0.299893 0.298224 0.299529
0.204163 0.206254 0.204555
0.258129 0.257615 0.257400
0.215562 0.214579 0.213552
0.240824 0.238736 0.239846
0.242863 0.243341 0.244031
0.244681 0.244043 0.244134
0.220527 0.218908 0.218788
0.219864 0.219622 0.220936
0.220297 0.223632 0.222104
0.226990 0.227751 0.226698
0.201416 0.205958 0.208578
0.256352 0.256242 0.254827
0.257685 0.259048 0.263410
0.241375 0.241497 0.237901
0.237061 0.236705 0.237152
0.271224 0.267344 0.261819
0.365514 0.365449 0.363895
0.217545 0.217802 0.218371
0.205421 0.207356 0.206030
0.217036 0.218661 0.221968
0.281969 0.282285 0.280985
0.235834 0.235205 0.234888
0.252186 0.250451 0.250651
0.177020 0.176736 0.175551
0.292106 0.291900 0.293503
0.270004 0.269746 0.269055
0.246619 0.246907 0.247101
0.219233 0.219866 0.219628
0.231927 0.233590 0.234990
0.245137 0.245049 0.245588
0.226053 0.228183 0.228539
0.236128 0.236425 0.238340
0.261708 0.260400 0.260798
0.343512 0.343728 0.343348
0.204127 0.204413 0.204774
0.298804 0.297401 0.297103
0.317377 0.317991 0.318125
0.217306 0.218983 0.215638
0.273174 0.272712 0.271254
0.197349 0.197264 0.197150
0.227296 0.225487 0.223262
0.221331 0.221440 0.220756
0.228040 0.229115 0.231109
0.246628 0.246002 0.245132
0.223039 0.220819 0.219739
0.287134 0.286595 0.286787
0.269455 0.268334 0.280161
0.219517 0.220356 0.222120
0.233806 0.232881 0.234201
0.277421 0.275958 0.274473
0.330165 0.330144 0.329452
0.212809 0.210129 0.210464
0.278728 0.277947 0.276749
0.234388 0.232939 0.232206
0.265651 0.266365 0.265027
0.270205 0.258500 0.254462
0.277919 0.277423 0.275607
0.247417 0.246723 0.246133
0.237350 0.236335 0.235802
0.270620 0.270338 0.270705
0.195391 0.197891 0.197962
0.213939 0.214234 0.215839
0.230978 0.231647 0.231903
0.272289 0.271726 0.270679
0.252469 0.253974 0.255096
0.216529 0.214948 0.214330
0.230957 0.230934 0.231179
0.213762 0.216103 0.216569
0.213156 0.212629 0.212614
0.264011 0.261637 0.260371
0.276226 0.278566 0.284191
0.231357 0.232528 0.231654
0.184131 0.184192 0.183901
0.272339 0.272850 0.271250
0.234572 0.233743 0.233319
0.246184 0.247372 0.246741
0.230435 0.235643 0.236085
0.226788 0.227798 0.227537
0.323878 0.325117 0.325942
0.303755 0.299751 0.267965
0.262772 0.267663 0.268063
0.367970 0.365960 0.361961
0.238872 0.237759 0.237825
0.182803 0.182239 0.183115
0.232849 0.232695 0.231610
0.226754 0.221151 0.220413
0.260292 0.264081 0.263627
0.214192 0.219797 0.224409
0.266643 0.266306 0.265746
0.224876 0.225080 0.225585
0.278642 0.277560 0.277334
0.217528 0.219200 0.220247
0.303021 0.302249 0.305455
0.198069 0.200066 0.201902
0.237455 0.239607 0.240399
0.303102 0.303456 0.303619
0.209916 0.210986 0.212939
0.230360 0.231467 0.232566
0.223955 0.220656 0.220155
0.259061 0.258759 0.258464
0.228406 0.227123 0.226405
0.247195 0.247002 0.247668
0.202623 0.203490 0.201969
0.225617 0.225232 0.226162
0.231579 0.232521 0.233730
0.228822 0.236845 0.237038
0.297521 0.297700 0.299674
0.222740 0.222430 0.223364
0.195110 0.195686 0.195393
0.236411 0.231898 0.233497
0.203013 0.204374 0.204441
0.238117 0.236856 0.237564
0.215615 0.215356 0.211179
0.194988 0.194476 0.192730
0.225559 0.225934 0.224984
0.243531 0.243299 0.242785
0.230772 0.232446 0.231903
0.221780 0.221570 0.222736
0.264625 0.263243 0.268278
0.222420 0.221211 0.221366
0.231669 0.230111 0.230253
0.201354 0.201697 0.202113
0.234958 0.236001 0.236175
0.234455 0.235170 0.233102
0.285120 0.286985 0.286696
0.207872 0.210922 0.212194
0.264606 0.264687 0.262848
0.206395 0.207621 0.207698
0.220006 0.220702 0.223456
0.209965 0.205786 0.203467
0.294396 0.294108 0.294683
0.244132 0.244735 0.242182
0.239209 0.238897 0.240746
0.194855 0.196532 0.196008
0.205628 0.211018 0.212349
0.231948 0.232990 0.232311
0.242657 0.240412 0.242475
0.218721 0.219860 0.220192
0.217097 0.217098 0.218034
0.272866 0.272387 0.272267
0.224241 0.224320 0.222227
0.287088 0.286061 0.286392
0.226442 0.226137 0.226937
0.236081 0.236528 0.237128
0.197463 0.198844 0.200200
0.215085 0.216964 0.214384
0.296581 0.297262 0.301446
0.220500 0.220585 0.219628
0.198643 0.197877 0.197954
0.253988 0.253520 0.254541
0.204095 0.205233 0.205481
0.275833 0.273561 0.273491
0.232803 0.233401 0.231588
0.220143 0.221004 0.220690
0.209043 0.208497 0.207132
0.245296 0.245422 0.248994
0.231974 0.229768 0.226819
0.198931 0.200667 0.203675
0.203861 0.204909 0.205397
0.268026 0.267629 0.265040
0.306449 0.306590 0.307729
0.242068 0.242043 0.241748
0.242716 0.242285 0.243430
0.199963 0.195527 0.194559
0.227983 0.227486 0.227559
0.289130 0.288067 0.287867
0.253720 0.254160 0.253655
0.243397 0.241306 0.241143
0.242742 0.243082 0.243001
0.220542 0.221710 0.220851
0.207995 0.208071 0.204993
0.219070 0.218130 0.219335
0.239463 0.237580 0.237770
0.211016 0.210283 0.208099
0.263236 0.261433 0.258774
0.222921 0.221810 0.221250
0.209148 0.209823 0.211071
0.265151 0.265685 0.264735
0.238702 0.240058 0.240483
0.227803 0.227949 0.229376
0.225524 0.226409 0.225681
0.213841 0.213955 0.213184
0.272525 0.273159 0.272633
0.203537 0.205652 0.209865
0.262543 0.262568 0.263335
0.233334 0.234295 0.234073
0.253625 0.255818 0.256411
0.197053 0.196767 0.200031
0.219970 0.219909 0.221699
0.235616 0.234818 0.232517
0.240487 0.240523 0.242352
0.278097 0.272013 0.272424
0.238053 0.238716 0.239113
0.300343 0.296102 0.293498
0.193267 0.193527 0.192104
0.205544 0.205291 0.201608
0.192800 0.195235 0.195761
0.265443 0.266054 0.267249
0.246900 0.246628 0.246002
0.273046 0.267122 0.265546
0.196567 0.196733 0.194648
0.265978 0.263678 0.263569
0.231832 0.231885 0.229548
0.208156 0.208824 0.208172
0.204717 0.204425 0.203297
0.238929 0.237863 0.238482
0.225650 0.227389 0.227001
0.237093 0.237185 0.238912
0.234949 0.236281 0.239077
0.274922 0.274263 0.276190
0.219864 0.219960 0.220312
0.265939 0.264630 0.263589
0.310829 0.305163 0.301340
0.268500 0.269549 0.270422
0.273906 0.273609 0.273290
0.197944 0.198627 0.198714
0.234563 0.235583 0.237504
0.215486 0.214712 0.214948
0.231451 0.231564 0.232541
0.217822 0.219132 0.223096
0.214361 0.214371 0.214151
0.221127 0.223175 0.224707
0.225463 0.225460 0.225479
0.288668 0.288957 0.289985
0.202212 0.201723 0.200508
0.273093 0.272055 0.272486
0.217220 0.213737 0.205063
0.198797 0.197274 0.196359
0.197264 0.197150 0.197037
0.201462 0.201962 0.203713
0.276337 0.273088 0.275161
0.223019 0.222882 0.222778
0.193050 0.194360 0.193663
0.213171 0.212208 0.213401
0.231248 0.231056 0.229400
0.320986 0.315057 0.312941
0.298200 0.298472 0.298624
0.215173 0.216848 0.216396
0.233182 0.232033 0.231529
0.233107 0.233431 0.235116
0.227596 0.226958 0.226213
0.200690 0.200325 0.200450
0.216208 0.216657 0.216431
0.303890 0.303784 0.303113
0.198424 0.201317 0.201921
0.247733 0.235979 0.238153
0.214784 0.216176 0.215074
0.219284 0.220247 0.221941
0.283185 0.281794 0.283320
0.266092 0.266935 0.268374
0.251016 0.250753 0.249379
0.211688 0.211360 0.211133
0.213658 0.213304 0.213665
0.263208 0.264266 0.265150
0.262239 0.263599 0.262773
0.228117 0.227489 0.226382
0.252256 0.252730 0.254949
0.270588 0.270373 0.270115
0.242450 0.242453 0.242103
0.292647 0.292002 0.289664
0.276396 0.274926 0.274567
0.253219 0.252969 0.252509
0.208542 0.207298 0.206369
0.244195 0.244321 0.245667
0.209369 0.209928 0.212784
0.244334 0.243919 0.245423
0.222190 0.223695 0.224269
0.251628 0.250221 0.243427
0.265119 0.265185 0.265528
0.228878 0.229289 0.228895
0.239685 0.239792 0.239771
0.231591 0.231254 0.231752
0.236606 0.237248 0.239937
0.244976 0.242244 0.241761
0.243642 0.241810 0.241247
0.228360 0.228111 0.230225
0.201398 0.200086 0.200221
0.220366 0.220698 0.220328
0.226644 0.226254 0.228478
0.205956 0.205960 0.205092
0.214449 0.217518 0.217691
0.263822 0.263406 0.263643
0.199240 0.201348 0.202769
0.217767 0.219213 0.220219
0.182160 0.181845 0.183220
0.221149 0.221797 0.222896
0.231803 0.233467 0.233837
0.259353 0.262371 0.263182
0.219212 0.218003 0.214681
0.203586 0.203013 0.204374
0.196348 0.196133 0.194094
0.262773 0.262190 0.261842
0.256292 0.255575 0.253713
0.199528 0.201112 0.202533
0.220267 0.224382 0.228117
0.228733 0.230383 0.231206
0.232669 0.233043 0.231433
0.273325 0.271931 0.275507
0.220386 0.220802 0.218114
0.259287 0.259707 0.259545
0.227622 0.227442 0.226300
0.244691 0.240754 0.234228
0.264106 0.263897 0.263886
0.276665 0.277971 0.277797
0.211006 0.207404 0.204271
0.236855 0.234431 0.234230
0.243585 0.240707 0.236830
0.243651 0.242657 0.240412
0.238160 0.235510 0.234817
0.199956 0.200276 0.200359
0.234938 0.234322 0.233832
0.208908 0.208846 0.207481
0.231892 0.231046 0.232028
0.284931 0.280749 0.279059
0.241201 0.241508 0.241909
0.207633 0.207902 0.210613
0.238716 0.239207 0.237317
0.256452 0.257266 0.256115
0.220043 0.215277 0.214795
0.200670 0.199528 0.199749
0.248981 0.249026 0.247674
0.213441 0.212414 0.210073
0.255879 0.255642 0.253720
0.266723 0.267219 0.271121
0.203908 0.203209 0.203463
0.211419 0.207479 0.207482
0.232174 0.233542 0.233315
0.211570 0.209542 0.207225
0.234559 0.234595 0.234968
0.239702 0.239834 0.239904
0.294403 0.293450 0.294297
0.218687 0.218945 0.217472
0.263909 0.263525 0.263156
0.234961 0.234715 0.235282
0.202255 0.203634 0.204061
0.238998 0.238123 0.237504
0.201482 0.200438 0.200341
0.217247 0.217173 0.216423
0.193118 0.192320 0.196153
0.332657 0.332705 0.331470
0.198930 0.201481 0.204017
0.192731 0.193577 0.193638
0.227928 0.229236 0.229146
0.277668 0.277642 0.277571
0.276950 0.277068 0.274744
0.239130 0.238876 0.237948
0.199214 0.198674 0.198137
0.235971 0.236364 0.236111
0.244770 0.246638 0.247251
0.216322 0.215221 0.212539
0.198712 0.198750 0.200835
0.241379 0.241737 0.241212
0.273943 0.274037 0.275451
0.239265 0.238308 0.237087
0.284109 0.284602 0.284342
0.247392 0.246681 0.243651
0.212325 0.212025 0.211833
0.233000 0.230631 0.229541
0.249348 0.249217 0.248231
0.196362 0.194111 0.195556
0.196507 0.195760 0.195598
0.235505 0.235959 0.235780
0.212591 0.213631 0.214860
0.243698 0.237154 0.231682
0.221286 0.221318 0.221247
0.216885 0.215968 0.217417
0.186723 0.185809 0.185517
0.222042 0.222725 0.224047
0.204689 0.205560 0.204735
0.219250 0.216605 0.219114
0.251388 0.250524 0.251014
0.278148 0.276276 0.277868
0.255016 0.282223 0.290654
0.222402 0.221645 0.221350
0.269446 0.265546 0.266448
0.197504 0.196367 0.196519
0.233968 0.228895 0.229385
0.186334 0.185762 0.186934
0.223906 0.222995 0.221722
0.242323 0.240112 0.238343
0.230625 0.230629 0.228245
0.261192 0.260620 0.261102
0.295424 0.295353 0.294340
0.299460 0.299787 0.299323
0.205112 0.207693 0.208718
0.259192 0.261262 0.262674
0.225316 0.224931 0.225467
0.264557 0.269298 0.271303
0.224447 0.223941 0.224139
0.241393 0.245033 0.245978
0.228111 0.230225 0.230934
0.272319 0.271866 0.268913
0.234088 0.237215 0.237006
0.253112 0.253679 0.252021
0.205547 0.206551 0.213422
0.217009 0.216973 0.219072
0.305163 0.301340 0.271661
0.228146 0.227077 0.227267
0.194779 0.197282 0.200426
0.240513 0.241825 0.241121
0.301649 0.301367 0.301608
0.234585 0.237503 0.239386
0.267894 0.265786 0.266709
0.263863 0.265949 0.266084
0.288617 0.279137 0.279530
0.219469 0.218944 0.219356
0.219201 0.218415 0.218668
0.218139 0.218858 0.217422
0.272024 0.270716 0.268231
0.236810 0.236299 0.234382
0.186622 0.187319 0.186661
0.198614 0.201239 0.204445
0.206398 0.207295 0.208821
0.260329 0.261914 0.261759
0.260856 0.264674 0.260587
0.252728 0.254547 0.254752
0.205267 0.206483 0.211100
0.229371 0.229875 0.226679
0.241853 0.239950 0.239811
0.242423 0.242131 0.241630
0.250393 0.251186 0.250515
0.236384 0.238898 0.239992
0.212499 0.213543 0.216193
0.255125 0.252589 0.249412
0.197212 0.200978 0.208667
0.222586 0.221036 0.221309
0.205000 0.205556 0.203565
0.270133 0.274552 0.274985
0.194450 0.195925 0.194521
0.221432 0.221043 0.217676
0.221809 0.221418 0.222356
0.221565 0.224423 0.226704
0.242105 0.242933 0.243999
0.226252 0.225605 0.226400
0.271350 0.272607 0.275336
0.292507 0.292698 0.293880
0.210477 0.209612 0.210134
0.292099 0.293594 0.295133
0.228101 0.227183 0.227247
0.261127 0.261386 0.260780
0.250786 0.241329 0.241799
0.209931 0.211871 0.214716
0.241300 0.240985 0.242383
0.200976 0.198911 0.195863
0.199885 0.199164 0.196106
0.200926 0.200019 0.202736
0.242657 0.241827 0.243088
0.245366 0.244936 0.240991
0.233962 0.233829 0.234692
0.275594 0.276985 0.275859
0.226647 0.227155 0.229147
0.225146 0.223872 0.223060
0.228697 0.229306 0.229359
0.211836 0.212484 0.213575
0.226018 0.225977 0.225800
0.266319 0.265702 0.265258
0.231537 0.230626 0.231185
0.262347 0.265633 0.268694
0.215737 0.216078 0.217332
0.219349 0.219094 0.219145
0.236451 0.237100 0.237177
0.189028 0.188616 0.188719
0.238330 0.238513 0.237495
0.265143 0.264367 0.263088
0.263348 0.262527 0.257808
0.231961 0.231861 0.232930
0.264407 0.267415 0.268754
0.244044 0.245611 0.245057
0.269381 0.267753 0.265753
0.239300 0.238415 0.236805
0.247335 0.247580 0.246929
0.302830 0.304744 0.305742
0.258099 0.258407 0.257871
0.279267 0.279370 0.278117
0.256705 0.256098 0.256626
0.221964 0.222674 0.223536
0.218141 0.215873 0.214360
0.186776 0.185853 0.186560
0.282267 0.281565 0.280149
0.240149 0.241645 0.242677
0.239157 0.237169 0.235933
0.263971 0.263431 0.263209
0.232962 0.233473 0.232736
0.235626 0.236211 0.234940
0.215012 0.219978 0.223744
0.292003 0.292036 0.298541
0.222313 0.222312 0.221953
0.235170 0.235585 0.235652
0.294403 0.293681 0.296469
0.237803 0.237983 0.238199
0.198630 0.197502 0.197590
0.237411 0.232682 0.230554
0.254002 0.253597 0.253626
0.222914 0.223043 0.223731
0.201782 0.203740 0.203321
0.228973 0.228114 0.228275
0.240818 0.241149 0.247031
0.294367 0.293455 0.292741
0.275759 0.274479 0.274547
0.213228 0.217247 0.217173
0.270970 0.270101 0.270573
0.294984 0.296839 0.296675
0.248361 0.246098 0.244378
0.230534 0.229299 0.229725
0.197282 0.200426 0.202821
0.240560 0.240276 0.238357
0.266043 0.264570 0.263641
0.244433 0.245253 0.246193
0.271823 0.267614 0.268689
0.298365 0.296307 0.290408
0.245362 0.243895 0.234473
0.218006 0.219323 0.219309
0.213364 0.212135 0.211163
0.206394 0.205786 0.206700
0.239229 0.239238 0.238634
0.242146 0.242328 0.245200
0.243348 0.241070 0.237971
0.237650 0.237578 0.237655
0.252409 0.252703 0.252836
0.252376 0.252380 0.250377
0.220756 0.217407 0.214426
0.212323 0.214617 0.222095
0.233449 0.232748 0.227029
0.271037 0.270243 0.270068
0.237385 0.252033 0.252397
0.220354 0.216135 0.214216
0.280478 0.280158 0.280933
0.276493 0.276185 0.276525
0.242799 0.241710 0.242236
0.238104 0.238105 0.237701
0.234959 0.235080 0.234348
0.241140 0.240340 0.238863
0.198817 0.201175 0.202581
0.269516 0.271899 0.271683
0.184794 0.184836 0.188622
0.225455 0.225837 0.226586
0.216761 0.217682 0.218478
0.221933 0.218941 0.217407
0.366643 0.366070 0.366429
0.278173 0.277685 0.277631
0.205820 0.205823 0.207645
0.277726 0.277786 0.280535
0.295047 0.296464 0.296465
0.220900 0.219830 0.218832
0.208166 0.207641 0.207544
0.196991 0.195589 0.194652
0.221019 0.221022 0.221723
0.213970 0.217233 0.217787
0.240523 0.242352 0.239988
0.237473 0.237389 0.238245
0.253937 0.254083 0.255596
0.237647 0.236278 0.230839
0.267596 0.270814 0.270871
0.239792 0.237441 0.237514
0.235037 0.232019 0.224896
0.227152 0.227366 0.226092
0.191332 0.194823 0.193978
0.226493 0.225210 0.224294
0.236173 0.237431 0.236599
0.269912 0.268356 0.268682
0.306051 0.303457 0.303814
0.260764 0.263427 0.263575
0.275198 0.275994 0.274194
0.300002 0.298601 0.296651
0.209608 0.213083 0.214482
0.230762 0.230775 0.232449
0.181232 0.180138 0.179235
0.220985 0.221868 0.223704
0.229006 0.228111 0.226861
0.217417 0.217600 0.217727
0.228886 0.232024 0.234849
0.204450 0.204768 0.203294
0.305235 0.305880 0.307819
0.214859 0.213137 0.212365
0.268312 0.268657 0.269441
0.235144 0.232867 0.233807
0.236557 0.237200 0.241239
0.241559 0.243586 0.245876
0.244389 0.244049 0.243388
0.255507 0.254714 0.253452
0.229294 0.230011 0.231867
0.209811 0.212722 0.215276
0.197702 0.196906 0.196996
0.269114 0.271341 0.266808
0.197835 0.192636 0.193814
0.226172 0.225877 0.224924
0.238472 0.238431 0.239342
0.230380 0.230411 0.230147
0.262362 0.259939 0.258419
0.215485 0.215646 0.218160
0.207610 0.206293 0.204253
0.269131 0.270452 0.269943
0.236144 0.235125 0.233726
0.232248 0.225681 0.225788
0.225330 0.222258 0.223664
0.222355 0.223757 0.224516
0.214031 0.212225 0.211297
0.227083 0.226410 0.224592
0.212242 0.212159 0.210967
0.261275 0.261406 0.262775
0.234243 0.233082 0.233647
0.212157 0.214347 0.210395
0.257491 0.256993 0.257217
0.270127 0.267537 0.265811
0.279921 0.278097 0.272013
0.279950 0.279034 0.277012
0.205711 0.205539 0.207764
0.197015 0.198261 0.198812
0.203505 0.205998 0.205606
0.257042 0.257677 0.257036
0.234305 0.231918 0.230704
0.210492 0.210289 0.211619
0.276512 0.275213 0.274913
0.305749 0.305393 0.304493
0.207601 0.208355 0.208661
0.293701 0.294624 0.295819
0.239571 0.240093 0.240726
0.252630 0.252567 0.254116
0.247842 0.249201 0.249615
0.237483 0.237776 0.237182
0.230457 0.229805 0.230610
0.302260 0.296874 0.297227
0.242515 0.242450 0.242470
0.226145 0.226180 0.225737
0.252109 0.248885 0.246310
0.235076 0.233167 0.231969
0.236374 0.237732 0.245007
0.260028 0.260110 0.260277
0.237204 0.236820 0.238344
0.202720 0.202258 0.199972
0.269726 0.269803 0.269384
0.282530 0.281432 0.281227
0.237787 0.230112 0.231692
0.244505 0.244960 0.245258
0.252641 0.254347 0.255846
0.233410 0.231401 0.231153
0.339078 0.338812 0.337833
0.238465 0.238671 0.239334
0.233133 0.241744 0.242181
0.237523 0.236441 0.237687
0.272636 0.268835 0.268372
0.295431 0.295761 0.296615
0.306416 0.312712 0.316200
0.195252 0.192729 0.193133
0.231702 0.232410 0.233506
0.233111 0.232530 0.231365
0.232801 0.231601 0.232415
0.234625 0.233027 0.233555
0.250290 0.252847 0.253937
0.237004 0.235340 0.234025
0.206601 0.215707 0.218145
0.282665 0.283681 0.283694
0.278524 0.273033 0.273532
0.199139 0.197735 0.196634
0.266172 0.265675 0.265081
0.209880 0.210762 0.210891
0.268551 0.268772 0.263879
0.209048 0.209065 0.210381
0.251531 0.251597 0.252877
0.253996 0.253357 0.254542
0.264957 0.264553 0.262106
0.268829 0.268660 0.266232
0.215227 0.215785 0.218562
0.230396 0.229031 0.229886
0.284962 0.284946 0.284421
0.225105 0.226453 0.225547
0.225211 0.228631 0.230903
0.231133 0.231114 0.231933
0.244551 0.243402 0.243847
0.246417 0.246840 0.247301
0.241336 0.240287 0.240413
0.211449 0.210002 0.205426
0.205636 0.206158 0.206848
0.258526 0.258285 0.257951
0.258112 0.257882 0.256888
0.192963 0.192515 0.192250
0.229475 0.234040 0.235472
0.358682 0.354961 0.334078
0.300895 0.299203 0.297468
0.223674 0.223690 0.222976
0.256901 0.257096 0.254812
0.216308 0.216545 0.216559
0.232268 0.232922 0.231802
0.222430 0.220642 0.221988
0.212538 0.216882 0.219273
0.232360 0.231171 0.230064
0.224423 0.226704 0.228506
0.281134 0.282754 0.281970
0.252731 0.254117 0.255877
