0.298951 0.300231 0.292775
0.258837 0.260111 0.260677
0.196462 0.195503 0.195270
0.276821 0.282171 0.283568
0.185718 0.185227 0.186012
0.188882 0.188055 0.187543
0.163298 0.163190 0.163485
0.228758 0.226052 0.225433
0.271957 0.272494 0.273280
0.259570 0.259497 0.260444
0.234133 0.235402 0.232198
0.274858 0.282275 0.282244
0.213267 0.212946 0.211523
0.299268 0.299753 0.297366
0.244816 0.245934 0.245967
0.251158 0.249407 0.250118
0.178026 0.177234 0.177355
0.237916 0.238470 0.241125
0.218214 0.217736 0.217644
0.250875 0.251130 0.251125
0.178801 0.178537 0.180013
0.260335 0.261002 0.260056
0.265155 0.267953 0.263822
0.278973 0.272172 0.272633
0.272550 0.273180 0.273892
0.207130 0.206415 0.206570
0.249167 0.249545 0.249263
0.222170 0.222296 0.229771
0.249558 0.251967 0.250660
0.312086 0.311838 0.312868
0.271043 0.269686 0.266899
0.157410 0.157497 0.159083
0.253724 0.253508 0.254122
0.254833 0.254853 0.252600
0.173384 0.171216 0.170845
0.251215 0.251164 0.253161
0.246110 0.246665 0.243137
0.260938 0.258792 0.258049
0.219479 0.217881 0.215677
0.247513 0.246184 0.243353
0.230427 0.232441 0.236917
0.359182 0.354873 0.348199
0.524665 0.524239 0.524143
0.296152 0.297734 0.298010
0.346036 0.344947 0.342759
0.249363 0.249034 0.248354
0.440204 0.442822 0.442504
0.226545 0.228109 0.223752
0.200356 0.200640 0.201809
0.176065 0.175669 0.174147
0.388199 0.395117 0.416188
0.245400 0.246188 0.246994
0.181935 0.182891 0.182564
0.234484 0.233777 0.233095
0.281459 0.280478 0.277537
0.236498 0.239091 0.243946
0.181799 0.183520 0.184774
0.338805 0.338255 0.324034
0.159637 0.157456 0.157103
0.233554 0.234748 0.236018
0.262973 0.259000 0.260429
0.260392 0.259883 0.259023
0.240988 0.241208 0.241357
0.286012 0.294218 0.295493
0.260954 0.258754 0.258958
0.242218 0.243003 0.244764
0.164540 0.166483 0.169628
0.323390 0.325766 0.324674
0.251162 0.248942 0.248869
0.265344 0.268196 0.268262
0.242731 0.228412 0.225831
0.266585 0.264943 0.263840
0.263907 0.264418 0.264053
0.256902 0.256497 0.256392
0.251112 0.251089 0.251411
0.385972 0.390574 0.401786
0.295720 0.294431 0.296360
0.231884 0.233188 0.233080
0.229213 0.229113 0.228982
0.225757 0.223032 0.223460
0.216410 0.217208 0.217988
0.174372 0.174336 0.174564
0.219139 0.220476 0.223752
0.241319 0.242318 0.242342
0.272428 0.272717 0.274570
0.211988 0.212651 0.212940
0.283743 0.293367 0.300259
0.213533 0.212723 0.212397
0.172547 0.171843 0.176051
0.251620 0.254980 0.257167
0.217051 0.224678 0.219912
0.262717 0.261070 0.258843
0.298737 0.297912 0.298431
0.260973 0.258558 0.257786
0.238620 0.241562 0.243349
0.165251 0.164860 0.165445
0.208840 0.209606 0.211325
0.309436 0.308391 0.307728
0.382367 0.381739 0.379015
0.244472 0.244751 0.244285
0.234856 0.231892 0.233022
0.162961 0.163566 0.163374
0.307078 0.306666 0.306825
0.415809 0.425961 0.431461
0.231094 0.232301 0.234221
0.228462 0.225198 0.225655
0.167634 0.167858 0.167357
0.296155 0.299170 0.300299
0.221743 0.222805 0.222487
0.316649 0.306495 0.303991
0.248135 0.249025 0.249184
0.293587 0.293730 0.317649
0.281362 0.280283 0.277326
0.235070 0.233526 0.233631
0.277792 0.278861 0.278558
0.255600 0.256349 0.256741
0.209360 0.207360 0.209911
0.231802 0.232951 0.231845
0.291766 0.295228 0.296072
0.333577 0.331313 0.328094
0.302392 0.302485 0.303833
0.248097 0.248373 0.250698
0.205083 0.203224 0.204570
0.217837 0.218148 0.218833
0.248213 0.249397 0.250489
0.177568 0.177976 0.177779
0.249764 0.250109 0.250957
0.272572 0.270112 0.269221
0.435688 0.437236 0.440010
0.265701 0.266692 0.267935
0.176107 0.179146 0.180467
0.265215 0.263470 0.256507
0.273249 0.273347 0.272142
0.309261 0.305744 0.303526
0.260286 0.258942 0.255016
0.163320 0.163238 0.162109
0.221501 0.219775 0.219396
0.276044 0.282322 0.282297
0.161205 0.164052 0.166865
0.253661 0.254668 0.255761
0.236894 0.239548 0.239134
0.259271 0.260088 0.257632
0.250623 0.250683 0.249335
0.359091 0.359304 0.357293
0.234438 0.235347 0.236331
0.486879 0.487698 0.489018
0.282678 0.282803 0.284100
0.279069 0.278785 0.276238
0.539980 0.519044 0.516249
0.446768 0.446931 0.448927
0.284296 0.284166 0.281006
0.180144 0.178742 0.174717
0.208970 0.209374 0.210410
0.247047 0.232645 0.236465
0.350551 0.348315 0.349675
0.216628 0.217958 0.219505
0.273255 0.274576 0.277414
0.213566 0.211669 0.213021
0.225756 0.227237 0.228776
0.205778 0.208440 0.215357
0.203864 0.202970 0.201557
0.194097 0.194054 0.191702
0.241360 0.239725 0.236172
0.175255 0.174409 0.173540
0.261463 0.262988 0.263350
0.245444 0.240997 0.239928
0.249249 0.246052 0.242264
0.303911 0.302822 0.303295
0.376302 0.374948 0.373181
0.303682 0.304866 0.304624
0.245572 0.245006 0.245025
0.182136 0.181579 0.182348
0.282305 0.281078 0.278100
0.239874 0.241113 0.242237
0.183771 0.184167 0.183320
0.242006 0.242208 0.240158
0.216043 0.213230 0.211834
0.263834 0.266614 0.266346
0.225887 0.216101 0.208508
0.183230 0.182762 0.181626
0.215701 0.220190 0.221875
0.269638 0.270536 0.270724
0.287145 0.289522 0.286808
0.195882 0.196493 0.196779
0.235057 0.236034 0.236572
0.176921 0.176031 0.174221
0.277639 0.277465 0.275984
0.231266 0.231937 0.231794
0.175722 0.175631 0.175859
0.164667 0.165130 0.165154
0.235693 0.235301 0.235146
0.575041 0.583616 0.588222
0.281555 0.281247 0.282584
0.279947 0.278995 0.279112
0.171929 0.174055 0.174161
0.285223 0.284225 0.284232
0.154384 0.154438 0.152552
0.315203 0.314189 0.314983
0.233677 0.232886 0.230775
0.170543 0.169497 0.169569
0.567754 0.571463 0.570563
0.271502 0.270558 0.269847
0.333265 0.333187 0.333118
0.267134 0.268848 0.269265
0.253137 0.254287 0.254526
0.277642 0.275430 0.274243
0.238654 0.238370 0.240994
0.264227 0.265653 0.268996
0.252328 0.252818 0.252805
0.245790 0.246972 0.257781
0.259600 0.261147 0.268179
0.232805 0.231363 0.228939
0.170273 0.172428 0.174032
0.243707 0.243919 0.244778
0.265872 0.265541 0.265368
0.372813 0.379237 0.384420
0.171555 0.165414 0.163066
0.319767 0.323478 0.320898
0.252505 0.254073 0.259016
0.287104 0.285086 0.284101
0.232701 0.233106 0.232902
0.264618 0.258144 0.253161
0.179984 0.176005 0.177035
0.182539 0.182403 0.180342
0.284036 0.285220 0.285361
0.259069 0.257174 0.257459
0.217869 0.218133 0.218749
0.454641 0.454366 0.455603
0.246266 0.241332 0.240761
0.211002 0.211223 0.211640
0.281644 0.277694 0.274055
0.183089 0.182458 0.181349
0.352771 0.359599 0.361848
0.233247 0.235339 0.236055
0.286452 0.285798 0.285488
0.284305 0.285352 0.285577
0.261291 0.262156 0.263101
0.242726 0.242165 0.240531
0.178936 0.178256 0.177007
0.165036 0.161847 0.158948
0.268822 0.270436 0.269340
0.275812 0.273896 0.269246
0.334615 0.334987 0.334847
0.316543 0.316945 0.309597
0.252928 0.255925 0.259715
0.293106 0.301103 0.303827
0.220621 0.220807 0.221134
0.281102 0.279888 0.278896
0.168352 0.168123 0.168036
0.250507 0.252216 0.252420
0.266593 0.267411 0.268376
0.208490 0.208112 0.209488
0.185745 0.186227 0.187713
0.265115 0.263240 0.260289
0.180734 0.181288 0.181416
0.330634 0.315978 0.310833
0.251491 0.249946 0.250333
0.228339 0.227825 0.230140
0.243767 0.243866 0.243092
0.246729 0.247048 0.246540
0.314983 0.315471 0.317572
0.162477 0.163947 0.162915
0.284966 0.283736 0.283450
0.264647 0.263933 0.263923
0.172578 0.172680 0.172919
0.265547 0.264110 0.263692
0.320640 0.323224 0.323849
0.235184 0.236073 0.235532
0.273946 0.273891 0.275301
0.326811 0.327176 0.329480
0.172268 0.171555 0.165414
0.238450 0.238431 0.236361
0.178712 0.179910 0.181248
0.283210 0.283103 0.279740
0.160203 0.159572 0.158256
0.206548 0.205724 0.202721
0.165178 0.165383 0.165506
0.175277 0.176344 0.178024
0.211576 0.211194 0.206982
0.275896 0.277695 0.277275
0.273186 0.272783 0.272651
0.206487 0.207900 0.211270
0.231783 0.232131 0.233228
0.232745 0.231995 0.240062
0.257923 0.258394 0.258515
0.302086 0.303168 0.306973
0.167587 0.167142 0.168191
0.275364 0.274468 0.273606
0.229221 0.229481 0.232472
0.223676 0.225750 0.226331
0.304147 0.306323 0.306766
0.301860 0.302094 0.300629
0.211300 0.211107 0.210059
0.249704 0.247715 0.245128
0.272684 0.269211 0.263666
0.298642 0.300449 0.292338
0.255094 0.254184 0.258449
0.266400 0.266638 0.265553
0.154723 0.155362 0.156008
0.210565 0.211776 0.211921
0.270821 0.268654 0.266486
0.160372 0.161156 0.159713
0.278659 0.278373 0.277569
0.156010 0.156614 0.156344
0.237506 0.238464 0.235037
0.553234 0.558521 0.566157
0.301164 0.306552 0.310650
0.168615 0.168415 0.168188
0.271796 0.271253 0.271655
0.155613 0.155953 0.156388
0.174293 0.174450 0.171548
0.456263 0.458812 0.459509
0.321471 0.321635 0.321788
0.332984 0.333095 0.333190
0.259654 0.265133 0.265585
0.174235 0.174828 0.175074
0.280604 0.279373 0.277638
0.281596 0.291533 0.301578
0.171890 0.168038 0.164775
0.235758 0.235001 0.234730
0.205878 0.206289 0.206326
0.253723 0.254653 0.255271
0.176239 0.175035 0.175058
0.210450 0.214152 0.219278
0.253516 0.249612 0.249430
0.224801 0.222112 0.221400
0.164243 0.165265 0.166130
0.189458 0.190669 0.193054
0.369220 0.372811 0.370078
0.180881 0.180904 0.180840
0.243472 0.243185 0.242696
0.202528 0.206696 0.210299
0.286302 0.286023 0.286785
0.168131 0.169665 0.171705
0.294071 0.295802 0.304406
0.480300 0.476332 0.471138
0.173410 0.171424 0.170086
0.229490 0.227567 0.226837
0.252600 0.251994 0.251879
0.265402 0.264986 0.265606
0.230936 0.231093 0.231575
0.177766 0.177274 0.176575
0.312643 0.313477 0.311984
0.174545 0.175876 0.176069
0.263468 0.265240 0.264649
0.275077 0.274867 0.271771
0.315071 0.315397 0.316102
0.250323 0.251260 0.257002
0.314677 0.314287 0.314238
0.259972 0.261868 0.262118
0.248368 0.246308 0.248964
0.283151 0.284382 0.286159
0.245527 0.245431 0.244743
0.286234 0.291324 0.293364
0.238572 0.235874 0.228717
0.272548 0.272213 0.272477
0.163442 0.163027 0.162922
0.252195 0.253514 0.259025
0.347136 0.347453 0.351135
0.214675 0.214164 0.214824
0.318740 0.318886 0.316658
0.327121 0.327275 0.326581
0.457112 0.454652 0.454456
0.181203 0.181409 0.181385
0.252601 0.252796 0.252718
0.155550 0.155159 0.155056
0.179129 0.185900 0.185564
0.345912 0.345057 0.343626
0.229879 0.226889 0.226629
0.284940 0.285034 0.284619
0.335114 0.342071 0.345033
0.220807 0.221134 0.219395
0.250375 0.247103 0.246749
0.172029 0.172855 0.172862
0.364857 0.364454 0.363894
0.269229 0.261238 0.259157
0.302469 0.303236 0.303918
0.273853 0.273658 0.272980
0.205665 0.204220 0.204136
0.159424 0.160210 0.161504
0.280624 0.281138 0.284445
0.206376 0.209201 0.212256
0.260869 0.257665 0.254880
0.231250 0.229663 0.229316
0.246916 0.245775 0.242620
0.175035 0.175058 0.173017
0.261459 0.260113 0.256059
0.326860 0.327332 0.329758
0.174409 0.173693 0.174356
0.285615 0.284928 0.284591
0.193233 0.193753 0.194005
0.258902 0.257446 0.254365
0.306180 0.305106 0.304392
0.309707 0.310075 0.310727
0.217371 0.219771 0.221558
0.254826 0.255424 0.257478
0.565600 0.567302 0.570339
0.266814 0.264475 0.268455
0.161564 0.157350 0.156551
0.176170 0.176525 0.174358
0.231582 0.227353 0.226444
0.170466 0.170024 0.169773
0.254164 0.253945 0.250543
0.300255 0.299278 0.300735
0.234723 0.245964 0.248528
0.251831 0.251435 0.249344
0.273467 0.270751 0.269229
0.174405 0.173322 0.173462
0.310454 0.313011 0.311698
0.205884 0.205874 0.206195
0.178192 0.180376 0.181121
0.205026 0.205265 0.206287
0.205265 0.206287 0.206878
0.188055 0.186974 0.187267
0.174888 0.180609 0.182177
0.180014 0.179191 0.178559
0.283575 0.282402 0.280751
0.250201 0.251488 0.252849
0.239643 0.237578 0.236903
0.251273 0.257384 0.258392
0.237553 0.237939 0.236540
0.312137 0.308947 0.307818
0.241943 0.251124 0.250672
0.352559 0.353199 0.355812
0.299003 0.299089 0.299147
0.323572 0.323572 0.325897
0.242576 0.242742 0.241834
0.178072 0.177799 0.177869
0.205799 0.205907 0.205985
0.287297 0.284931 0.284729
0.276314 0.277334 0.278441
0.173168 0.171596 0.170797
0.267025 0.267325 0.264740
0.173273 0.175165 0.174348
0.275984 0.276872 0.276981
0.309643 0.304243 0.303323
0.326657 0.324315 0.325711
0.203462 0.206307 0.205315
0.270628 0.273030 0.274609
0.175694 0.174149 0.176306
0.228320 0.231372 0.231503
0.264015 0.264781 0.268459
0.225546 0.226252 0.226783
0.204196 0.203420 0.203891
0.177379 0.171423 0.169877
0.282898 0.279977 0.279841
0.216734 0.216739 0.214169
0.159605 0.160325 0.162561
0.252178 0.251808 0.251480
0.294231 0.293935 0.293591
0.241652 0.241981 0.242159
0.272491 0.273522 0.273944
0.278230 0.286204 0.287293
0.310426 0.310063 0.307402
0.234688 0.234127 0.233355
0.351584 0.352791 0.353198
0.275240 0.277283 0.278140
0.239066 0.239617 0.238193
0.218852 0.218267 0.217869
0.226080 0.225839 0.225247
0.277619 0.275344 0.276532
0.284959 0.284854 0.284222
0.275138 0.282255 0.284873
0.238295 0.238740 0.237765
0.176516 0.176633 0.174857
0.294278 0.293597 0.280994
0.174026 0.175893 0.175597
0.229062 0.235162 0.236012
0.299408 0.304575 0.306975
0.164962 0.165203 0.165662
0.282036 0.282123 0.280204
0.260047 0.260041 0.259692
0.284904 0.283969 0.285070
0.279069 0.280965 0.275170
0.223407 0.222078 0.222477
0.240280 0.239119 0.238658
0.277535 0.274861 0.277256
0.343956 0.346237 0.346567
0.182806 0.184807 0.187334
0.247703 0.246055 0.243723
0.228252 0.226150 0.226201
0.343702 0.346354 0.346431
0.353381 0.354828 0.360896
0.219798 0.221678 0.221566
0.247440 0.251018 0.250152
0.277638 0.277280 0.278437
0.263528 0.263846 0.264106
0.176582 0.176003 0.174271
0.216885 0.216105 0.215278
0.278583 0.279063 0.279215
0.284137 0.283315 0.283640
0.262874 0.262299 0.260648
0.345484 0.345371 0.345505
0.501711 0.495137 0.487053
0.165472 0.167804 0.169009
0.280948 0.279399 0.277886
0.233959 0.234688 0.234127
0.202737 0.203751 0.203733
0.273140 0.272561 0.274762
0.259047 0.259972 0.261868
0.244741 0.244983 0.247897
0.385743 0.387132 0.382113
0.368841 0.359080 0.351123
0.180442 0.179904 0.178026
0.172684 0.170752 0.170709
0.202371 0.203137 0.203644
0.259948 0.259986 0.261602
0.350698 0.351720 0.350749
0.331435 0.333460 0.334441
0.228825 0.228985 0.229107
0.258624 0.260043 0.259914
0.246521 0.247543 0.247602
0.216567 0.214032 0.208310
0.273977 0.276901 0.283578
0.231327 0.231211 0.232612
0.175076 0.175352 0.176616
0.171071 0.172664 0.170679
0.180272 0.178729 0.177487
0.286986 0.286439 0.286195
0.277277 0.276722 0.273790
0.264450 0.265443 0.265635
0.206678 0.205478 0.205469
0.245753 0.249792 0.246729
0.232866 0.230871 0.229998
0.223674 0.232726 0.236813
0.235099 0.237247 0.236598
0.222293 0.222417 0.221856
0.159508 0.160218 0.161207
0.312478 0.312896 0.316249
0.585224 0.586078 0.584492
0.180618 0.180774 0.181455
0.249663 0.251974 0.250068
0.271660 0.270923 0.271502
0.259406 0.255934 0.252232
0.237197 0.235878 0.232435
0.559515 0.550605 0.545348
0.261705 0.261785 0.261106
0.405624 0.398260 0.389607
0.175061 0.174157 0.172048
0.256370 0.258064 0.259502
0.264833 0.259296 0.257890
0.256856 0.258102 0.258325
0.246740 0.245753 0.249792
0.324129 0.323844 0.321918
0.247343 0.246843 0.246330
0.267735 0.263359 0.259967
0.233575 0.236733 0.236776
0.164654 0.165409 0.167672
0.287495 0.287155 0.286688
0.264996 0.265904 0.266036
0.237882 0.238709 0.240327
0.251073 0.249963 0.247203
0.344311 0.346330 0.346542
0.175661 0.176007 0.176342
0.510153 0.513572 0.522153
0.171753 0.170759 0.169886
0.255231 0.251457 0.247953
0.235421 0.231348 0.230601
0.252044 0.251269 0.251098
0.234086 0.232044 0.231582
0.176343 0.177361 0.178918
0.248640 0.248470 0.241708
0.266095 0.272799 0.271371
0.249764 0.250034 0.250732
0.168896 0.169104 0.168509
0.256413 0.254958 0.255009
0.274247 0.274171 0.274381
0.384958 0.384636 0.382452
0.239251 0.239948 0.240763
0.210541 0.209607 0.212276
0.184596 0.187765 0.189005
0.219322 0.218088 0.214490
0.251345 0.251565 0.251693
0.235634 0.235593 0.234382
0.242372 0.245646 0.245972
0.233605 0.232751 0.232752
0.321195 0.321001 0.320405
0.239725 0.240060 0.239633
0.246382 0.243735 0.242925
0.353326 0.356923 0.363611
0.321439 0.321411 0.321619
0.177962 0.177255 0.176854
0.163971 0.163584 0.163109
0.236269 0.235385 0.235203
0.388043 0.387567 0.387855
0.238487 0.241559 0.247915
0.506585 0.504851 0.502115
0.165846 0.166194 0.168273
0.290699 0.290808 0.292085
0.214693 0.206253 0.204939
0.300575 0.299737 0.301855
0.161335 0.160701 0.160202
0.238008 0.242705 0.247622
0.176698 0.175346 0.174711
0.282033 0.279757 0.275650
0.268269 0.268043 0.270430
0.305543 0.303312 0.303813
0.362486 0.355271 0.352968
0.266690 0.262556 0.260979
0.172529 0.174262 0.174587
0.204000 0.201885 0.202926
0.313084 0.312252 0.314759
0.275468 0.275634 0.274792
0.273271 0.273240 0.272629
0.223859 0.224870 0.224142
0.256496 0.258429 0.257692
0.262384 0.259245 0.256948
0.312322 0.312113 0.314100
0.185315 0.185615 0.185654
0.256556 0.256129 0.257024
0.172324 0.172797 0.173274
0.212809 0.212128 0.212545
0.266518 0.260885 0.258779
0.336371 0.336383 0.335913
0.185510 0.185646 0.186088
0.232185 0.238550 0.241299
0.183221 0.183691 0.185661
0.295937 0.295301 0.303345
0.224754 0.224895 0.222175
0.285798 0.283732 0.281700
0.265813 0.266182 0.268789
0.294627 0.286953 0.280738
0.259519 0.260909 0.261265
0.234323 0.233887 0.233097
0.276611 0.280246 0.283214
0.243964 0.244604 0.248852
0.231113 0.232055 0.236973
0.184313 0.184163 0.180454
0.268689 0.266416 0.264695
0.183631 0.179777 0.182629
0.232651 0.233472 0.233309
0.242310 0.241048 0.239617
0.547969 0.544853 0.539980
0.238957 0.239610 0.244586
0.222505 0.227356 0.228477
0.299389 0.291031 0.290876
0.159765 0.159213 0.158775
0.226788 0.228706 0.233167
0.324561 0.328468 0.328154
0.335442 0.334697 0.332559
0.246446 0.245897 0.245515
0.205742 0.205799 0.205907
0.268769 0.270373 0.270378
0.240107 0.241405 0.240680
0.162524 0.162269 0.162807
0.250122 0.251038 0.251595
0.163348 0.163757 0.164122
0.231587 0.231710 0.231250
0.185787 0.185600 0.185037
0.175729 0.175746 0.176151
0.257460 0.257949 0.254581
0.251097 0.250825 0.250382
0.166507 0.166445 0.167163
0.287806 0.287610 0.287828
0.213220 0.212651 0.212321
0.335960 0.334544 0.331265
0.266509 0.265246 0.264272
0.238464 0.235037 0.231562
0.286893 0.288848 0.290896
0.279335 0.279372 0.277574
0.228356 0.227587 0.227996
0.235145 0.234911 0.235586
0.256142 0.253551 0.241790
0.237217 0.238275 0.236030
0.248713 0.250241 0.253416
0.264409 0.264809 0.265245
0.242431 0.242496 0.242084
0.265179 0.266367 0.266720
0.250489 0.250591 0.248595
0.251987 0.253285 0.253430
0.174334 0.174669 0.176484
0.251807 0.253668 0.263882
0.233114 0.232390 0.233476
0.282749 0.285905 0.290319
0.177224 0.177278 0.178026
0.233227 0.232107 0.231852
0.231807 0.231397 0.230949
0.222184 0.222117 0.220567
0.242423 0.243260 0.245154
0.234630 0.235116 0.236220
0.257133 0.257824 0.256288
0.270096 0.268990 0.283987
0.238563 0.237131 0.231855
0.238460 0.238747 0.238116
0.234017 0.234550 0.239956
0.176065 0.174655 0.173200
0.224554 0.222266 0.223060
0.229195 0.227144 0.228750
0.206174 0.206446 0.206583
0.365177 0.362800 0.362560
0.257428 0.256122 0.254288
0.157338 0.157811 0.159161
0.275304 0.275582 0.276581
0.212705 0.209735 0.209659
0.184127 0.182685 0.182743
0.232241 0.233340 0.234322
0.285040 0.282871 0.284059
0.243211 0.248829 0.256867
0.189654 0.188602 0.189728
0.210376 0.209708 0.211348
0.227134 0.227812 0.229592
0.229875 0.229781 0.228917
0.283450 0.282141 0.282858
0.255074 0.254460 0.256338
0.244373 0.244627 0.243833
0.454238 0.455911 0.458511
0.228247 0.232271 0.235305
0.288339 0.290701 0.292539
0.263597 0.260477 0.259561
0.370615 0.371516 0.371734
0.252302 0.255862 0.255789
0.351668 0.353258 0.362778
0.416188 0.422752 0.424403
0.306610 0.308287 0.311194
0.224057 0.223316 0.220511
0.269242 0.269329 0.270238
0.374082 0.372528 0.382139
0.239238 0.239955 0.239657
0.206032 0.207451 0.209423
0.324289 0.327354 0.326569
0.336092 0.335413 0.334370
0.274695 0.276854 0.278496
0.162481 0.163931 0.164990
0.250569 0.250122 0.250337
0.282858 0.280249 0.279980
0.296860 0.297765 0.304154
0.269063 0.269037 0.275709
0.211919 0.213533 0.215381
0.345455 0.346929 0.349729
0.584201 0.586210 0.584673
0.185689 0.185525 0.185827
0.279970 0.279825 0.278537
0.224634 0.229989 0.231347
0.302066 0.300994 0.299389
0.321587 0.335114 0.342071
0.274322 0.273092 0.272363
0.177751 0.175605 0.174359
0.286879 0.284963 0.281545
0.230166 0.229844 0.233752
0.213910 0.215083 0.215274
0.178135 0.178230 0.178690
0.226365 0.226866 0.225993
0.292686 0.294503 0.293932
0.322680 0.322910 0.327192
0.155444 0.155099 0.156035
0.265524 0.267901 0.269798
0.181563 0.182581 0.182137
0.420869 0.421257 0.428505
0.353767 0.353784 0.354386
0.179837 0.178072 0.177799
0.220987 0.221504 0.220305
0.241253 0.238688 0.238150
0.227017 0.227743 0.228461
0.266472 0.268135 0.270209
0.264735 0.264240 0.263908
0.214058 0.214980 0.214206
0.248808 0.252405 0.255808
0.335367 0.327693 0.326354
0.264963 0.265332 0.265657
0.276165 0.280772 0.286827
0.205053 0.203889 0.206052
0.231832 0.232491 0.233153
0.320544 0.328096 0.325977
0.246790 0.247703 0.246306
0.243655 0.244514 0.245230
0.208331 0.205910 0.203104
0.222101 0.220432 0.220465
0.237878 0.238778 0.240303
0.281737 0.285945 0.286305
0.301093 0.299403 0.298784
0.255390 0.260482 0.264284
0.232388 0.230161 0.230172
0.243349 0.243839 0.245290
0.182838 0.183808 0.184006
0.261905 0.251288 0.245491
0.175588 0.174062 0.172423
0.284269 0.287199 0.286314
0.388760 0.384052 0.369546
0.251253 0.259323 0.267432
0.281828 0.281338 0.280432
0.264208 0.264944 0.263416
0.383458 0.402428 0.424379
0.174801 0.172447 0.172008
0.182434 0.181179 0.181171
0.214768 0.213883 0.214854
0.227189 0.226740 0.227461
0.221165 0.218369 0.218325
0.224120 0.224573 0.225193
0.294769 0.298306 0.304975
0.172495 0.173206 0.176107
0.240830 0.237849 0.238058
0.161297 0.156183 0.156487
0.257336 0.259115 0.260602
0.156199 0.156876 0.157653
0.229747 0.229062 0.235162
0.190414 0.191590 0.192369
0.278241 0.281987 0.283773
0.239978 0.243265 0.248038
0.247518 0.246730 0.249496
0.281399 0.280426 0.278962
0.278005 0.271255 0.266223
0.236978 0.237167 0.237774
0.266223 0.267688 0.267356
0.277580 0.279949 0.279068
0.265651 0.265522 0.264711
0.221954 0.222033 0.223074
0.324161 0.324244 0.322162
0.248111 0.245919 0.246285
0.270760 0.270968 0.272200
0.268568 0.267924 0.267572
0.206513 0.210388 0.210199
0.314811 0.313648 0.313246
0.235952 0.235964 0.234264
0.229461 0.230768 0.230601
0.167575 0.167072 0.167993
0.275677 0.274773 0.273361
0.334383 0.335843 0.336823
0.318302 0.318710 0.318048
0.227743 0.227900 0.228975
0.211056 0.212336 0.213606
0.204815 0.202337 0.202891
0.252977 0.250876 0.249633
0.250962 0.250922 0.253841
0.245106 0.244372 0.244281
0.176479 0.177710 0.178180
0.229375 0.231794 0.234832
0.184695 0.183181 0.182727
0.486132 0.496645 0.498163
0.263100 0.269708 0.274648
0.218445 0.218311 0.218505
0.166725 0.166845 0.165099
0.263438 0.264128 0.263474
0.158260 0.157213 0.156844
0.234381 0.234546 0.233882
0.248919 0.249814 0.249031
0.298906 0.298952 0.298439
0.250013 0.250348 0.250105
0.185564 0.185251 0.186618
0.300869 0.300327 0.294919
0.316671 0.316949 0.315790
0.217726 0.216219 0.215064
0.204269 0.203987 0.203585
0.266359 0.266444 0.267317
0.236216 0.231750 0.229132
0.196373 0.196323 0.195163
0.293123 0.290077 0.296522
0.263300 0.262462 0.260909
0.158733 0.160912 0.161397
0.171778 0.172730 0.175124
0.256552 0.254140 0.253819
0.253595 0.252532 0.252550
0.243481 0.242893 0.240431
0.272190 0.273012 0.275452
0.279090 0.276482 0.275338
0.186898 0.186665 0.187438
0.370761 0.371058 0.370630
0.311898 0.308848 0.307469
0.240303 0.240859 0.241118
0.277599 0.277010 0.277043
0.231334 0.231469 0.233070
0.230034 0.234973 0.237650
0.296890 0.289299 0.289384
0.283618 0.281878 0.263864
0.303029 0.294375 0.287773
0.267811 0.266585 0.264943
0.271427 0.269802 0.267807
0.243185 0.242696 0.242669
0.328983 0.332538 0.343506
0.391698 0.391587 0.391969
0.304990 0.304048 0.302743
0.250656 0.247512 0.246723
0.252572 0.252945 0.251471
0.188120 0.187796 0.192572
0.320797 0.318552 0.316559
0.306973 0.306617 0.303842
0.349379 0.349222 0.347865
0.218715 0.215944 0.219215
0.254737 0.254851 0.254784
0.309504 0.310531 0.312175
0.280189 0.280232 0.278980
0.257426 0.256801 0.256528
0.235370 0.235117 0.233915
0.586253 0.585379 0.584932
0.212902 0.216808 0.223748
0.183548 0.185304 0.184304
0.212835 0.212196 0.214760
0.345140 0.340939 0.340396
0.393797 0.391013 0.389092
0.249035 0.248757 0.248097
0.250398 0.250660 0.246990
0.315179 0.316763 0.320346
0.296760 0.296300 0.296400
0.235481 0.234215 0.233130
0.393928 0.393115 0.392527
0.334846 0.335264 0.332820
0.227727 0.228138 0.228987
0.174244 0.173864 0.174312
0.168425 0.167838 0.168138
0.202475 0.203341 0.204353
0.241359 0.241874 0.241903
0.230837 0.230619 0.233273
0.374658 0.375432 0.376302
0.184890 0.185998 0.188168
0.171880 0.171586 0.171091
0.230161 0.226878 0.224247
0.208602 0.208065 0.204532
0.215371 0.216976 0.215813
0.222318 0.226335 0.227838
0.236471 0.235558 0.235196
0.207690 0.208456 0.209268
0.317360 0.320352 0.319209
0.262039 0.259982 0.255136
0.146995 0.147033 0.146414
0.268053 0.268050 0.263629
0.211851 0.213216 0.217910
0.249762 0.250031 0.249203
0.257801 0.253883 0.251917
0.262498 0.262575 0.260885
0.255951 0.255039 0.251615
0.239880 0.239986 0.240240
0.269276 0.262960 0.256729
0.300327 0.294919 0.292860
0.286321 0.285662 0.285016
0.200335 0.200420 0.201009
0.267193 0.266571 0.265305
0.170805 0.171233 0.171304
0.196493 0.196779 0.195221
0.238790 0.240585 0.241966
0.284219 0.282565 0.280651
0.273790 0.274016 0.274533
0.330448 0.333035 0.335079
0.222116 0.224037 0.227170
0.274570 0.276610 0.275786
0.284508 0.283363 0.277174
0.275014 0.278845 0.280650
0.189609 0.190488 0.191598
0.177459 0.177703 0.180353
0.186012 0.186122 0.186041
0.236433 0.236436 0.237586
0.304753 0.299478 0.298733
0.289393 0.288550 0.286508
0.251720 0.250407 0.248502
0.268025 0.266538 0.265694
0.185626 0.184405 0.184265
0.220190 0.221875 0.223365
0.290577 0.288381 0.287243
0.250044 0.252652 0.252087
0.333794 0.334331 0.335746
0.250115 0.250285 0.249496
0.313433 0.312203 0.308624
0.169404 0.167570 0.165836
0.282689 0.286084 0.290662
0.223531 0.227341 0.227584
0.185679 0.185521 0.186304
0.233434 0.235260 0.231720
0.179886 0.178810 0.178907
0.236634 0.237353 0.237105
0.216704 0.216681 0.218912
0.219112 0.219684 0.220110
0.257061 0.260932 0.262258
0.177251 0.177075 0.178246
0.316612 0.317079 0.315973
0.284842 0.283802 0.283438
0.240849 0.239270 0.236915
0.235037 0.231562 0.228560
0.256750 0.254888 0.257027
0.460025 0.454476 0.444912
0.278279 0.290702 0.297147
0.255962 0.255566 0.254075
0.242173 0.244572 0.243322
0.203422 0.204060 0.206184
0.213826 0.213734 0.213953
0.412035 0.410245 0.406274
0.265931 0.268904 0.269149
0.251118 0.252601 0.252796
0.251446 0.249056 0.246746
0.288130 0.286188 0.283900
0.265865 0.265530 0.262626
0.171757 0.172087 0.172634
0.307748 0.307127 0.306358
0.225831 0.224227 0.224034
0.239769 0.227210 0.225160
0.304130 0.301927 0.292983
0.236347 0.235116 0.233692
0.213638 0.211849 0.213657
0.255504 0.254205 0.253625
0.235219 0.235742 0.236019
0.226771 0.227054 0.227307
0.240574 0.241408 0.243868
0.236731 0.237615 0.243358
0.238668 0.242416 0.244451
0.287684 0.284253 0.281137
0.216531 0.216966 0.218067
0.170413 0.170929 0.170590
0.244791 0.244631 0.244817
0.283672 0.285469 0.287546
0.165612 0.163213 0.160794
0.236421 0.237464 0.240365
0.271014 0.269903 0.268888
0.272249 0.271676 0.268680
