0.250929 0.251182 0.252054
0.159769 0.160486 0.160623
0.189856 0.194566 0.202395
0.489766 0.490226 0.490516
0.246334 0.246878 0.249701
0.350780 0.351376 0.353071
0.171480 0.172517 0.172322
0.505214 0.504784 0.504697
0.172914 0.171983 0.169798
0.217903 0.216559 0.215157
0.560642 0.566643 0.567350
0.565439 0.562037 0.560826
0.406491 0.404187 0.403498
0.567615 0.565655 0.562040
0.199084 0.198363 0.197585
0.159495 0.163301 0.164451
0.321855 0.314098 0.312545
0.159702 0.160548 0.160685
0.352092 0.349598 0.354197
0.203427 0.203850 0.205121
0.477578 0.476066 0.475228
0.250820 0.251768 0.252094
0.148573 0.149235 0.151429
0.145704 0.144665 0.138575
0.233408 0.232036 0.220678
0.213616 0.217117 0.224245
0.148657 0.148395 0.148477
0.243272 0.242846 0.242347
0.413993 0.410231 0.408750
0.236277 0.235927 0.237109
0.425767 0.427648 0.428499
0.425297 0.423504 0.423939
0.329808 0.330982 0.316648
0.468155 0.467400 0.466555
0.166899 0.166877 0.167520
0.360856 0.362048 0.366573
0.381083 0.379533 0.380247
0.551713 0.549425 0.549586
0.359989 0.357702 0.356915
0.457787 0.457019 0.457319
0.537628 0.538346 0.538980
0.240806 0.239481 0.239752
0.195156 0.195609 0.192655
0.147874 0.147802 0.148443
0.447815 0.448145 0.448247
0.240912 0.241492 0.240626
0.821265 0.803572 0.799546
0.449003 0.449120 0.449402
0.404827 0.403029 0.400733
0.344367 0.344618 0.344575
0.390141 0.388793 0.388498
0.507222 0.509099 0.510445
0.357007 0.363342 0.367739
0.230881 0.234336 0.236353
0.137894 0.137913 0.137630
0.466765 0.465757 0.465664
0.391888 0.390754 0.388571
0.388343 0.380489 0.378937
0.129866 0.129625 0.129451
0.308283 0.308204 0.310850
0.230621 0.231074 0.233117
0.753645 0.750576 0.729877
0.489275 0.489946 0.488597
0.219761 0.215708 0.214849
0.728109 0.732673 0.734696
0.407675 0.409096 0.410441
0.422467 0.423521 0.426360
0.287642 0.287109 0.286930
0.369195 0.367500 0.364922
0.481082 0.508849 0.509234
0.145206 0.144356 0.142759
0.246077 0.250738 0.252360
0.134893 0.135000 0.134585
0.284868 0.285229 0.285888
0.166040 0.166144 0.164188
0.127361 0.127006 0.127118
0.501248 0.501879 0.501226
0.132580 0.133363 0.135149
0.148966 0.149205 0.149358
0.477960 0.473930 0.468933
0.132069 0.131270 0.131429
0.204690 0.204709 0.204040
0.432814 0.432722 0.433092
0.198389 0.199420 0.200374
0.159389 0.159050 0.158677
0.392154 0.395962 0.401969
0.166336 0.165499 0.165728
0.550043 0.550887 0.549172
0.362603 0.361247 0.359484
0.138846 0.138726 0.138171
0.395569 0.399023 0.401418
0.110946 0.110474 0.110371
0.422341 0.422597 0.421791
0.145681 0.145872 0.146298
0.161104 0.165644 0.165944
0.157195 0.159125 0.159589
0.131699 0.131919 0.132217
0.406103 0.408870 0.485456
0.160935 0.159944 0.159345
0.239711 0.238481 0.237677
0.362806 0.365046 0.372274
0.133175 0.133307 0.133497
0.426563 0.428704 0.428632
0.447978 0.448399 0.448251
0.408240 0.407973 0.402769
0.158648 0.158154 0.158256
0.131082 0.131230 0.132193
0.947113 0.951072 0.952756
0.449396 0.449193 0.449193
0.304807 0.296294 0.290557
0.133638 0.133417 0.133065
0.138127 0.138225 0.138218
0.553652 0.554157 0.555777
0.240855 0.241018 0.240579
0.195076 0.189089 0.189251
0.252087 0.252371 0.252452
0.114690 0.115754 0.117510
0.124047 0.124343 0.124918
0.338250 0.337498 0.337492
0.424198 0.424720 0.426947
0.131851 0.131123 0.131278
0.309004 0.308093 0.308205
0.144437 0.145681 0.145872
0.435761 0.436579 0.440724
0.163263 0.162784 0.163905
0.128407 0.130605 0.130479
0.208072 0.206665 0.205914
0.227978 0.229224 0.229112
0.117107 0.117884 0.117674
0.474522 0.479084 0.482845
0.111169 0.111064 0.111128
0.164822 0.164273 0.165059
0.491702 0.490811 0.486886
0.348534 0.348221 0.349099
0.266858 0.266028 0.265833
0.136322 0.136433 0.136480
0.173526 0.174761 0.175288
0.418038 0.425485 0.427705
0.705907 0.711050 0.719710
0.166881 0.170099 0.172307
0.485231 0.485047 0.483830
0.407187 0.407238 0.409314
0.400721 0.400671 0.398179
0.204286 0.204848 0.206032
0.536743 0.537253 0.536089
0.160317 0.160276 0.159950
0.143864 0.143091 0.142410
0.341944 0.355134 0.357420
0.391957 0.390138 0.388657
0.419618 0.430661 0.430225
0.409718 0.414318 0.414029
0.426747 0.431115 0.432770
0.485549 0.485785 0.485827
0.239761 0.234432 0.233956
0.390665 0.391562 0.398528
0.128090 0.128093 0.128026
0.229537 0.233215 0.233022
0.204056 0.203180 0.202537
0.385311 0.384594 0.384444
0.123479 0.123189 0.121265
0.226703 0.230932 0.233093
0.394453 0.396471 0.401454
0.433064 0.429669 0.422382
0.522298 0.521145 0.518990
0.250357 0.242860 0.241540
0.163813 0.163486 0.163463
0.558031 0.561407 0.556751
0.209175 0.209686 0.209913
0.398728 0.398741 0.398960
0.893958 0.893951 0.889431
0.135543 0.135353 0.137921
0.303885 0.306948 0.309581
0.239627 0.238392 0.238233
0.407238 0.409314 0.413896
0.119270 0.119120 0.120106
0.489846 0.492701 0.491745
0.130829 0.130337 0.130155
0.396650 0.399700 0.409100
0.393408 0.394151 0.394706
0.170388 0.170146 0.169699
0.164354 0.164588 0.165765
0.145678 0.145248 0.144791
0.167089 0.167576 0.167436
0.137771 0.137546 0.137771
0.266331 0.267664 0.269554
0.199072 0.198882 0.197048
0.160662 0.161582 0.163661
0.333415 0.330992 0.331161
0.149465 0.149160 0.151312
0.416661 0.418234 0.419207
0.171888 0.170939 0.171204
0.313712 0.311989 0.312583
0.610939 0.609970 0.606055
0.415462 0.409904 0.394418
0.483909 0.481812 0.478463
0.447652 0.447516 0.453471
0.395139 0.390387 0.389500
0.168582 0.169843 0.170067
0.625160 0.623669 0.641286
0.862171 0.855305 0.851937
0.160223 0.159962 0.159810
0.405370 0.403011 0.403779
0.450587 0.445328 0.452308
0.148597 0.149220 0.149314
0.508603 0.509249 0.510488
0.900455 0.895453 0.894992
0.164423 0.164751 0.164815
0.171963 0.171870 0.171938
0.587071 0.594040 0.597013
0.234016 0.233463 0.233636
0.154894 0.148798 0.146079
0.475465 0.466195 0.462361
0.333129 0.332872 0.332336
0.204136 0.215525 0.227444
0.200739 0.200336 0.199848
0.390550 0.390141 0.388793
0.371838 0.371589 0.370044
0.287214 0.287743 0.287105
0.904141 0.906513 0.906611
0.455001 0.450841 0.455154
0.345112 0.344331 0.344607
0.152637 0.151759 0.152389
0.135724 0.134720 0.135675
0.245505 0.240030 0.239771
0.505679 0.504463 0.502431
0.158680 0.158870 0.158105
0.417469 0.416367 0.416377
0.179885 0.180772 0.181417
0.255166 0.255317 0.255607
0.482785 0.478128 0.471795
0.436496 0.423360 0.418105
0.120410 0.121924 0.122163
0.464516 0.464315 0.461758
0.473459 0.476776 0.480353
0.320823 0.318501 0.318110
0.473537 0.476184 0.494134
0.324170 0.318026 0.314008
0.162028 0.161201 0.161803
0.540608 0.552233 0.561318
0.404212 0.396564 0.392080
0.484916 0.481912 0.480254
0.135532 0.134293 0.134308
0.410366 0.409849 0.410205
0.158772 0.159334 0.159445
0.479731 0.497259 0.501039
0.450594 0.450708 0.451779
0.471277 0.471019 0.470652
0.165622 0.165612 0.164977
0.164097 0.163085 0.162794
0.500734 0.498284 0.494635
0.791800 0.787268 0.780647
0.135400 0.134799 0.134753
0.159258 0.159700 0.159879
0.140610 0.141222 0.141685
0.506683 0.511069 0.519008
0.163455 0.163449 0.163650
0.282668 0.282481 0.281981
0.625304 0.626565 0.628238
0.478059 0.478639 0.483578
0.414138 0.413740 0.402866
0.206143 0.205265 0.205341
0.312302 0.305474 0.300351
0.168741 0.168881 0.167836
0.409820 0.408588 0.402134
0.131570 0.131134 0.132315
0.603876 0.604495 0.605998
0.310038 0.308210 0.308961
0.277850 0.278141 0.278566
0.210619 0.207830 0.207052
0.125049 0.125315 0.125433
0.313052 0.315196 0.308627
0.442420 0.449466 0.450262
0.514154 0.509948 0.509010
0.353163 0.352678 0.355277
0.427979 0.437084 0.438863
0.132425 0.133194 0.132792
0.466669 0.467591 0.468836
0.491897 0.486862 0.483259
0.133144 0.133734 0.133851
0.159269 0.159421 0.157943
0.165919 0.166198 0.167550
0.415051 0.419260 0.419584
0.155818 0.156453 0.157268
0.417556 0.409028 0.422560
0.131457 0.131956 0.133176
0.422498 0.425742 0.422467
0.383395 0.384799 0.388489
0.423026 0.423664 0.426830
0.316109 0.317726 0.317440
0.124887 0.124925 0.124954
0.331561 0.324303 0.321908
0.153498 0.153702 0.151962
0.160877 0.159262 0.158535
0.493826 0.499514 0.500925
0.290295 0.289164 0.289396
0.444657 0.445060 0.445433
0.205481 0.205632 0.206239
0.160594 0.158935 0.157825
0.605422 0.607652 0.606616
0.432543 0.433328 0.435966
0.143317 0.143458 0.142624
0.527940 0.529061 0.526674
0.132680 0.131329 0.132476
0.219037 0.216646 0.214911
0.184013 0.183566 0.182535
0.179129 0.176877 0.176669
0.249960 0.266900 0.282807
0.294245 0.293916 0.293438
0.208673 0.209702 0.208342
0.388868 0.387624 0.386643
0.122408 0.123387 0.123504
0.311094 0.310386 0.310792
0.325124 0.328258 0.328718
0.844560 0.839208 0.827382
0.275919 0.284599 0.289032
0.110666 0.111335 0.111143
0.108310 0.108770 0.109423
0.138771 0.138367 0.136163
0.477946 0.482184 0.482949
0.264116 0.264185 0.263377
0.449505 0.448581 0.447900
0.902377 0.900903 0.895887
0.903886 0.905197 0.906163
0.175659 0.176175 0.178364
0.217387 0.217842 0.217903
0.419678 0.420159 0.417580
0.209482 0.207543 0.207342
0.437401 0.437400 0.436761
0.113021 0.112022 0.112902
0.386256 0.385305 0.385047
0.224822 0.224258 0.221704
0.469221 0.469325 0.467416
0.174701 0.169506 0.166869
0.132655 0.132518 0.132405
0.145532 0.145741 0.145544
0.437152 0.444112 0.446446
0.456859 0.456924 0.457112
0.477542 0.479303 0.480360
0.211721 0.211576 0.209710
0.802171 0.796590 0.789858
0.229255 0.231000 0.232652
0.461982 0.448972 0.441167
0.428236 0.427014 0.420917
0.398610 0.398904 0.397010
0.511069 0.519008 0.527614
0.149590 0.148578 0.148762
0.481904 0.497179 0.499114
0.468097 0.467490 0.467167
0.409241 0.405028 0.406970
0.130223 0.130336 0.132686
0.286728 0.276308 0.263567
0.353012 0.360425 0.373192
0.155951 0.157391 0.158221
0.423801 0.426220 0.428595
0.199416 0.201124 0.201265
0.232443 0.233471 0.230452
0.419300 0.420132 0.420593
0.413180 0.411954 0.409936
0.157158 0.158292 0.156087
0.165566 0.166598 0.167243
0.173896 0.171725 0.171492
0.155684 0.155686 0.155469
0.491073 0.492876 0.491017
0.536320 0.532739 0.524699
0.469430 0.469171 0.473638
0.138204 0.136281 0.136816
0.482227 0.488048 0.488636
0.223964 0.222859 0.224890
0.134185 0.134018 0.132751
0.240175 0.242569 0.243994
0.390754 0.388571 0.385877
0.165264 0.167163 0.166932
0.263706 0.263007 0.263033
0.135135 0.134993 0.134289
0.182742 0.184137 0.184374
0.527013 0.519030 0.518942
0.207149 0.207123 0.206055
0.130579 0.131633 0.132040
0.141500 0.140717 0.139461
0.163766 0.163571 0.163384
0.156374 0.156584 0.157083
0.254758 0.245553 0.244440
0.485478 0.488209 0.490776
0.158250 0.160414 0.161430
0.401655 0.402379 0.399985
0.486798 0.493599 0.490632
0.256058 0.255973 0.255964
0.601521 0.586091 0.583862
0.160787 0.160252 0.160197
0.634714 0.635776 0.631512
0.165787 0.166202 0.167311
0.352849 0.352251 0.351839
0.597248 0.596646 0.594366
0.390395 0.386599 0.385845
0.212537 0.213426 0.213967
0.173384 0.173723 0.172529
0.152117 0.152543 0.152886
0.437134 0.437057 0.436612
0.304975 0.319692 0.330969
0.125973 0.125278 0.125390
0.121929 0.122033 0.121141
0.509144 0.511932 0.512823
0.165954 0.166076 0.167018
0.502654 0.495612 0.492259
0.504837 0.508010 0.507436
0.311930 0.311794 0.310967
0.289439 0.283063 0.278921
0.135019 0.135253 0.135090
0.648772 0.626701 0.616261
0.558490 0.565369 0.574831
0.482313 0.482045 0.484383
0.160883 0.160794 0.160842
0.404568 0.400741 0.399248
0.337770 0.340386 0.342112
0.504640 0.509564 0.512696
0.504430 0.487474 0.484543
0.160844 0.161672 0.161214
0.436663 0.434770 0.428327
0.310855 0.306968 0.305419
0.156165 0.153880 0.153586
0.130234 0.130067 0.129147
0.285999 0.285957 0.284527
0.164572 0.164418 0.164688
0.213460 0.213423 0.213636
0.511283 0.508046 0.508118
0.313718 0.331520 0.348166
0.209028 0.208920 0.209825
0.410367 0.408150 0.409041
0.305570 0.305341 0.304226
0.403779 0.403436 0.396237
0.117578 0.117388 0.117400
0.132518 0.132405 0.131495
0.133358 0.133652 0.132436
0.385261 0.389544 0.389888
0.401293 0.405927 0.417425
0.423658 0.431242 0.442737
0.488001 0.492129 0.498865
0.414127 0.417462 0.420967
0.809403 0.814493 0.839107
0.164996 0.169252 0.169157
0.361789 0.364986 0.386050
0.277175 0.282166 0.284912
0.818913 0.822306 0.825594
0.248220 0.244154 0.237553
0.233956 0.234413 0.234295
0.548170 0.552773 0.553642
0.160465 0.158497 0.159203
0.453560 0.446417 0.445469
0.424329 0.422481 0.420985
0.424057 0.424195 0.428590
0.558713 0.560016 0.559721
0.767633 0.765809 0.755907
0.218384 0.223601 0.224524
0.128090 0.127840 0.128109
0.423694 0.426715 0.430658
0.143821 0.142777 0.140987
0.278623 0.278664 0.278761
0.158213 0.157084 0.157371
0.463102 0.468856 0.473675
0.697424 0.699972 0.703410
0.356331 0.354666 0.353300
0.205495 0.205255 0.203590
0.453216 0.456024 0.456920
0.133148 0.133175 0.133312
0.263794 0.258172 0.255399
0.521852 0.521043 0.519669
0.352748 0.355114 0.355938
0.205564 0.208071 0.209967
0.470064 0.459174 0.452358
0.165013 0.165202 0.166500
0.330367 0.329832 0.331479
0.496453 0.493393 0.483917
0.497983 0.495066 0.498030
0.447060 0.442919 0.433710
0.146106 0.148044 0.146476
0.511772 0.508691 0.506100
0.188789 0.190045 0.190569
0.137811 0.138036 0.138693
0.286232 0.286784 0.287377
0.342772 0.344086 0.344533
0.131636 0.129042 0.129209
0.456974 0.458619 0.458334
0.480762 0.457978 0.440716
0.496192 0.490228 0.490352
0.310924 0.310590 0.312348
0.438424 0.435455 0.435026
0.499764 0.501014 0.501630
0.151743 0.150943 0.149305
0.424319 0.422803 0.426083
0.381187 0.383225 0.397220
0.270138 0.269417 0.270163
0.166542 0.169112 0.167732
0.163665 0.163634 0.164108
0.509099 0.510445 0.510856
0.603117 0.602276 0.597220
0.132785 0.133332 0.133103
0.133941 0.133246 0.133079
0.386579 0.385627 0.382915
0.482063 0.481968 0.483061
0.520192 0.514799 0.527420
0.274968 0.277175 0.280231
0.201758 0.204246 0.204419
0.124105 0.125299 0.125573
0.367330 0.369666 0.379837
0.409122 0.408811 0.409326
0.411767 0.412744 0.420977
0.431586 0.430516 0.429361
0.824961 0.821393 0.816771
0.137726 0.137193 0.137527
0.372147 0.357135 0.335068
0.354606 0.354670 0.355118
0.156966 0.157038 0.157311
0.157263 0.156928 0.157107
0.224320 0.223081 0.221899
0.167792 0.165237 0.168264
0.145247 0.144773 0.149389
0.496222 0.492458 0.489687
0.137064 0.137598 0.137098
0.471041 0.464213 0.459427
0.451599 0.454407 0.454950
0.111134 0.109295 0.108479
0.434984 0.433932 0.433536
0.134545 0.135967 0.135222
0.196863 0.196365 0.198369
0.589337 0.588435 0.588183
0.493199 0.492366 0.491938
0.554157 0.555777 0.554212
0.479218 0.483147 0.483429
0.211872 0.211062 0.211055
0.119858 0.119776 0.120192
0.430780 0.433056 0.435347
0.399023 0.401418 0.405393
0.199420 0.200374 0.199895
0.410615 0.409916 0.405989
0.440700 0.439932 0.439710
0.199947 0.199041 0.198832
0.449194 0.449083 0.449135
0.398764 0.409473 0.406087
0.403730 0.400652 0.399596
0.510109 0.510383 0.513406
0.403383 0.407504 0.402938
0.105484 0.106317 0.106131
0.270962 0.275919 0.284599
0.134967 0.135402 0.135227
0.602469 0.604530 0.606097
0.389634 0.389595 0.389644
0.191332 0.190222 0.192197
0.414876 0.441201 0.460984
0.454672 0.439325 0.432917
0.165883 0.165498 0.162134
0.334771 0.340338 0.339783
0.216606 0.214749 0.211279
0.230124 0.227007 0.223863
0.141617 0.142967 0.142801
0.483989 0.484007 0.483920
0.131458 0.132590 0.132893
0.140497 0.140409 0.140953
0.129103 0.128014 0.127896
0.142592 0.143096 0.141500
0.597066 0.595350 0.589935
0.434272 0.435761 0.436579
0.193838 0.194680 0.195649
0.393869 0.394579 0.399621
0.151108 0.149650 0.148881
0.415517 0.409188 0.410573
0.413992 0.411257 0.411480
0.412476 0.412276 0.413102
0.204054 0.203681 0.202623
0.535664 0.534656 0.534029
0.132529 0.133220 0.134629
0.181624 0.177436 0.175922
0.213961 0.213592 0.212935
0.118553 0.118438 0.118424
0.478342 0.483105 0.483418
0.210319 0.209999 0.210208
0.353904 0.353800 0.353589
0.131330 0.131820 0.131887
0.352739 0.350989 0.349720
0.379335 0.379765 0.380188
0.159499 0.154472 0.152723
0.152726 0.153660 0.152925
0.217807 0.215708 0.215024
0.543239 0.545395 0.547451
0.206169 0.205540 0.204760
0.494415 0.493294 0.494390
0.482654 0.484653 0.489078
0.718494 0.720611 0.724458
0.414392 0.420186 0.421844
0.422962 0.423672 0.426261
0.498982 0.495328 0.491610
0.145449 0.144740 0.144595
0.158793 0.159950 0.159214
0.236765 0.234563 0.232926
0.133042 0.132305 0.131936
0.161040 0.161108 0.160777
0.398842 0.397222 0.398822
0.229112 0.228216 0.226379
0.407071 0.401132 0.395782
0.220678 0.213981 0.210389
0.146065 0.146179 0.145318
0.111843 0.112175 0.113470
0.120344 0.120874 0.119335
0.160411 0.161639 0.161955
0.165775 0.165972 0.165425
0.154570 0.152603 0.150580
0.247551 0.243134 0.236616
0.355021 0.356911 0.360538
0.413219 0.411269 0.411394
0.149314 0.149355 0.149945
0.121983 0.120703 0.119434
0.253433 0.264116 0.269530
0.574784 0.588461 0.591306
0.158573 0.155914 0.155103
0.483508 0.479247 0.474255
0.220841 0.222245 0.221871
0.384289 0.380947 0.377041
0.431133 0.426361 0.426216
0.449473 0.450111 0.450826
0.411953 0.412218 0.413050
0.280020 0.279996 0.280028
0.409598 0.410287 0.410320
0.395309 0.396434 0.397377
0.497474 0.497231 0.494910
0.158409 0.161109 0.163051
0.270861 0.271522 0.270920
0.420879 0.417361 0.416604
0.148851 0.151089 0.151796
0.349520 0.348715 0.349399
0.450692 0.451603 0.448546
0.363006 0.366578 0.429945
0.176426 0.175995 0.176477
0.514422 0.510174 0.511788
0.171558 0.170911 0.171006
0.543942 0.548607 0.558472
0.199575 0.199591 0.199112
0.121772 0.120813 0.121089
0.149555 0.150177 0.150775
0.444130 0.443973 0.444348
0.468832 0.465977 0.463507
0.336218 0.337465 0.341938
0.691524 0.700516 0.699337
0.476362 0.473007 0.469311
0.398989 0.399134 0.399204
0.445328 0.452308 0.452333
0.598792 0.598116 0.596674
0.210192 0.210486 0.209987
0.235103 0.235545 0.235742
0.211859 0.212847 0.213364
0.137587 0.137749 0.136890
0.140451 0.141387 0.142992
0.484487 0.482176 0.482062
0.469308 0.472429 0.473441
0.343993 0.345447 0.345490
0.409452 0.405391 0.393397
0.600758 0.599831 0.596638
0.435566 0.434500 0.435449
0.200415 0.199252 0.194754
0.271231 0.275050 0.276150
0.498109 0.496977 0.490665
0.858645 0.872140 0.879603
0.165799 0.166184 0.166318
0.113470 0.114570 0.114690
0.201306 0.202782 0.201601
0.895095 0.905445 0.906529
0.412291 0.412264 0.412841
0.144821 0.145200 0.142765
0.504887 0.511733 0.514892
0.135333 0.135143 0.137292
0.541615 0.545916 0.547680
0.497151 0.493575 0.496040
0.345931 0.345937 0.346725
0.456876 0.454705 0.452993
0.510174 0.511788 0.509523
0.502082 0.500626 0.509296
0.258414 0.254893 0.252110
0.355727 0.354368 0.351773
0.489216 0.488426 0.487264
0.132157 0.130097 0.129674
0.122950 0.123366 0.124531
0.345052 0.346003 0.345805
0.498847 0.498856 0.498440
0.514821 0.515837 0.515603
0.586156 0.587551 0.565381
0.153209 0.153678 0.153856
0.148779 0.151461 0.150835
0.136482 0.136312 0.136496
0.122479 0.122676 0.122499
0.132375 0.131668 0.129426
0.135170 0.134453 0.135200
0.506604 0.511182 0.516242
0.237129 0.236812 0.234226
0.203400 0.203747 0.203326
0.461095 0.466687 0.472399
0.600689 0.603239 0.602798
0.468854 0.468509 0.473340
0.164074 0.162727 0.162922
0.405656 0.408242 0.407155
0.221913 0.221787 0.221672
0.400039 0.397495 0.397682
0.486963 0.485741 0.488082
0.109823 0.111904 0.114874
0.122491 0.122060 0.122677
0.342824 0.343151 0.344612
0.320403 0.314942 0.313304
0.348416 0.348178 0.348236
0.152005 0.150282 0.151108
0.903145 0.900790 0.901013
0.225447 0.230881 0.234336
0.172164 0.173109 0.173811
0.413814 0.406172 0.405629
0.405629 0.406588 0.406825
0.447972 0.447783 0.448195
0.505334 0.504743 0.504439
0.383779 0.381730 0.379797
0.647620 0.637483 0.630658
0.565381 0.558031 0.561407
0.210594 0.210815 0.210517
0.462779 0.455071 0.442644
0.253511 0.255107 0.256218
0.662075 0.656527 0.647620
0.191377 0.191215 0.191392
0.566643 0.567350 0.565062
0.158638 0.157859 0.156631
0.433099 0.432328 0.432349
0.439588 0.439798 0.445391
0.203397 0.203817 0.203070
0.127555 0.126708 0.126040
0.171145 0.176222 0.179429
0.132390 0.132895 0.132032
0.342629 0.343534 0.343726
0.136838 0.136687 0.137481
0.245592 0.247103 0.251634
0.509017 0.507867 0.498960
0.105275 0.105581 0.105950
0.464303 0.460907 0.460941
0.504220 0.504809 0.506131
0.598680 0.595995 0.591921
0.410982 0.410090 0.410029
0.142901 0.143725 0.145031
0.417085 0.414525 0.410817
0.312974 0.312694 0.311721
0.466285 0.466764 0.466284
0.488951 0.489275 0.489946
0.130924 0.130161 0.131448
0.213426 0.213967 0.210577
0.432232 0.434076 0.430631
0.126054 0.125346 0.124996
0.209117 0.209865 0.210927
0.210629 0.207968 0.206063
0.164637 0.165431 0.163641
0.165505 0.165573 0.166018
0.421754 0.424129 0.425254
0.142979 0.142522 0.142611
0.177880 0.176672 0.175015
0.134332 0.133406 0.133365
0.168495 0.167545 0.167535
0.431469 0.429609 0.428974
0.348213 0.348583 0.348648
0.159209 0.157966 0.156462
0.410257 0.400810 0.396588
0.204680 0.203603 0.196758
0.160095 0.159429 0.157449
0.342726 0.344344 0.346601
0.418318 0.420084 0.422546
0.207516 0.207415 0.204971
0.441529 0.450651 0.455376
0.213995 0.213498 0.212799
0.129916 0.129235 0.129566
0.442849 0.447604 0.447234
0.334303 0.328558 0.321982
0.671725 0.673832 0.674800
0.345188 0.344885 0.344655
0.420456 0.419549 0.424271
0.288995 0.291994 0.290772
0.189234 0.191004 0.191631
0.216712 0.217425 0.217838
0.623051 0.621257 0.618966
0.163089 0.163183 0.164193
0.343550 0.343752 0.343786
0.366749 0.364639 0.364443
0.204507 0.203644 0.203285
0.240028 0.239523 0.239287
0.135706 0.136376 0.135884
0.253716 0.251348 0.248449
0.118658 0.119480 0.119617
0.204294 0.207386 0.210073
0.158931 0.159287 0.160129
0.440914 0.440767 0.428429
0.461202 0.468790 0.472615
0.158476 0.159302 0.159633
0.552324 0.550760 0.542255
0.411987 0.410454 0.409906
0.477499 0.479700 0.479723
0.420463 0.420487 0.422326
0.211183 0.210836 0.211250
0.453994 0.452816 0.447893
0.400987 0.400734 0.400574
0.221892 0.221951 0.221857
0.376450 0.382148 0.394018
0.412218 0.415410 0.417649
0.132097 0.132723 0.133022
0.234226 0.231644 0.230372
0.448880 0.446987 0.447018
0.245607 0.248837 0.248048
0.470593 0.465288 0.429692
0.422745 0.423119 0.425297
0.187168 0.190266 0.190487
0.437997 0.433546 0.431022
0.229695 0.228616 0.228601
0.120139 0.120368 0.120235
0.592087 0.589537 0.588471
0.135464 0.134869 0.135388
0.405425 0.398209 0.398368
0.323476 0.324573 0.323684
0.153303 0.152873 0.152206
0.203188 0.202080 0.203113
0.558633 0.559185 0.559943
0.734939 0.752286 0.758736
0.531489 0.532041 0.529436
0.434816 0.434543 0.432213
0.148458 0.147733 0.146046
0.468602 0.469787 0.474868
0.205802 0.206052 0.205659
0.234485 0.235442 0.238207
0.305448 0.304010 0.304130
0.164594 0.164442 0.164532
0.125086 0.125523 0.125014
0.120143 0.119667 0.120036
0.146150 0.146280 0.146505
0.453064 0.454605 0.457557
0.438306 0.437657 0.435759
0.534722 0.534010 0.533777
0.143480 0.143540 0.143952
0.510163 0.510312 0.514336
0.404486 0.400849 0.399145
0.363541 0.355633 0.348829
0.377014 0.372868 0.367552
0.397229 0.401069 0.405465
0.451375 0.453233 0.453786
0.442978 0.435064 0.432229
0.884939 0.884148 0.876819
0.504629 0.504331 0.502495
0.122770 0.122378 0.122454
0.167182 0.167029 0.166873
0.160532 0.161211 0.160882
0.510768 0.511222 0.511462
0.972425 0.972443 0.976075
0.254692 0.245673 0.241876
0.481726 0.480087 0.478502
0.480159 0.470487 0.467728
0.426814 0.413897 0.408030
0.144163 0.143699 0.143395
0.116731 0.116329 0.116209
0.755027 0.757887 0.761918
0.139375 0.139546 0.139211
0.686116 0.682541 0.674323
0.182434 0.182366 0.183530
0.555781 0.555388 0.555172
0.178181 0.179456 0.180989
0.243422 0.243097 0.243244
0.459982 0.458331 0.456882
0.171933 0.173749 0.172397
0.183286 0.183599 0.184381
0.139632 0.135204 0.133367
0.381129 0.385008 0.388098
0.132104 0.131662 0.131660
0.382453 0.374138 0.372447
0.310762 0.306190 0.298453
0.225798 0.226426 0.227664
0.125390 0.125322 0.124618
0.214102 0.213544 0.213275
0.244352 0.244602 0.240501
0.182485 0.203115 0.207984
0.170681 0.171175 0.173308
0.298509 0.298013 0.294568
0.124909 0.124834 0.123460
0.206389 0.205174 0.205893
0.635848 0.637811 0.646674
0.213530 0.213900 0.217286
0.616972 0.616408 0.614082
0.394536 0.397574 0.401293
0.190168 0.191094 0.190162
0.306667 0.313122 0.314930
0.143215 0.140927 0.140576
0.154263 0.153908 0.152663
0.449099 0.449182 0.449149
0.437915 0.432669 0.430270
0.241470 0.242594 0.235186
0.552291 0.551797 0.550918
0.154258 0.153713 0.155299
0.446722 0.448798 0.453527
0.349103 0.349086 0.348973
0.466955 0.466450 0.466705
0.146897 0.146875 0.146440
0.122677 0.122340 0.122408
0.368428 0.367407 0.361599
0.491503 0.491583 0.491897
0.203595 0.203193 0.202452
0.165130 0.163836 0.163195
0.452533 0.460073 0.491126
0.120457 0.120770 0.120341
0.728213 0.736317 0.738446
0.452993 0.453291 0.453301
0.489000 0.489462 0.491623
0.490803 0.498240 0.498718
0.450611 0.454565 0.455510
0.505544 0.504629 0.504331
0.426347 0.426549 0.428169
0.349514 0.334172 0.332535
0.129440 0.129591 0.129482
0.500813 0.504127 0.509029
0.575281 0.575396 0.575748
0.169843 0.170067 0.169612
0.122637 0.120872 0.119614
0.541673 0.553201 0.555541
0.256632 0.270554 0.275812
0.344377 0.344403 0.344419
0.349159 0.350955 0.350708
0.542536 0.535014 0.531936
0.287620 0.286314 0.280042
0.445785 0.458053 0.467863
0.159375 0.158950 0.157711
0.128756 0.128652 0.128876
0.170569 0.171016 0.171792
0.569986 0.571119 0.571870
0.457218 0.454193 0.449159
0.435700 0.439502 0.441250
0.161479 0.160856 0.157947
0.554741 0.552878 0.549983
0.354606 0.355071 0.355213
0.422007 0.422873 0.422899
0.169039 0.168802 0.169933
0.156840 0.157185 0.156803
0.332611 0.329665 0.331474
0.534749 0.534380 0.533896
0.948065 0.952267 0.952467
0.545856 0.536157 0.531224
0.165670 0.158992 0.158199
0.396344 0.392785 0.392419
0.297035 0.294675 0.290499
0.241942 0.240806 0.239481
0.457040 0.456965 0.457235
0.461272 0.463102 0.468856
0.508837 0.502462 0.501424
0.326477 0.321244 0.320759
0.497471 0.497841 0.497694
0.372447 0.371398 0.375261
0.379044 0.389370 0.394362
0.194566 0.202395 0.208726
0.167866 0.169246 0.168495
0.540249 0.540875 0.542548
0.401570 0.400759 0.399499
0.220886 0.220302 0.220341
0.845116 0.840083 0.835023
0.469143 0.469652 0.470785
0.165372 0.165790 0.165976
0.491388 0.488177 0.484391
0.474296 0.473269 0.474912
0.159803 0.161421 0.160255
0.287819 0.287432 0.286366
0.484386 0.484438 0.478108
0.428109 0.428672 0.428316
0.495248 0.490240 0.487304
0.555229 0.554741 0.552878
0.252379 0.252422 0.253123
0.354859 0.356291 0.356892
0.438822 0.437709 0.434826
0.463916 0.463537 0.467901
0.153425 0.156508 0.156795
0.338265 0.343328 0.381332
0.614709 0.671549 0.680816
0.148076 0.148019 0.148796
0.187899 0.186063 0.183357
0.394313 0.389674 0.383410
0.132348 0.131387 0.129334
0.392292 0.391689 0.395007
0.205289 0.205572 0.206169
0.348178 0.347703 0.352089
0.210807 0.211330 0.210726
0.414147 0.417123 0.421009
0.527509 0.519408 0.518936
0.195841 0.195712 0.195117
0.422683 0.423785 0.426142
0.152312 0.153209 0.153678
0.402635 0.402264 0.401997
0.240525 0.236056 0.233938
0.415235 0.415793 0.411783
0.136100 0.135168 0.134674
0.343965 0.383613 0.396380
0.485219 0.485558 0.485868
0.134021 0.135453 0.135415
0.289511 0.289210 0.288189
0.168755 0.170660 0.172785
0.472728 0.465509 0.460909
0.307788 0.307387 0.308369
0.210804 0.211725 0.211922
0.161541 0.162974 0.165341
0.139218 0.139692 0.138771
0.187501 0.187691 0.189803
0.558468 0.558569 0.558698
