0.035597 0.035518 0.035495
0.171395 0.170113 0.172227
0.013518 0.013308 0.013318
0.126025 0.126025 0.126002
0.127764 0.127480 0.127209
0.009039 0.008965 0.009026
0.205716 0.207403 0.209411
0.089833 0.089560 0.089844
0.140937 0.140826 0.140172
0.275134 0.275227 0.273737
0.044461 0.044418 0.044318
0.012081 0.012043 0.012002
0.010690 0.010656 0.010672
0.079816 0.079819 0.079785
0.011864 0.011866 0.011918
0.114099 0.113599 0.107845
0.041942 0.041748 0.041463
0.046784 0.046736 0.046669
0.011637 0.011595 0.011589
0.060032 0.060014 0.059936
0.116402 0.116457 0.116462
0.011748 0.011684 0.011686
0.084633 0.086681 0.088959
0.010972 0.010964 0.010928
0.009743 0.009740 0.009614
0.082087 0.082096 0.082099
0.181145 0.182179 0.181234
0.318002 0.317975 0.318043
0.010661 0.010649 0.010632
0.099416 0.099057 0.095216
0.010652 0.010607 0.010598
0.010053 0.010062 0.010060
0.088597 0.088269 0.088132
0.205776 0.205747 0.205549
0.010449 0.010479 0.010490
0.414554 0.414555 0.414559
0.034998 0.034988 0.034975
0.011324 0.011294 0.011314
0.009580 0.009600 0.009620
0.213848 0.213879 0.213889
0.009918 0.009955 0.010000
0.009809 0.009814 0.009695
0.009782 0.009814 0.009819
0.009190 0.009208 0.009225
0.010753 0.010776 0.010551
0.013108 0.013061 0.013048
0.099497 0.099411 0.098989
0.063883 0.063889 0.063886
0.053019 0.053371 0.059912
0.068017 0.070950 0.080353
0.087684 0.092986 0.093235
0.056828 0.066329 0.082973
0.061406 0.061406 0.061416
0.034974 0.034988 0.034976
0.011178 0.011241 0.011313
0.012607 0.012545 0.012530
0.009602 0.009610 0.009578
0.010888 0.010937 0.010974
0.038024 0.038164 0.038745
0.012934 0.012773 0.012443
0.130060 0.130993 0.137126
0.011903 0.011973 0.011993
0.011426 0.011670 0.011684
0.167073 0.164161 0.163938
0.011780 0.011790 0.011913
0.009969 0.010038 0.010085
0.010466 0.010540 0.010535
0.042448 0.042411 0.042415
0.058221 0.060851 0.064036
0.011392 0.011365 0.011313
0.088915 0.089249 0.089347
0.034922 0.034935 0.034939
0.058267 0.059339 0.066532
0.010634 0.010671 0.010748
0.010652 0.010645 0.010638
0.010190 0.010172 0.010190
0.010565 0.010663 0.010635
0.253166 0.253418 0.253487
0.011909 0.011967 0.011933
0.109934 0.109863 0.111875
0.011721 0.011800 0.011791
0.079785 0.079778 0.079635
0.010133 0.010113 0.010051
0.088714 0.080775 0.080481
0.216009 0.216018 0.216033
0.010139 0.010172 0.010237
0.186328 0.189462 0.199629
0.070573 0.071117 0.071376
0.010903 0.010883 0.010742
0.009440 0.009419 0.009456
0.112978 0.116686 0.116391
0.010735 0.010621 0.010615
0.195723 0.195753 0.199303
0.020439 0.020451 0.020485
0.089306 0.089263 0.089247
0.009828 0.009784 0.009764
0.246424 0.246280 0.245586
0.010854 0.010834 0.010787
0.139141 0.141173 0.142562
0.010298 0.010180 0.010114
0.035102 0.035015 0.035008
0.010999 0.011002 0.010934
0.009429 0.009351 0.009356
0.070898 0.065870 0.065509
0.086357 0.086359 0.086270
0.009587 0.009623 0.009818
0.063068 0.063816 0.064775
0.010419 0.010579 0.010640
0.076765 0.076707 0.071145
0.087367 0.081972 0.081117
0.152320 0.155241 0.156387
0.009588 0.009574 0.009627
0.224009 0.223893 0.223869
0.010382 0.010363 0.010348
0.010688 0.010556 0.010359
0.009827 0.009860 0.009932
0.052986 0.052979 0.052984
0.013150 0.013169 0.013260
0.010329 0.010289 0.010323
0.011349 0.011328 0.011349
0.064905 0.064907 0.064894
0.144470 0.141165 0.142717
0.016851 0.016293 0.015666
0.010673 0.010565 0.010667
0.074100 0.079152 0.079409
0.011673 0.011268 0.011185
0.010799 0.010706 0.010497
0.012324 0.012341 0.012338
0.104481 0.109256 0.109729
0.170944 0.171421 0.171457
0.078558 0.079299 0.080091
0.035186 0.035156 0.035152
0.408283 0.408291 0.408368
0.010356 0.010424 0.010484
0.009614 0.009594 0.009642
0.010358 0.010390 0.010369
0.010556 0.010641 0.010668
0.081829 0.082153 0.082813
0.073705 0.073946 0.074306
0.080548 0.080533 0.080226
0.392039 0.391485 0.391185
0.113622 0.108878 0.108934
0.269650 0.269863 0.269547
0.010529 0.010441 0.010528
0.010540 0.010574 0.010584
0.011112 0.011031 0.010793
0.010755 0.010780 0.010691
0.036081 0.035540 0.035533
0.436042 0.425292 0.420003
0.036689 0.036705 0.036744
0.082012 0.082015 0.082016
0.009192 0.009219 0.009222
0.010528 0.010568 0.010572
0.011966 0.011982 0.011925
0.009705 0.009635 0.009686
0.015056 0.013182 0.012540
0.105091 0.105234 0.105477
0.140978 0.140975 0.140977
0.040511 0.040493 0.040480
0.046957 0.046958 0.046975
0.110967 0.109707 0.101613
0.051663 0.051695 0.051686
0.082154 0.094862 0.096019
0.013143 0.013158 0.013182
0.009801 0.009815 0.009830
0.063814 0.063788 0.063638
0.011742 0.011824 0.011778
0.064449 0.064694 0.065033
0.010121 0.010106 0.010090
0.009730 0.009726 0.009791
0.117472 0.147392 0.152951
0.097949 0.098317 0.098348
0.034913 0.034931 0.034948
0.010305 0.010393 0.010417
0.082107 0.082092 0.082096
0.009793 0.009783 0.009729
0.048776 0.053740 0.055418
0.009637 0.009640 0.009696
0.037738 0.037670 0.037636
0.071473 0.071460 0.071485
0.097418 0.097322 0.097306
0.123796 0.123625 0.123624
0.009814 0.009865 0.009872
0.010949 0.010904 0.010807
0.085230 0.085480 0.085855
0.166921 0.167650 0.173439
0.172893 0.173188 0.172608
0.064964 0.065003 0.064773
0.036840 0.037327 0.043066
0.010539 0.010528 0.010623
0.010375 0.010379 0.010280
0.009637 0.009660 0.009737
0.009506 0.009574 0.009777
0.104747 0.104331 0.103678
0.012967 0.012950 0.013010
0.073663 0.073468 0.073277
0.010177 0.010225 0.010328
0.009468 0.009451 0.009466
0.010380 0.010141 0.010188
0.011662 0.011628 0.011434
0.051664 0.051660 0.051683
0.077831 0.077162 0.077070
0.011937 0.011941 0.011978
0.049113 0.049620 0.051004
0.165656 0.166056 0.168255
0.065741 0.068871 0.073278
0.010947 0.010969 0.011032
0.084315 0.084102 0.083966
0.010705 0.010677 0.010566
0.082111 0.082118 0.082122
0.061445 0.061646 0.061726
0.072831 0.072822 0.072827
0.200244 0.205438 0.207160
0.010853 0.010766 0.011132
0.010948 0.010984 0.010974
0.076475 0.076821 0.076921
0.125665 0.124433 0.124379
0.113861 0.113864 0.113866
0.009490 0.009556 0.009562
0.056419 0.056476 0.056510
0.009812 0.009827 0.009817
0.053769 0.053768 0.053754
0.085096 0.085128 0.085144
0.149564 0.149705 0.149948
0.011102 0.011080 0.011109
0.053837 0.053845 0.053872
0.119031 0.118774 0.121546
0.079516 0.079484 0.079477
0.011332 0.011266 0.011267
0.170706 0.169328 0.167564
0.009536 0.009559 0.009590
0.073651 0.073664 0.073660
0.060807 0.060728 0.060714
0.009681 0.009600 0.009595
0.059685 0.059987 0.060103
0.034923 0.034918 0.034921
0.111694 0.114731 0.114532
0.011288 0.011295 0.011333
0.033052 0.033023 0.033080
0.218307 0.218463 0.218516
0.011474 0.011480 0.011401
0.010295 0.010177 0.010165
0.105123 0.105150 0.105086
0.050247 0.050144 0.050046
0.041311 0.041317 0.041342
0.009806 0.009803 0.009822
0.010106 0.010090 0.010067
0.186323 0.185723 0.184708
0.096643 0.096501 0.097416
0.010905 0.010878 0.010888
0.010602 0.010408 0.010367
0.061451 0.061485 0.061453
0.009777 0.009799 0.009792
0.072339 0.072328 0.072082
0.009115 0.009253 0.009177
0.010347 0.010340 0.010324
0.271087 0.269630 0.264787
0.009733 0.009774 0.009836
0.175715 0.175861 0.181773
0.010451 0.010502 0.010556
0.011278 0.011332 0.011266
0.053688 0.053726 0.053704
0.066694 0.066682 0.066575
0.034768 0.034771 0.034770
0.010096 0.010111 0.010035
0.081642 0.082390 0.082451
0.064943 0.065039 0.065620
0.041317 0.041342 0.041330
0.010930 0.010838 0.010563
0.010562 0.010613 0.010752
0.089774 0.089792 0.089745
0.010152 0.010247 0.010229
0.057031 0.056650 0.056458
0.013686 0.013302 0.013148
0.051689 0.051690 0.051693
0.011424 0.011475 0.011458
0.013777 0.013790 0.013751
0.178859 0.178749 0.178868
0.194671 0.195114 0.195316
0.107058 0.107848 0.108112
0.020588 0.020586 0.020589
0.032994 0.033020 0.033043
0.062476 0.062665 0.063148
0.010873 0.010781 0.010617
0.120406 0.120339 0.120371
0.013231 0.013032 0.012917
0.408881 0.409442 0.414501
0.062089 0.061695 0.061551
0.081629 0.081633 0.081633
0.065948 0.072146 0.072872
0.010744 0.010716 0.010472
0.011963 0.011161 0.011021
0.010488 0.010387 0.010295
0.010529 0.010638 0.010638
0.009680 0.009672 0.009738
0.172141 0.172111 0.172234
0.032635 0.031911 0.013583
0.089822 0.089824 0.089820
0.112609 0.112666 0.113169
0.011114 0.011114 0.011040
0.046978 0.046984 0.046958
0.176747 0.178688 0.178101
0.121739 0.121835 0.121831
0.068438 0.065965 0.050853
0.335344 0.336777 0.343915
0.011249 0.011280 0.011336
0.265149 0.265321 0.261648
0.176048 0.176336 0.176858
0.020822 0.020848 0.020797
0.033045 0.033053 0.033034
0.011801 0.011900 0.012041
0.175757 0.175880 0.181918
0.077737 0.077745 0.077688
0.011079 0.010967 0.010886
0.009343 0.009374 0.009366
0.009747 0.009765 0.009710
0.053205 0.053193 0.053167
0.042785 0.042592 0.042409
0.011043 0.010937 0.010547
0.012222 0.012265 0.012218
0.009625 0.009618 0.009613
0.011121 0.011095 0.011140
0.010169 0.010184 0.010224
0.010366 0.010349 0.010308
0.041011 0.040932 0.040714
0.059583 0.058898 0.058798
0.009713 0.009659 0.009664
0.077867 0.077830 0.077677
0.109752 0.109767 0.109746
0.009972 0.009919 0.009971
0.013318 0.012291 0.011242
0.269450 0.269405 0.269261
0.010292 0.010317 0.010298
0.011433 0.011535 0.011609
0.011060 0.011118 0.011303
0.127783 0.127032 0.123156
0.079883 0.082160 0.082941
0.088899 0.088600 0.088569
0.043097 0.043135 0.043167
0.009467 0.009273 0.009281
0.009704 0.009721 0.009753
0.010687 0.010655 0.010707
0.013037 0.013042 0.013047
0.013186 0.013198 0.013163
0.036490 0.036681 0.036686
0.010842 0.010623 0.010663
0.042522 0.042534 0.042522
0.010819 0.010791 0.010720
0.035184 0.035193 0.035204
0.011403 0.011334 0.011390
0.010320 0.010358 0.010517
0.104155 0.103967 0.107618
0.056715 0.057332 0.057509
0.010891 0.010921 0.010921
0.124599 0.125771 0.127004
0.120118 0.113405 0.111598
0.010289 0.010274 0.010280
0.010793 0.010804 0.010865
0.051659 0.051668 0.051687
0.011650 0.011621 0.011637
0.010361 0.010537 0.010575
0.020599 0.020708 0.020720
0.009655 0.009661 0.009621
0.098710 0.098690 0.099624
0.010481 0.010498 0.010534
0.161274 0.150271 0.146120
0.212668 0.212675 0.212675
0.030572 0.030564 0.030663
0.010339 0.010379 0.010415
0.177491 0.177479 0.177446
0.010793 0.010903 0.010932
0.270316 0.265554 0.263287
0.009908 0.009886 0.010002
0.066313 0.066513 0.066527
0.207976 0.208070 0.208262
0.083699 0.083741 0.083732
0.010469 0.010409 0.010376
0.127908 0.127825 0.127916
0.084723 0.089501 0.089398
0.010769 0.010768 0.010781
0.214916 0.214785 0.214507
0.056641 0.057147 0.057487
0.011111 0.011338 0.011303
0.010020 0.010088 0.010219
0.176496 0.178360 0.177803
0.009985 0.010007 0.010174
0.035027 0.035014 0.035012
0.072665 0.072832 0.072824
0.011048 0.011060 0.011090
0.010479 0.010512 0.010514
0.085486 0.085216 0.082547
0.009802 0.009829 0.009812
0.009795 0.009862 0.009968
0.090753 0.090655 0.090322
0.153418 0.151529 0.150384
0.010121 0.010104 0.010106
0.075326 0.074956 0.074910
0.010733 0.010671 0.010788
0.035053 0.035041 0.035037
0.011942 0.011951 0.011941
0.080456 0.081607 0.082137
0.203191 0.203173 0.203232
0.080095 0.079871 0.073711
0.012624 0.012526 0.012240
0.094896 0.094899 0.094830
0.010248 0.010224 0.010161
0.402716 0.400296 0.397340
0.310450 0.309192 0.306660
0.013040 0.012956 0.012944
0.083162 0.084220 0.084364
0.010940 0.010968 0.011099
0.010054 0.010061 0.010161
0.195345 0.202775 0.203144
0.026979 0.027098 0.027333
0.077186 0.077095 0.077037
0.127520 0.126106 0.125046
0.044318 0.043223 0.042997
0.105915 0.108459 0.112397
0.259237 0.253066 0.229584
0.010461 0.010461 0.010444
0.084625 0.084770 0.085790
0.010565 0.010600 0.010625
0.036556 0.036592 0.036840
0.142247 0.142265 0.142470
0.033542 0.033462 0.032781
0.020510 0.020371 0.020409
0.009835 0.010024 0.010106
0.010708 0.010638 0.010596
0.011519 0.011441 0.011421
0.207944 0.207952 0.207961
0.010316 0.010344 0.010413
0.073773 0.070520 0.070321
0.081996 0.081816 0.076669
0.131325 0.131199 0.131009
0.042550 0.052557 0.054887
0.085121 0.085130 0.085138
0.010157 0.010136 0.010108
0.010606 0.010650 0.010599
0.042534 0.042541 0.042527
0.010542 0.010474 0.010554
0.009958 0.009943 0.009941
0.009748 0.009626 0.009714
0.172814 0.172808 0.172785
0.081290 0.080470 0.086599
0.011533 0.011534 0.011472
0.010881 0.010959 0.010847
0.145262 0.146452 0.147392
0.010823 0.010813 0.010770
0.009432 0.009437 0.009448
0.177420 0.177564 0.177431
0.010605 0.010587 0.010604
0.010004 0.009974 0.009962
0.181009 0.182427 0.182430
0.113871 0.113872 0.113869
0.032552 0.032441 0.032420
0.170913 0.243675 0.248197
0.218531 0.218436 0.218340
0.075564 0.075688 0.077688
0.053438 0.053264 0.053233
0.030574 0.030564 0.030574
0.053217 0.053217 0.053219
0.011946 0.012289 0.012610
0.013024 0.013063 0.013175
0.009752 0.009738 0.009698
0.114523 0.114634 0.114638
0.073684 0.069446 0.068632
0.234251 0.234273 0.234597
0.216036 0.216035 0.216162
0.057531 0.057549 0.057567
0.043621 0.050782 0.053177
0.018157 0.016685 0.015012
0.009599 0.009570 0.009711
0.010542 0.010572 0.010494
0.053886 0.053881 0.053827
0.011019 0.011268 0.011235
0.084066 0.083966 0.083651
0.010833 0.010749 0.010753
0.011423 0.011359 0.011219
0.089263 0.089247 0.089225
0.010666 0.010707 0.010768
0.100917 0.101017 0.101241
0.011085 0.011073 0.011065
0.071169 0.071843 0.073400
0.109743 0.109741 0.109739
0.082388 0.082354 0.082334
0.013446 0.013506 0.013534
0.083966 0.083658 0.083687
0.010866 0.010873 0.010862
0.053220 0.053224 0.053208
0.249142 0.249244 0.249377
0.058353 0.058354 0.058343
0.011471 0.011341 0.011169
0.011063 0.011101 0.011110
0.087370 0.087793 0.087922
0.010681 0.010682 0.010652
0.352951 0.355620 0.354528
0.010364 0.010339 0.010379
0.113615 0.108477 0.107877
0.264477 0.264280 0.264113
0.011305 0.011276 0.011133
0.219912 0.218641 0.217940
0.220416 0.220459 0.220505
0.010754 0.010688 0.010617
0.249511 0.249498 0.247434
0.020442 0.020480 0.020512
0.042887 0.042696 0.042513
0.011436 0.011486 0.011459
0.094900 0.094878 0.094805
0.009970 0.009969 0.009967
0.013660 0.013616 0.013591
0.246068 0.246127 0.246438
0.087457 0.087460 0.087466
0.076274 0.076718 0.076819
0.009758 0.009773 0.009848
0.010051 0.010111 0.010080
0.009971 0.010013 0.010059
0.012067 0.011769 0.011759
0.009359 0.009296 0.009327
0.207318 0.207708 0.207827
0.222779 0.221409 0.218147
0.009198 0.009162 0.009221
0.053750 0.053744 0.053743
0.206411 0.206175 0.199139
0.100140 0.099948 0.099841
0.035013 0.035005 0.035002
0.013171 0.034320 0.035596
0.035011 0.035022 0.035041
0.159549 0.173866 0.175551
0.010338 0.010333 0.010298
0.031368 0.039859 0.040641
0.201310 0.200888 0.200772
0.067366 0.067545 0.068290
0.010383 0.010527 0.010576
0.167139 0.156065 0.142674
0.194579 0.194670 0.195107
0.009771 0.009709 0.009613
0.082086 0.082087 0.082096
0.041127 0.041085 0.041080
0.009589 0.009615 0.009710
0.182158 0.185151 0.186161
0.010392 0.010296 0.010245
0.223152 0.222106 0.219858
0.010287 0.010232 0.010144
0.063517 0.062243 0.061228
0.181143 0.179080 0.176821
0.009598 0.009647 0.009779
0.102586 0.101202 0.100944
0.082924 0.082784 0.082437
0.049265 0.051258 0.061545
0.216039 0.216240 0.216531
0.450589 0.459241 0.464140
0.207138 0.207165 0.207127
0.010381 0.010347 0.010363
0.013519 0.013540 0.013357
0.009714 0.009780 0.009931
0.086363 0.086359 0.086357
0.056930 0.057054 0.057127
0.092717 0.091844 0.090912
0.009631 0.009649 0.009654
0.010597 0.010594 0.010585
0.034826 0.034845 0.034813
0.113650 0.113615 0.108477
0.042143 0.042083 0.034462
0.058404 0.058410 0.058423
0.067510 0.067518 0.067499
0.010240 0.010140 0.010078
0.086423 0.090884 0.091186
0.042754 0.042798 0.042865
0.013186 0.013117 0.013130
0.104489 0.106261 0.107881
0.010718 0.010824 0.010882
0.013245 0.013394 0.013434
0.154716 0.154747 0.155133
0.249091 0.249207 0.249306
0.010913 0.010907 0.010948
0.152396 0.152311 0.149898
0.078518 0.078095 0.076500
0.009421 0.009557 0.009722
0.020378 0.020435 0.020415
0.232777 0.232779 0.232867
0.074954 0.074690 0.073386
0.218247 0.217386 0.217380
0.268649 0.268687 0.268662
0.079006 0.078979 0.078883
0.009812 0.009806 0.009803
0.072454 0.073088 0.073227
0.039859 0.040641 0.041158
0.217657 0.217697 0.217693
0.265195 0.265330 0.265331
0.011250 0.011247 0.011164
0.171882 0.171934 0.172136
0.074139 0.073986 0.073988
0.089572 0.089286 0.089118
0.128811 0.128903 0.129220
0.318929 0.320352 0.325506
0.220505 0.220568 0.220572
0.218238 0.217436 0.217351
0.010589 0.010664 0.010658
0.135063 0.140786 0.144993
0.011532 0.011524 0.011462
0.142589 0.147583 0.153276
0.078904 0.078454 0.078351
0.127389 0.127611 0.127639
0.118793 0.120068 0.121740
0.048717 0.056174 0.056524
0.555665 0.555661 0.555674
0.124055 0.120859 0.120636
0.042524 0.042533 0.042544
0.081842 0.081863 0.081861
0.010058 0.010079 0.010120
0.009400 0.009405 0.009418
0.011289 0.011284 0.011282
0.011416 0.011455 0.011467
0.051575 0.051574 0.051566
0.011105 0.011178 0.011222
0.037689 0.037640 0.037601
0.013262 0.012203 0.011920
0.088946 0.083246 0.083143
0.088035 0.086131 0.085307
0.247210 0.247210 0.247211
0.052998 0.053010 0.053076
0.010054 0.010109 0.010078
0.340725 0.336095 0.332845
0.013504 0.013533 0.013478
0.010433 0.010439 0.010445
0.011025 0.011021 0.011005
0.072453 0.072620 0.072812
0.013229 0.013939 0.033509
0.010549 0.010568 0.010503
0.115481 0.115342 0.115202
0.009631 0.009638 0.009652
0.052670 0.052143 0.051242
0.145094 0.145102 0.145160
0.060972 0.061329 0.061470
0.170015 0.168584 0.164486
0.089175 0.090245 0.086373
0.010437 0.010470 0.010454
0.011472 0.011412 0.011322
0.053231 0.053228 0.053177
0.010747 0.010689 0.010620
0.010769 0.010764 0.010757
0.009606 0.009609 0.009565
0.112741 0.115264 0.116798
0.082090 0.082098 0.082108
0.043052 0.042603 0.042503
0.101770 0.102947 0.103779
0.010201 0.010227 0.010359
0.010625 0.010587 0.010615
0.011787 0.011867 0.011871
0.010747 0.010740 0.010722
0.092011 0.092025 0.092032
0.092370 0.092088 0.096534
0.009617 0.009636 0.009635
0.010165 0.010088 0.010146
0.012152 0.012185 0.012242
0.020506 0.020493 0.020427
0.205768 0.204635 0.195368
0.081837 0.081893 0.082251
0.042414 0.042454 0.042467
0.058360 0.058366 0.058368
0.075839 0.076372 0.077503
0.112537 0.112520 0.112456
0.010124 0.010137 0.010139
0.057525 0.057532 0.057531
0.010148 0.010154 0.010173
0.050977 0.050947 0.051030
0.103528 0.103522 0.103522
0.040577 0.040591 0.040562
0.011667 0.011488 0.011473
0.244418 0.244199 0.237019
0.010190 0.010152 0.009831
0.053740 0.055418 0.058467
0.265712 0.266767 0.264601
0.098410 0.098419 0.097642
0.112714 0.112590 0.113592
0.046958 0.046959 0.046962
0.131905 0.131810 0.127764
0.010836 0.010776 0.010763
0.140811 0.138498 0.138191
0.207895 0.207918 0.207924
0.088803 0.083846 0.082826
0.125304 0.124260 0.124156
0.010482 0.010616 0.010882
0.216635 0.216264 0.215793
0.113895 0.113902 0.113906
0.087457 0.087465 0.087460
0.009303 0.009218 0.009188
0.010758 0.010730 0.010695
0.060035 0.060022 0.059943
0.013499 0.013467 0.013399
0.074997 0.069881 0.069783
0.009714 0.009514 0.009513
0.217699 0.217746 0.217756
0.255122 0.263160 0.360723
0.170851 0.169167 0.168514
0.100454 0.100729 0.100824
0.011726 0.011677 0.011627
0.082046 0.082060 0.082058
0.088844 0.089036 0.089266
0.011409 0.011268 0.011419
0.090515 0.090875 0.090855
0.084142 0.084309 0.090048
0.060129 0.060128 0.060130
0.096270 0.096233 0.096742
0.068405 0.067964 0.067725
0.161349 0.162650 0.166323
0.194117 0.201183 0.201403
0.149763 0.149580 0.149557
0.011357 0.011347 0.011341
0.009630 0.009596 0.009643
0.010214 0.010322 0.010476
0.253555 0.253864 0.255137
0.010515 0.010542 0.010491
0.012338 0.012181 0.012149
0.091340 0.090893 0.090781
0.097742 0.096567 0.076433
0.046791 0.046778 0.046781
0.009747 0.009773 0.009826
0.010583 0.010526 0.010494
0.041338 0.042512 0.042554
0.171873 0.171930 0.171957
0.010935 0.010961 0.010922
0.013593 0.013648 0.013682
0.144771 0.144770 0.144782
0.095425 0.092717 0.091844
0.009033 0.009105 0.009042
0.082382 0.082354 0.082331
0.093880 0.094449 0.095389
0.010262 0.010292 0.010316
0.040754 0.040738 0.040751
0.033654 0.033643 0.033654
0.152792 0.146597 0.145705
0.009718 0.009751 0.009757
0.010341 0.010326 0.010321
0.082100 0.082110 0.082113
0.010831 0.010859 0.010819
0.114643 0.114644 0.114584
0.109749 0.109745 0.109754
0.011606 0.011229 0.011165
0.207100 0.207241 0.207436
0.286382 0.293161 0.299444
0.083811 0.083814 0.083791
0.089433 0.088944 0.087737
0.087564 0.092385 0.092668
0.037624 0.037603 0.037575
0.416542 0.416892 0.416812
0.058293 0.058305 0.058306
0.105390 0.105168 0.105064
0.009981 0.009978 0.009847
0.332845 0.319233 0.318568
0.010886 0.010887 0.010922
0.012059 0.012136 0.012231
0.009281 0.009254 0.009239
0.010504 0.010518 0.010530
0.010414 0.010438 0.010601
0.010437 0.010501 0.010576
0.034797 0.034808 0.034822
0.009685 0.009653 0.009693
0.060103 0.060698 0.060900
0.053021 0.052882 0.052353
0.083996 0.082062 0.081530
0.081523 0.075678 0.076201
0.053790 0.053800 0.053788
0.087503 0.087720 0.088039
0.265447 0.265468 0.265428
0.009801 0.009807 0.009652
0.009644 0.009655 0.009607
0.010708 0.010776 0.010772
0.010539 0.010594 0.010620
0.011331 0.011114 0.010726
0.053069 0.053077 0.053098
0.011242 0.011236 0.011248
0.010977 0.011144 0.011170
0.009562 0.009594 0.009654
0.202238 0.215702 0.215816
0.010381 0.010355 0.010355
0.010822 0.011033 0.011039
0.142751 0.140640 0.142727
0.087808 0.084392 0.084173
0.010151 0.010082 0.010074
0.048666 0.048309 0.046820
0.011240 0.011375 0.011401
0.103589 0.103808 0.103881
0.009702 0.009665 0.009663
0.057883 0.057875 0.057859
0.009642 0.009727 0.009637
0.010093 0.010184 0.010180
0.040744 0.040729 0.040757
0.009546 0.009541 0.009565
0.010110 0.010068 0.010092
0.037629 0.037603 0.037555
0.010440 0.010401 0.010410
0.009853 0.009843 0.009813
0.010471 0.010433 0.010445
0.096791 0.096877 0.097519
0.009825 0.009798 0.009806
0.010886 0.010530 0.010421
0.092081 0.092256 0.092401
0.037832 0.037843 0.037856
0.010771 0.010777 0.010865
0.009870 0.009805 0.009731
0.012256 0.011664 0.010600
0.011040 0.011082 0.011135
0.200722 0.200739 0.200647
0.150240 0.150280 0.150097
0.009361 0.009342 0.009363
0.011167 0.011168 0.011161
0.017508 0.020269 0.020460
0.319233 0.318568 0.318447
0.011120 0.011097 0.011052
0.265451 0.265466 0.265437
0.011251 0.011064 0.010997
0.009565 0.009575 0.009460
0.079455 0.079312 0.078568
0.010244 0.010198 0.010216
0.010209 0.010065 0.010006
0.104591 0.109291 0.109745
0.126397 0.125801 0.124669
0.096263 0.096270 0.096233
0.009933 0.010004 0.009948
0.009876 0.009825 0.009798
0.525223 0.524163 0.508443
0.010615 0.010602 0.010671
0.011095 0.011236 0.011241
0.009893 0.009880 0.010007
0.011474 0.011378 0.011437
0.211653 0.211767 0.212987
0.097829 0.097742 0.096567
0.088430 0.089373 0.089433
0.168736 0.180238 0.181404
0.218520 0.218530 0.218308
0.009765 0.009757 0.009728
0.010645 0.010682 0.010888
0.103815 0.104298 0.104281
0.207128 0.207167 0.207179
0.010975 0.010831 0.010817
0.009663 0.009624 0.009619
0.013671 0.013684 0.013686
0.172133 0.170337 0.170102
0.219700 0.219698 0.219693
0.009815 0.009804 0.009792
0.011711 0.011798 0.011744
0.034841 0.034856 0.034873
0.010343 0.010321 0.010317
0.009677 0.009663 0.009662
0.010865 0.010868 0.010881
0.010437 0.010417 0.010700
0.067471 0.067475 0.067370
0.269738 0.269932 0.270645
0.074926 0.074973 0.075016
0.180081 0.179724 0.179637
0.185003 0.183307 0.181052
0.103849 0.103620 0.103347
0.220400 0.220402 0.220454
0.170363 0.169362 0.167250
0.417522 0.415769 0.414943
0.218536 0.218540 0.218517
0.010632 0.010601 0.010561
0.052920 0.052923 0.052927
0.013663 0.013537 0.013662
0.067475 0.067370 0.067000
0.010662 0.010676 0.010646
0.011510 0.011556 0.011532
0.231973 0.232095 0.232270
0.013393 0.013443 0.013447
0.111832 0.110131 0.110001
0.141567 0.142303 0.142549
0.212429 0.212449 0.213130
0.009371 0.009333 0.009319
0.010538 0.010621 0.010537
0.011277 0.011259 0.011286
0.074595 0.074695 0.077305
0.010280 0.010162 0.010136
0.009943 0.009863 0.009904
0.099355 0.098738 0.097245
0.010203 0.010190 0.010187
0.010838 0.010834 0.010863
0.082106 0.082093 0.082096
0.206758 0.206378 0.205530
0.069128 0.069131 0.069360
0.010705 0.010621 0.010811
0.138123 0.138216 0.138980
0.082015 0.082032 0.082035
0.155429 0.155384 0.155360
0.010233 0.010172 0.010232
0.009377 0.009425 0.009448
0.010049 0.010032 0.010012
0.201508 0.205670 0.206683
0.062517 0.062436 0.062399
0.010137 0.010098 0.010243
0.010462 0.010350 0.010230
0.010947 0.010930 0.010955
0.127725 0.128166 0.142172
0.092277 0.089840 0.079365
0.152301 0.152436 0.152826
0.010490 0.010457 0.010457
0.081674 0.081667 0.081613
0.010620 0.010596 0.010629
0.009803 0.009789 0.009758
0.074452 0.072682 0.071674
0.229440 0.231978 0.232033
0.087126 0.079253 0.071415
0.268659 0.268674 0.268209
0.010625 0.010632 0.010630
0.010329 0.010356 0.010465
0.010704 0.010652 0.010595
0.009726 0.009747 0.009773
0.078727 0.078136 0.076872
0.011871 0.011771 0.011770
0.053484 0.051377 0.047928
0.010671 0.010755 0.010781
0.033080 0.033063 0.032618
0.011242 0.011150 0.011130
0.113897 0.113897 0.113900
0.010849 0.010625 0.010671
0.076111 0.080844 0.080925
0.010966 0.011039 0.011357
0.057956 0.057944 0.057738
0.010259 0.010167 0.010171
0.013724 0.013785 0.013871
0.051666 0.051686 0.051695
0.009485 0.009479 0.009506
0.034882 0.034876 0.034874
0.011906 0.011875 0.011801
0.087720 0.088939 0.089096
0.021197 0.047187 0.048411
0.118184 0.113167 0.101741
0.054471 0.053927 0.053821
0.170048 0.170720 0.172696
0.207352 0.207750 0.207827
0.210063 0.210059 0.210067
0.009488 0.009492 0.009518
0.218340 0.218331 0.218262
0.195122 0.197356 0.198314
0.012068 0.012195 0.012325
0.010724 0.010743 0.010840
0.057990 0.058005 0.058021
0.010838 0.010563 0.010529
0.081816 0.081666 0.081473
0.091708 0.091841 0.091707
0.009745 0.009732 0.009770
0.009731 0.009734 0.009740
0.011457 0.011323 0.011282
0.010036 0.009954 0.010099
0.079849 0.079837 0.079820
0.009757 0.009607 0.009604
0.041648 0.041433 0.040982
0.010946 0.011027 0.011060
0.072399 0.072379 0.072368
0.010967 0.010877 0.010937
0.089993 0.089940 0.089928
0.118282 0.115937 0.115536
0.108333 0.108670 0.108837
0.010178 0.010377 0.010414
0.035204 0.035197 0.035179
0.033803 0.033772 0.033709
0.089293 0.089183 0.089130
0.009606 0.009566 0.009478
0.011569 0.011547 0.011507
0.009780 0.009747 0.009721
0.010301 0.010338 0.010304
0.011829 0.011149 0.011085
0.157155 0.172593 0.172736
0.234115 0.234210 0.234257
0.011434 0.011578 0.011614
0.044360 0.056929 0.058214
0.198214 0.198386 0.198738
0.010377 0.010345 0.010422
0.105048 0.105291 0.105429
0.166318 0.166332 0.166360
0.010639 0.010525 0.010482
0.057174 0.057339 0.058482
0.099495 0.099396 0.098511
0.010757 0.010680 0.010710
0.012526 0.012240 0.012011
0.551953 0.550041 0.542238
0.010211 0.010223 0.010184
0.264608 0.265582 0.268170
0.080055 0.081803 0.082926
0.011133 0.011028 0.010952
0.010041 0.009968 0.009950
0.009857 0.009932 0.009876
0.085144 0.085171 0.085555
0.046778 0.046754 0.046736
0.036733 0.036753 0.036809
0.011377 0.011412 0.011391
0.010543 0.010544 0.010505
0.091375 0.091644 0.091822
0.081628 0.081634 0.081637
0.041228 0.041100 0.041062
0.010520 0.010466 0.010400
0.138598 0.137912 0.137651
0.265052 0.265271 0.265562
0.009909 0.009795 0.009758
0.034894 0.034867 0.034826
0.010039 0.010057 0.009864
0.053097 0.053007 0.052524
0.009341 0.009412 0.009344
0.010422 0.010385 0.010299
0.010948 0.011091 0.011127
