0.201941 0.202177 0.202367
0.353021 0.353195 0.352495
0.347487 0.347623 0.347506
0.152194 0.158138 0.163295
0.417311 0.411298 0.420567
0.516084 0.515098 0.517142
0.429533 0.430527 0.423684
0.348922 0.350670 0.379667
0.347603 0.345635 0.345777
0.259497 0.260950 0.262153
0.580930 0.572322 0.565776
0.404146 0.404695 0.405377
0.304769 0.303523 0.304635
0.318285 0.312914 0.309126
0.310886 0.310689 0.312525
0.303582 0.311822 0.312772
0.336681 0.336926 0.336800
0.274271 0.283227 0.269197
0.301152 0.306850 0.313447
0.354245 0.353914 0.352639
0.227916 0.226120 0.225952
0.374551 0.373194 0.378971
0.205981 0.208559 0.209439
0.443854 0.438248 0.440333
0.256271 0.247040 0.245971
0.365963 0.373174 0.374550
0.312225 0.314908 0.318610
0.340367 0.342467 0.342978
0.335224 0.337356 0.339637
0.156146 0.156355 0.157503
0.166965 0.166649 0.166261
0.192300 0.191888 0.191445
0.181748 0.181222 0.180895
0.378879 0.374090 0.373443
0.332456 0.331871 0.330852
0.135242 0.143292 0.151503
0.513100 0.511833 0.512396
0.498100 0.497950 0.497974
0.163114 0.163977 0.165294
0.268920 0.264494 0.265101
0.224641 0.223794 0.224650
0.329096 0.322169 0.320009
0.294077 0.294791 0.293499
0.347503 0.347523 0.348571
0.240670 0.241089 0.240253
0.325109 0.334382 0.336130
0.234651 0.234122 0.232311
0.321052 0.320922 0.320885
0.336684 0.335487 0.331900
0.374161 0.356162 0.357703
0.171218 0.173485 0.173533
0.276084 0.277582 0.277865
0.273636 0.273203 0.271724
0.559134 0.555408 0.556630
0.308920 0.309382 0.301985
0.304236 0.304382 0.303031
0.304267 0.304301 0.304236
0.481749 0.481934 0.484048
0.295333 0.290314 0.287799
0.582830 0.584638 0.588126
0.320186 0.321176 0.321618
0.167765 0.166487 0.168426
0.306628 0.307298 0.307684
0.295810 0.298359 0.274082
0.327543 0.333913 0.334776
0.383993 0.383419 0.381243
0.112859 0.113284 0.113510
0.311370 0.312470 0.312674
0.374028 0.373914 0.371347
0.333522 0.313351 0.314123
0.261820 0.262615 0.263788
0.199989 0.200933 0.199116
0.652713 0.668614 0.672044
0.267400 0.266574 0.264520
0.112178 0.112825 0.113044
0.174780 0.175487 0.174909
0.091773 0.093254 0.094294
0.265360 0.266328 0.266563
0.279212 0.299395 0.316171
0.211191 0.211131 0.211253
0.206953 0.210039 0.210459
0.246971 0.246955 0.246906
0.240971 0.241655 0.241411
0.123573 0.121460 0.121269
0.265519 0.263894 0.264081
0.198798 0.200365 0.202624
0.325237 0.325202 0.323253
0.264357 0.263793 0.263839
0.364270 0.365019 0.368934
0.374937 0.378397 0.378503
0.566622 0.565791 0.566466
0.603556 0.605197 0.605441
0.548361 0.545223 0.530391
0.149993 0.148785 0.153720
0.121344 0.122046 0.122045
0.293321 0.292691 0.293638
0.187138 0.187688 0.186831
0.186821 0.184494 0.183915
0.314400 0.315697 0.318423
0.124845 0.125264 0.124944
0.380702 0.378554 0.383605
0.258447 0.256335 0.255151
0.153828 0.150799 0.145464
0.179599 0.182373 0.184689
0.158966 0.160505 0.160627
0.327649 0.337221 0.338874
0.640825 0.640195 0.641918
0.254984 0.255778 0.254548
0.342163 0.343521 0.344860
0.383914 0.376341 0.367632
0.404142 0.401924 0.401221
0.461324 0.465571 0.455615
0.456844 0.458009 0.461283
0.512061 0.514445 0.529325
0.443371 0.443400 0.443363
0.205212 0.205824 0.203627
0.337497 0.337530 0.339254
0.319106 0.324125 0.325240
0.149501 0.150073 0.150725
0.535609 0.535750 0.535010
0.157536 0.157613 0.158837
0.390129 0.389926 0.383741
0.191329 0.192284 0.192168
0.127253 0.127469 0.128733
0.319208 0.318586 0.319621
0.312357 0.312413 0.313113
0.339086 0.339267 0.338480
0.578547 0.577375 0.576146
0.123562 0.122442 0.121702
0.188626 0.188719 0.189315
0.361070 0.366596 0.368940
0.109001 0.110946 0.109871
0.353073 0.353567 0.352558
0.249047 0.248775 0.245809
0.316028 0.317077 0.317398
0.318970 0.319162 0.319402
0.456772 0.477248 0.487193
0.288593 0.290954 0.290971
0.195925 0.194495 0.194190
0.179150 0.179615 0.180756
0.343531 0.319941 0.307865
0.323897 0.325714 0.327359
0.343805 0.344539 0.340883
0.250572 0.250719 0.251328
0.135386 0.133630 0.131975
0.217055 0.220200 0.220184
0.515916 0.519637 0.512799
0.256983 0.266087 0.267216
0.349117 0.349564 0.351866
0.364979 0.363461 0.361685
0.175267 0.175672 0.176006
0.198146 0.203051 0.207994
0.333529 0.333494 0.333510
0.295449 0.290990 0.290006
0.207913 0.207497 0.206972
0.185808 0.185980 0.187564
0.131728 0.131004 0.129800
0.291964 0.289109 0.287810
0.158391 0.155183 0.155910
0.448002 0.458934 0.462400
0.216780 0.219848 0.223173
0.255036 0.242722 0.241179
0.349034 0.347237 0.345118
0.367156 0.368741 0.371665
0.198019 0.198633 0.202044
0.351838 0.352081 0.353058
0.140539 0.138031 0.137958
0.538738 0.538085 0.541610
0.345487 0.340038 0.339608
0.347536 0.345159 0.342429
0.361744 0.361485 0.361034
0.368516 0.373200 0.373502
0.327478 0.329605 0.332560
0.255142 0.255416 0.255483
0.422706 0.412380 0.418955
0.318005 0.318377 0.317508
0.174502 0.172432 0.170970
0.243422 0.243787 0.243941
0.247437 0.247409 0.247444
0.230015 0.228314 0.216982
0.425360 0.425957 0.430810
0.286496 0.288441 0.289511
0.342975 0.344206 0.345379
0.364623 0.362126 0.360386
0.374631 0.370676 0.360551
0.302151 0.299348 0.299738
0.231524 0.231064 0.230542
0.305370 0.305443 0.298166
0.238302 0.238908 0.248503
0.199134 0.200072 0.200526
0.163303 0.160642 0.160665
0.278752 0.269724 0.266734
0.225821 0.226128 0.227006
0.368280 0.368348 0.368442
0.310949 0.311284 0.312328
0.153285 0.154065 0.160721
0.210002 0.189555 0.187284
0.181666 0.181470 0.179937
0.439215 0.437863 0.439032
0.138224 0.136219 0.137745
0.136179 0.135386 0.133630
0.334381 0.333357 0.327581
0.300441 0.301715 0.304794
0.495709 0.504060 0.514468
0.376128 0.367765 0.368277
0.249470 0.250762 0.251227
0.137601 0.136570 0.133914
0.279645 0.279698 0.279703
0.308321 0.307125 0.304956
0.309901 0.311298 0.313149
0.368539 0.368281 0.368511
0.120994 0.121309 0.125827
0.309938 0.310546 0.310116
0.150660 0.151105 0.152220
0.480523 0.480524 0.484919
0.350020 0.349053 0.350054
0.199873 0.201129 0.202083
0.306666 0.307765 0.306769
0.250762 0.251227 0.253429
0.194753 0.193610 0.194865
0.172909 0.162722 0.166657
0.346921 0.345243 0.345580
0.164810 0.178956 0.181279
0.297481 0.303296 0.307220
0.280741 0.279500 0.277520
0.307952 0.310550 0.315832
0.429160 0.429913 0.434619
0.195913 0.194753 0.193610
0.154869 0.155495 0.155849
0.107224 0.107162 0.106040
0.208915 0.208728 0.208024
0.284773 0.284847 0.285323
0.309071 0.308383 0.304757
0.309765 0.309726 0.309370
0.443331 0.437818 0.437719
0.283717 0.280353 0.278137
0.398584 0.398308 0.398096
0.154295 0.154407 0.153932
0.442776 0.442639 0.449222
0.345826 0.338363 0.340006
0.215388 0.216150 0.217060
0.327652 0.326993 0.322937
0.348981 0.353117 0.355392
0.254578 0.254002 0.253246
0.277314 0.273636 0.273203
0.312532 0.313606 0.314518
0.477468 0.479380 0.480032
0.322962 0.324050 0.324702
0.208745 0.208532 0.201644
0.318961 0.322693 0.321411
0.384606 0.383196 0.382365
0.103056 0.103246 0.103672
0.146390 0.143544 0.142645
0.469834 0.468107 0.468440
0.418991 0.420195 0.418874
0.309120 0.300542 0.299339
0.359012 0.362960 0.356529
0.388047 0.388040 0.382922
0.249435 0.250433 0.248994
0.472071 0.468875 0.444407
0.187902 0.185100 0.185398
0.379549 0.378106 0.384797
0.511266 0.510579 0.505537
0.326805 0.329008 0.332857
0.196891 0.197820 0.197613
0.158439 0.158711 0.159027
0.176167 0.176686 0.178739
0.341878 0.341053 0.334344
0.359077 0.358718 0.358186
0.466307 0.467922 0.468299
0.304704 0.304857 0.305016
0.547938 0.546913 0.544772
0.168540 0.168522 0.168950
0.313529 0.313351 0.313915
0.364698 0.364571 0.364002
0.160815 0.158992 0.157923
0.216802 0.218341 0.221353
0.377963 0.376818 0.376397
0.359239 0.361957 0.360734
0.331601 0.330205 0.329846
0.379130 0.381220 0.382406
0.168268 0.166392 0.166009
0.543478 0.533015 0.533121
0.214941 0.215188 0.215437
0.587922 0.584542 0.583969
0.317547 0.316259 0.326468
0.591009 0.592629 0.599952
0.228579 0.222682 0.221857
0.134111 0.131505 0.132001
0.170366 0.170460 0.172571
0.345503 0.345451 0.346239
0.114603 0.114720 0.113298
0.237304 0.237747 0.237842
0.561090 0.560376 0.561540
0.308822 0.308810 0.309572
0.369833 0.370162 0.370516
0.345711 0.342951 0.329229
0.236447 0.236741 0.237396
0.311126 0.315098 0.315604
0.645987 0.652097 0.670010
0.347475 0.338506 0.340398
0.274367 0.273701 0.273622
0.323939 0.325936 0.326182
0.327681 0.325747 0.318265
0.408621 0.408226 0.407012
0.350497 0.350666 0.350301
0.379840 0.381729 0.383984
0.307017 0.307952 0.308117
0.629789 0.596619 0.583831
0.199135 0.199053 0.198078
0.167893 0.168376 0.169738
0.130067 0.130995 0.131420
0.418945 0.419650 0.419770
0.311133 0.310462 0.310045
0.144930 0.144645 0.144755
0.186583 0.185504 0.179564
0.315284 0.314804 0.314760
0.181206 0.189853 0.204755
0.318961 0.318900 0.317761
0.309193 0.316685 0.318727
0.154446 0.153437 0.152562
0.553734 0.556608 0.557946
0.256274 0.257426 0.257123
0.275574 0.279228 0.279065
0.383862 0.379726 0.379595
0.134712 0.133942 0.131728
0.361774 0.363434 0.367411
0.316968 0.322436 0.322369
0.136833 0.139249 0.153535
0.203146 0.202915 0.202321
0.341338 0.345702 0.345842
0.132254 0.131416 0.131607
0.189512 0.189716 0.188859
0.381873 0.381442 0.381292
0.330037 0.331859 0.330051
0.368443 0.367624 0.361373
0.154227 0.151491 0.150265
0.253038 0.245387 0.248642
0.360469 0.362362 0.363965
0.570912 0.568456 0.559559
0.275008 0.274295 0.272814
0.236013 0.236310 0.236336
0.363380 0.364160 0.364091
0.282499 0.282149 0.283731
0.236335 0.235701 0.235327
0.299777 0.297374 0.288042
0.192375 0.194344 0.196191
0.200789 0.199334 0.198458
0.453716 0.458370 0.460251
0.301503 0.303184 0.298413
0.407779 0.406881 0.405721
0.490089 0.492707 0.491934
0.196806 0.196759 0.197340
0.277148 0.277603 0.278475
0.229437 0.229782 0.229149
0.154505 0.154219 0.154545
0.236515 0.236756 0.236973
0.342840 0.340755 0.343925
0.326566 0.326551 0.326722
0.315159 0.317175 0.325950
0.295342 0.294916 0.295127
0.332161 0.331169 0.331886
0.262153 0.273835 0.275795
0.250433 0.248994 0.248968
0.182677 0.184253 0.187309
0.460819 0.460276 0.465294
0.208865 0.208624 0.208021
0.298455 0.299058 0.298888
0.313763 0.312333 0.321590
0.211156 0.211595 0.210927
0.313480 0.314352 0.306429
0.173411 0.172807 0.164170
0.309504 0.308856 0.309132
0.327206 0.326326 0.326209
0.181653 0.181594 0.181531
0.197084 0.197884 0.198230
0.289840 0.288042 0.287154
0.234073 0.229801 0.227273
0.247478 0.247668 0.247262
0.239532 0.238768 0.239296
0.369697 0.370144 0.368928
0.263037 0.264511 0.271724
0.321850 0.326380 0.330212
0.199572 0.199421 0.199977
0.285921 0.285314 0.285443
0.112311 0.112747 0.113180
0.136999 0.136749 0.136979
0.116322 0.111287 0.109091
0.168853 0.171296 0.172033
0.357760 0.359351 0.359002
0.177616 0.177681 0.175885
0.185712 0.186683 0.185459
0.158216 0.154032 0.153669
0.375834 0.377207 0.378491
0.248585 0.247667 0.244855
0.293011 0.295851 0.299187
0.499812 0.501121 0.497803
0.187798 0.187704 0.187741
0.177903 0.177866 0.177817
0.373012 0.373124 0.374605
0.318343 0.319563 0.320052
0.208244 0.208840 0.209930
0.293764 0.293995 0.296550
0.212008 0.214101 0.233228
0.266734 0.263295 0.261704
0.323217 0.323553 0.323478
0.230860 0.231108 0.231091
0.303616 0.304954 0.305769
0.385480 0.383267 0.383421
0.245275 0.245411 0.244592
0.570915 0.572655 0.572025
0.309541 0.309346 0.314140
0.356293 0.345423 0.344092
0.253238 0.251511 0.251724
0.346193 0.348611 0.350631
0.107128 0.106340 0.106069
0.570441 0.580714 0.580283
0.193316 0.193610 0.194490
0.245491 0.245402 0.245491
0.372181 0.377595 0.378458
0.122661 0.122950 0.122180
0.294766 0.290009 0.274370
0.217926 0.226525 0.226481
0.170229 0.167298 0.167963
0.319965 0.320742 0.321061
0.105398 0.105093 0.104930
0.112241 0.111759 0.110678
0.171516 0.180836 0.182521
0.290181 0.293624 0.300211
0.305108 0.307908 0.308745
0.280983 0.281258 0.282704
0.310083 0.310060 0.309744
0.223487 0.222333 0.221650
0.169298 0.168711 0.167590
0.360325 0.357134 0.356796
0.325908 0.325846 0.325339
0.295787 0.295972 0.297141
0.334954 0.333442 0.334398
0.154412 0.146990 0.145789
0.449430 0.447810 0.449719
0.257973 0.257979 0.253108
0.191142 0.194016 0.194244
0.156058 0.155769 0.156101
0.196949 0.197614 0.197391
0.320027 0.320470 0.321959
0.346310 0.347435 0.346567
0.186202 0.185700 0.185830
0.298058 0.296436 0.295861
0.454980 0.455188 0.457555
0.308392 0.309098 0.309833
0.225658 0.224411 0.225272
0.247393 0.246029 0.244824
0.366831 0.363933 0.362880
0.331993 0.333321 0.334157
0.161027 0.159770 0.159298
0.481988 0.469264 0.467094
0.346490 0.347713 0.348216
0.220180 0.220193 0.219486
0.306121 0.307426 0.307900
0.318898 0.332075 0.331998
0.271669 0.271857 0.271914
0.378971 0.377160 0.372106
0.358233 0.358482 0.359205
0.122692 0.122846 0.122248
0.157989 0.156429 0.156196
0.309910 0.310135 0.310623
0.185806 0.185703 0.185870
0.237429 0.236254 0.235736
0.330225 0.338051 0.339363
0.154229 0.155257 0.156622
0.495135 0.495530 0.496870
0.389006 0.390298 0.392196
0.431231 0.429024 0.429216
0.210188 0.196391 0.188494
0.279293 0.280279 0.281957
0.157791 0.157166 0.158235
0.184378 0.184107 0.182993
0.307440 0.308684 0.310847
0.610783 0.613102 0.608561
0.316415 0.320473 0.326795
0.289241 0.290557 0.292296
0.405425 0.404969 0.405149
0.353922 0.345208 0.343934
0.366975 0.368545 0.368510
0.316710 0.317263 0.316976
0.305216 0.304903 0.305152
0.162886 0.162539 0.159785
0.335695 0.331875 0.329748
0.604337 0.600322 0.605717
0.362799 0.363184 0.365385
0.235123 0.235829 0.237656
0.476111 0.473400 0.471099
0.183906 0.183734 0.183735
0.240917 0.240688 0.241186
0.363039 0.360897 0.365249
0.286182 0.285019 0.284641
0.322262 0.330037 0.331859
0.232083 0.231700 0.234765
0.316178 0.322918 0.322733
0.487011 0.486109 0.486049
0.442639 0.449222 0.450171
0.183970 0.180819 0.181108
0.311954 0.319781 0.338452
0.167243 0.167369 0.167263
0.212348 0.213296 0.213405
0.304858 0.305781 0.312589
0.289400 0.288027 0.287611
0.311326 0.310469 0.309697
0.178531 0.178832 0.178732
0.127613 0.129149 0.128608
0.368148 0.364026 0.363362
0.267543 0.265384 0.263059
0.391276 0.390425 0.393142
0.200621 0.204527 0.204636
0.288764 0.295579 0.291454
0.322458 0.324418 0.324200
0.142089 0.144272 0.144590
0.305579 0.305973 0.305361
0.185144 0.187012 0.192358
0.439038 0.433402 0.431629
0.283702 0.283428 0.282559
0.300160 0.300734 0.298658
0.521075 0.522095 0.524587
0.282775 0.282390 0.284773
0.312592 0.313443 0.313314
0.287418 0.287764 0.293521
0.309500 0.309886 0.309618
0.313799 0.315148 0.319753
0.328014 0.327201 0.328496
0.310081 0.309132 0.308505
0.319742 0.317161 0.312498
0.272991 0.273522 0.281093
0.190223 0.191802 0.191329
0.381673 0.383679 0.385072
0.206968 0.207459 0.208043
0.144931 0.144602 0.141926
0.175407 0.174386 0.173802
0.167493 0.166902 0.165871
0.176825 0.175032 0.163325
0.262829 0.262981 0.256271
0.534837 0.534312 0.533167
0.178352 0.178325 0.177847
0.189918 0.193343 0.199969
0.292897 0.293150 0.290540
0.328351 0.327803 0.328007
0.280879 0.280088 0.280185
0.327557 0.326562 0.324472
0.225601 0.226788 0.227494
0.369987 0.368582 0.368045
0.357559 0.351516 0.351692
0.378157 0.383872 0.384156
0.136068 0.134672 0.133052
0.113520 0.113460 0.113371
0.312604 0.312669 0.313902
0.134864 0.134488 0.133546
0.172442 0.170779 0.170714
0.242722 0.241179 0.238992
0.207391 0.206908 0.210298
0.314542 0.314981 0.316265
0.295859 0.292227 0.269444
0.173014 0.170502 0.169006
0.121994 0.121733 0.121417
0.206196 0.201909 0.199491
0.237015 0.238007 0.235405
0.192503 0.192515 0.192988
0.209205 0.209277 0.209060
0.362751 0.364235 0.365063
0.165391 0.166100 0.165591
0.402947 0.397134 0.400350
0.328468 0.338918 0.338562
0.202009 0.200671 0.201245
0.289487 0.288426 0.288269
0.419765 0.419600 0.421351
0.509297 0.512061 0.514445
0.338850 0.339267 0.338645
0.284679 0.283339 0.281137
0.535041 0.535548 0.535386
0.317606 0.317470 0.316439
0.317137 0.317156 0.320436
0.271880 0.272061 0.272161
0.412260 0.412674 0.412544
0.170704 0.171164 0.171579
0.604547 0.602224 0.598319
0.504289 0.504934 0.509695
0.106040 0.105897 0.106850
0.149274 0.149691 0.149899
0.192626 0.193207 0.190803
0.311305 0.311020 0.309670
0.183122 0.182781 0.182238
0.484676 0.487315 0.483863
0.328840 0.327677 0.327908
0.469564 0.469343 0.470049
0.254251 0.254720 0.254740
0.400841 0.401530 0.394859
0.466952 0.468312 0.468199
0.309878 0.310053 0.329290
0.325921 0.372696 0.378328
0.317528 0.317443 0.313136
0.164251 0.164756 0.164019
0.125176 0.124829 0.123522
0.171329 0.171935 0.180030
0.481468 0.480523 0.480524
0.339858 0.339941 0.337402
0.156088 0.157745 0.158183
0.321735 0.324651 0.327098
0.351735 0.351987 0.352428
0.530768 0.529637 0.530469
0.498109 0.489547 0.490692
0.650784 0.653206 0.655323
0.133340 0.132515 0.129831
0.191887 0.192219 0.191624
0.406092 0.404797 0.404977
0.422291 0.424285 0.426121
0.398709 0.393627 0.398148
0.312740 0.312661 0.313735
0.174418 0.172473 0.183594
0.245161 0.245527 0.247489
0.144312 0.144882 0.146381
0.204198 0.205603 0.208454
0.268072 0.266349 0.265602
0.354972 0.354067 0.353197
0.160024 0.160226 0.160227
0.313755 0.312265 0.318518
0.318565 0.319243 0.318334
0.319275 0.319443 0.319487
0.197459 0.197455 0.197413
0.301246 0.309252 0.308959
0.184904 0.187951 0.187403
0.180030 0.180062 0.179307
0.416497 0.419007 0.417855
0.283464 0.284121 0.287382
0.120627 0.119898 0.119594
0.335023 0.333511 0.329865
0.485963 0.483347 0.464554
0.351989 0.353177 0.350953
0.224256 0.223807 0.224242
0.252297 0.250286 0.249789
0.390632 0.389879 0.388798
0.185725 0.185563 0.184295
0.115970 0.115570 0.115511
0.148586 0.148624 0.149351
0.291092 0.293725 0.294394
0.319499 0.318957 0.311982
0.255867 0.253779 0.252953
0.325850 0.325854 0.325628
0.315770 0.312218 0.316178
0.238090 0.237912 0.234875
0.313924 0.315138 0.317135
0.245148 0.245610 0.240239
0.346874 0.347679 0.351655
0.140488 0.139485 0.133613
0.377715 0.376465 0.375861
0.361957 0.360734 0.360572
0.227175 0.226135 0.225196
0.289135 0.286776 0.284994
0.313019 0.314603 0.328273
0.317833 0.311581 0.310399
0.374799 0.374739 0.375404
0.367726 0.369498 0.369685
0.317107 0.311723 0.311585
0.480749 0.480204 0.477467
0.242670 0.240958 0.236206
0.186791 0.186372 0.185864
0.331360 0.328284 0.327363
0.275702 0.276811 0.278746
0.298267 0.298906 0.300966
0.189963 0.194242 0.194176
0.398075 0.397948 0.398222
0.298478 0.295956 0.294860
0.206080 0.206302 0.207709
0.226730 0.226457 0.229428
0.466774 0.468934 0.469238
0.351658 0.351839 0.352033
0.231133 0.230738 0.231424
0.264648 0.265181 0.265420
0.306083 0.298208 0.291202
0.397700 0.397270 0.396987
0.307284 0.304934 0.287416
0.288223 0.290370 0.290927
0.110360 0.109974 0.109713
0.172954 0.171341 0.168363
0.264980 0.264664 0.264648
0.166100 0.165591 0.166749
0.483891 0.487560 0.487943
0.331903 0.334651 0.330134
0.337521 0.338143 0.338913
0.289323 0.280402 0.280931
0.447879 0.448044 0.439117
0.405898 0.406073 0.403650
0.343571 0.343229 0.343180
0.211102 0.212837 0.214403
0.332308 0.331811 0.330891
0.361113 0.358157 0.347396
0.143808 0.142902 0.142186
0.306725 0.304430 0.302068
0.461129 0.460662 0.464040
0.194212 0.192412 0.190726
0.337735 0.340770 0.339158
0.189089 0.190039 0.190819
0.155328 0.156234 0.157026
0.341293 0.334994 0.335728
0.147273 0.153148 0.154118
0.162749 0.162326 0.158877
0.168287 0.168547 0.169729
0.282938 0.285197 0.284742
0.181513 0.182646 0.183248
0.265536 0.279047 0.318961
0.168950 0.171086 0.172153
0.280766 0.281956 0.285761
0.307755 0.308835 0.310677
0.237037 0.237858 0.238067
0.213107 0.212834 0.207369
0.258298 0.260340 0.262111
0.321954 0.320416 0.317960
0.311069 0.309860 0.308663
0.326754 0.327253 0.327724
0.273372 0.276762 0.277554
0.181782 0.183812 0.184337
0.380424 0.378939 0.380055
0.329145 0.329060 0.332558
0.255896 0.257460 0.257552
0.168645 0.169715 0.169731
0.317191 0.316751 0.318318
0.109519 0.108708 0.107745
0.359836 0.370201 0.370807
0.372368 0.372244 0.361067
0.178633 0.163316 0.160888
0.098916 0.099325 0.098832
0.317194 0.316079 0.312134
0.173513 0.172834 0.167364
0.416202 0.416900 0.419256
0.246308 0.244820 0.244333
0.429365 0.428960 0.429094
0.285683 0.268023 0.268038
0.334121 0.337033 0.338028
0.347933 0.345659 0.350693
0.126978 0.126904 0.126257
0.609774 0.608633 0.608956
0.394170 0.394012 0.392110
0.274167 0.274396 0.274043
0.232469 0.232074 0.233343
0.280954 0.271298 0.267992
0.311164 0.311512 0.312485
0.355350 0.355819 0.355961
0.201332 0.202669 0.203722
0.332227 0.331739 0.332029
0.245149 0.244935 0.242087
0.446057 0.437831 0.438989
0.178196 0.178017 0.177528
0.172344 0.173739 0.173308
0.561520 0.555791 0.556048
0.210976 0.217055 0.220200
0.103229 0.103668 0.104992
0.480765 0.482434 0.485748
0.128467 0.128037 0.125149
0.236591 0.236842 0.236475
0.343924 0.343571 0.343229
0.221599 0.230050 0.233365
0.501495 0.502504 0.503110
0.136601 0.135665 0.135152
0.469315 0.475771 0.479833
0.198811 0.198731 0.199283
0.310979 0.309920 0.308435
0.361257 0.361086 0.361091
0.506362 0.505365 0.504514
0.411959 0.410032 0.409248
0.202187 0.203216 0.203897
0.187551 0.186352 0.185906
0.345386 0.345733 0.360940
0.210316 0.210563 0.210723
0.330776 0.332172 0.331614
0.167727 0.167110 0.167328
0.157972 0.157874 0.156623
0.121295 0.122218 0.122041
0.348611 0.348423 0.347387
0.177013 0.179681 0.182037
0.163030 0.163071 0.163235
0.347351 0.346857 0.347571
0.300780 0.302545 0.304736
0.301456 0.301562 0.301164
0.291261 0.290836 0.290331
0.097894 0.096805 0.096284
0.298748 0.298713 0.298719
0.419597 0.420165 0.420515
0.277453 0.283166 0.284615
0.316560 0.312640 0.313318
0.154204 0.154633 0.155668
0.208651 0.209221 0.209968
0.342398 0.343126 0.347290
0.171244 0.173601 0.173660
0.349430 0.349621 0.349460
0.559400 0.571719 0.572397
0.123877 0.124911 0.129386
0.155072 0.157728 0.158565
0.319224 0.311686 0.311019
0.104635 0.104756 0.105307
0.270612 0.272375 0.271046
0.484150 0.486949 0.487501
0.262972 0.262441 0.261853
0.216304 0.217640 0.216161
0.222037 0.220046 0.219460
0.361322 0.360355 0.360597
0.163749 0.165091 0.166963
0.301067 0.302212 0.304612
0.202635 0.202027 0.202521
0.462714 0.468022 0.464904
0.338922 0.338884 0.332671
0.331934 0.323932 0.322373
0.355261 0.356155 0.361782
0.132376 0.130219 0.130104
0.583943 0.584972 0.584856
0.373906 0.360325 0.357134
0.160565 0.164378 0.163558
0.353720 0.352255 0.343442
0.178920 0.178572 0.178850
0.295020 0.295531 0.295411
0.464011 0.463471 0.463781
0.311761 0.311547 0.311390
0.350297 0.351644 0.352702
0.316226 0.312222 0.311380
0.205876 0.205706 0.206105
0.350741 0.350495 0.349707
0.226847 0.228370 0.229462
0.236583 0.236671 0.237991
0.317920 0.312897 0.311686
0.456763 0.457581 0.459513
0.308896 0.306268 0.313904
0.241932 0.242664 0.242520
0.364201 0.362726 0.357724
0.297781 0.297619 0.297624
0.352987 0.362653 0.358615
0.462650 0.462710 0.460521
0.610154 0.613156 0.615817
0.168062 0.168173 0.168275
0.121243 0.125413 0.126421
0.531474 0.534940 0.536491
0.304662 0.313914 0.309901
0.374743 0.375355 0.375713
0.449440 0.445435 0.442127
0.527225 0.525779 0.526585
0.133499 0.133343 0.133084
0.155727 0.156191 0.156552
0.185073 0.185138 0.184233
0.245625 0.243120 0.238803
0.170373 0.174749 0.174520
0.244856 0.244723 0.244326
0.361000 0.360746 0.360411
0.406638 0.426862 0.428884
0.666456 0.664872 0.652965
0.319301 0.320069 0.319937
0.164674 0.166894 0.167690
0.232530 0.228833 0.227504
0.288247 0.286839 0.287052
0.310677 0.312173 0.314196
0.210921 0.210221 0.208865
0.154495 0.154204 0.153798
0.277134 0.278462 0.278637
0.217666 0.218015 0.215111
0.303518 0.303810 0.304594
0.353140 0.352249 0.356592
0.428719 0.425392 0.425378
0.452884 0.452451 0.451185
0.236916 0.237829 0.238154
0.312997 0.293071 0.290934
0.330896 0.329762 0.330490
0.199810 0.199846 0.200049
0.136786 0.132197 0.128187
0.312009 0.312357 0.312413
0.301499 0.307253 0.307578
0.126751 0.126934 0.128465
0.353117 0.355392 0.355276
0.200929 0.200879 0.201112
0.596546 0.595659 0.592697
0.181291 0.178109 0.177847
0.154912 0.155489 0.155678
0.269938 0.317419 0.322726
0.177237 0.175987 0.175873
0.290998 0.301229 0.304474
0.301203 0.291986 0.280361
0.282962 0.282762 0.282450
0.398552 0.401210 0.427796
0.373290 0.373642 0.372163
0.126905 0.126069 0.123040
0.366138 0.365830 0.365915
0.389005 0.390234 0.392106
0.466461 0.467272 0.468332
0.234198 0.234120 0.234495
0.170350 0.179585 0.179706
0.147858 0.150065 0.162198
0.226768 0.228817 0.228904
0.280419 0.280003 0.279978
0.190702 0.192459 0.193022
0.297758 0.298267 0.298906
0.152966 0.152924 0.153628
0.271022 0.271579 0.284020
0.485555 0.488062 0.497027
0.179284 0.180413 0.181005
0.241079 0.240668 0.239444
0.312046 0.308619 0.305281
0.283243 0.281914 0.280411
0.303017 0.301354 0.302492
0.130108 0.129966 0.128549
0.278355 0.277400 0.276890
0.300614 0.299411 0.298580
0.338765 0.339211 0.338815
0.241608 0.235285 0.234397
0.250497 0.246388 0.245976
0.307667 0.304760 0.305003
0.331569 0.330735 0.328330
0.277933 0.280689 0.282239
0.139116 0.139379 0.138401
0.195225 0.221599 0.230050
0.208222 0.198056 0.196339
0.383291 0.382252 0.373279
0.316898 0.319251 0.312046
0.112465 0.112627 0.113241
0.143482 0.141134 0.140745
0.281154 0.282418 0.282341
0.346028 0.345487 0.340038
0.153425 0.152216 0.164027
0.306424 0.299088 0.298241
0.312804 0.313434 0.311614
0.288220 0.288272 0.287370
0.237471 0.235667 0.234540
0.465283 0.465622 0.465873
0.167322 0.167807 0.169312
0.591827 0.591847 0.592022
0.337283 0.337918 0.338388
0.346291 0.343893 0.325017
0.169342 0.168604 0.164817
0.336787 0.333207 0.333977
0.309274 0.315308 0.315531
0.257486 0.256303 0.254676
0.121063 0.118734 0.117647
0.288612 0.290722 0.290998
0.519601 0.526753 0.523725
0.291889 0.285437 0.285959
0.214426 0.217959 0.219983
0.336993 0.336231 0.336192
0.308040 0.306976 0.307215
0.287023 0.287422 0.286347
0.156297 0.156488 0.155704
0.151516 0.151635 0.151359
0.359165 0.365004 0.364422
0.357560 0.357374 0.357680
0.261442 0.263735 0.264050
0.154700 0.155588 0.156621
0.458009 0.461283 0.468288
0.290369 0.290196 0.289701
0.177784 0.175906 0.163987
0.171257 0.172227 0.171380
0.130551 0.130782 0.130578
0.276616 0.269761 0.265266
0.167645 0.167634 0.167462
0.355070 0.355394 0.356522
0.480714 0.481468 0.480523
0.267036 0.264970 0.262242
0.310093 0.311790 0.316637
0.115991 0.115095 0.112800
0.185586 0.184012 0.183975
0.363965 0.363985 0.362049
0.285832 0.287836 0.288047
0.194876 0.195006 0.194124
0.279465 0.313470 0.318433
0.320533 0.321526 0.320621
0.194492 0.196597 0.197231
0.320270 0.321438 0.320796
0.388005 0.389005 0.390234
0.323395 0.324674 0.330541
0.187945 0.187738 0.187349
0.176371 0.174465 0.173171
0.292509 0.293522 0.292779
0.330275 0.330609 0.329996
0.340213 0.339517 0.337017
0.310053 0.329290 0.339993
0.182771 0.182562 0.184259
0.362045 0.360366 0.366722
0.433693 0.433450 0.433615
0.161462 0.158402 0.158910
0.235500 0.235024 0.234003
0.310397 0.312443 0.314962
0.204534 0.205040 0.204183
0.299774 0.298846 0.291647
0.586029 0.587458 0.587442
0.189363 0.190905 0.189717
0.177001 0.174483 0.173827
0.185184 0.187214 0.186288
0.253711 0.254079 0.254242
0.319355 0.319309 0.319890
0.448446 0.450885 0.485523
0.540658 0.534918 0.539934
0.209128 0.170917 0.168085
0.164439 0.164863 0.164255
0.262657 0.262190 0.264279
0.312925 0.313847 0.313929
0.442584 0.442407 0.445898
0.248690 0.248503 0.247304
0.311555 0.315183 0.306910
0.489019 0.490352 0.490593
0.183142 0.183549 0.183843
