0.072864 0.073017 0.072998
0.153297 0.150268 0.148946
0.123612 0.125047 0.125337
0.146986 0.147505 0.147488
0.095335 0.094452 0.093810
0.119838 0.119818 0.119985
0.106342 0.106158 0.104894
0.191707 0.189234 0.190079
0.174939 0.174669 0.174985
0.307235 0.306675 0.307283
0.076455 0.076364 0.077192
0.140658 0.141015 0.143431
0.064438 0.064340 0.064459
0.072296 0.071669 0.072682
0.077488 0.077368 0.081646
0.163212 0.166273 0.166460
0.077294 0.077437 0.077572
0.110144 0.110304 0.110569
0.119065 0.117901 0.118123
0.237486 0.238632 0.240910
0.129846 0.128931 0.128902
0.107976 0.106493 0.106434
0.215215 0.210606 0.210913
0.061098 0.060630 0.060500
0.134589 0.134383 0.133959
0.266918 0.266746 0.266693
0.156693 0.158262 0.163381
0.318989 0.320224 0.321435
0.105542 0.105188 0.104620
0.186402 0.191351 0.192435
0.071832 0.071152 0.070279
0.171730 0.168790 0.168599
0.102406 0.102153 0.102788
0.069578 0.069496 0.069444
0.069360 0.067758 0.066911
0.176988 0.177954 0.177851
0.174897 0.175090 0.175185
0.103253 0.102352 0.101921
0.087712 0.090788 0.091817
0.068405 0.068892 0.067658
0.100931 0.101331 0.101384
0.130792 0.128037 0.127096
0.157512 0.157511 0.157829
0.088687 0.089190 0.089702
0.110153 0.107643 0.106943
0.073091 0.073318 0.073232
0.081568 0.081609 0.081787
0.162754 0.163588 0.163779
0.120664 0.120238 0.119474
0.141727 0.141000 0.140087
0.087907 0.087611 0.087375
0.263630 0.263216 0.250183
0.225239 0.227321 0.237850
0.092432 0.091507 0.091052
0.077258 0.081700 0.081970
0.249957 0.250621 0.250651
0.337844 0.338790 0.340092
0.140110 0.143542 0.150172
0.093030 0.093426 0.093671
0.091463 0.091558 0.091767
0.096829 0.099151 0.100147
0.193969 0.193837 0.194665
0.095532 0.094554 0.094581
0.077422 0.077139 0.077426
0.081390 0.081640 0.081518
0.223413 0.225676 0.227502
0.108891 0.108539 0.108637
0.197948 0.197480 0.203041
0.312452 0.313022 0.313427
0.235343 0.235420 0.234863
0.145407 0.142114 0.142020
0.078411 0.078478 0.078423
0.086905 0.088895 0.089347
0.104926 0.104850 0.104903
0.073837 0.074204 0.074279
0.086741 0.086924 0.087045
0.247412 0.249995 0.249029
0.081080 0.080266 0.080785
0.086446 0.087040 0.086810
0.104663 0.104435 0.104132
0.105514 0.104990 0.104577
0.141144 0.141973 0.142488
0.169985 0.169238 0.169248
0.081294 0.080730 0.080027
0.108457 0.108080 0.108509
0.163115 0.170013 0.176442
0.093950 0.092970 0.092531
0.147820 0.148104 0.148264
0.106377 0.107060 0.112581
0.232234 0.229836 0.230781
0.114905 0.114918 0.113267
0.068161 0.068126 0.067560
0.314859 0.315264 0.305148
0.065423 0.066840 0.067060
0.076936 0.076683 0.076665
0.110371 0.111459 0.115490
0.267696 0.267956 0.269351
0.274923 0.273743 0.274260
0.152257 0.152406 0.151998
0.274987 0.273955 0.270239
0.173385 0.174360 0.167659
0.164426 0.160150 0.159045
0.224593 0.224967 0.219187
0.169200 0.169249 0.167529
0.341545 0.342156 0.342083
0.110677 0.108305 0.107813
0.103221 0.100024 0.099860
0.234561 0.234292 0.234345
0.200285 0.201285 0.202481
0.193870 0.187681 0.187751
0.091544 0.091456 0.091121
0.326239 0.323984 0.316936
0.179956 0.179757 0.179797
0.100626 0.101119 0.101215
0.311580 0.313234 0.306372
0.123234 0.122052 0.119104
0.139411 0.139304 0.139388
0.151337 0.151120 0.146811
0.157429 0.158188 0.158401
0.112265 0.112030 0.111219
0.183296 0.184784 0.185987
0.072144 0.072248 0.071858
0.245467 0.245465 0.238355
0.185256 0.185631 0.191251
0.191251 0.191100 0.191307
0.100607 0.101091 0.103174
0.069721 0.071767 0.072164
0.074602 0.074495 0.074278
0.161983 0.162144 0.161916
0.109775 0.107866 0.107644
0.121896 0.121371 0.119535
0.318808 0.318156 0.318462
0.153835 0.155059 0.156265
0.116077 0.116154 0.116673
0.111874 0.112820 0.112390
0.153122 0.152662 0.148864
0.149068 0.148288 0.148180
0.165279 0.165258 0.166077
0.085956 0.086351 0.086542
0.180265 0.181760 0.191892
0.101903 0.101590 0.101477
0.065957 0.065908 0.065254
0.072770 0.072097 0.070705
0.134750 0.134380 0.134019
0.070526 0.069888 0.068837
0.312039 0.312253 0.312828
0.108577 0.108946 0.109534
0.099428 0.099440 0.099294
0.109932 0.110320 0.110352
0.071391 0.071548 0.072217
0.093596 0.093594 0.094971
0.155890 0.156698 0.157037
0.096110 0.094211 0.094139
0.113876 0.113881 0.114338
0.155104 0.159578 0.160354
0.085292 0.086498 0.086218
0.245684 0.245745 0.245845
0.173762 0.177586 0.178272
0.082675 0.082907 0.082991
0.112390 0.112684 0.112947
0.112929 0.113555 0.113803
0.101471 0.103255 0.104227
0.172216 0.172617 0.172873
0.237771 0.238082 0.239515
0.189772 0.189528 0.187701
0.115927 0.114140 0.114081
0.073142 0.073083 0.073189
0.321751 0.316956 0.315964
0.093443 0.094141 0.094777
0.151716 0.148983 0.148647
0.173284 0.173535 0.172566
0.267720 0.266395 0.266643
0.266623 0.265476 0.265475
0.174042 0.175383 0.177365
0.073183 0.073083 0.073898
0.071785 0.072279 0.071960
0.092356 0.091852 0.091970
0.071134 0.070820 0.071058
0.082678 0.082688 0.081941
0.101000 0.099915 0.099635
0.143805 0.143878 0.144305
0.108325 0.106559 0.106397
0.091499 0.091620 0.091694
0.336900 0.337504 0.337447
0.256919 0.254863 0.249597
0.215139 0.215989 0.213882
0.109785 0.109619 0.108891
0.078932 0.080230 0.081439
0.095497 0.095414 0.098260
0.152475 0.152555 0.151835
0.179006 0.180733 0.180827
0.106538 0.107007 0.106876
0.106600 0.105163 0.102825
0.116147 0.116333 0.117184
0.142049 0.141893 0.138432
0.168144 0.167555 0.166708
0.073301 0.073202 0.072969
0.107061 0.107291 0.107876
0.120364 0.120443 0.120215
0.234343 0.239026 0.239563
0.066000 0.066031 0.065635
0.102482 0.103413 0.102899
0.126049 0.126959 0.128270
0.106645 0.105993 0.106145
0.073009 0.072648 0.071848
0.143825 0.142488 0.142785
0.115698 0.116204 0.115865
0.280231 0.281634 0.279238
0.074933 0.075788 0.075666
0.110474 0.110769 0.110968
0.199904 0.197445 0.197600
0.127922 0.127615 0.125194
0.280921 0.281767 0.283913
0.076560 0.079794 0.079768
0.080177 0.079064 0.078495
0.112246 0.111330 0.110696
0.098309 0.097819 0.097026
0.125144 0.123501 0.123222
0.222655 0.223503 0.226295
0.099063 0.098233 0.104526
0.104721 0.104425 0.102067
0.193274 0.190747 0.190431
0.399810 0.399555 0.397425
0.175562 0.175418 0.175427
0.072288 0.071948 0.071054
0.095641 0.096140 0.095759
0.182756 0.183810 0.189738
0.173056 0.174805 0.175491
0.334642 0.333581 0.328628
0.255514 0.255499 0.254607
0.118135 0.121516 0.127718
0.077173 0.076844 0.077270
0.177925 0.176689 0.168695
0.181991 0.183654 0.183389
0.109850 0.110827 0.111698
0.083397 0.082841 0.082857
0.132776 0.132857 0.133268
0.109669 0.109638 0.109549
0.161372 0.160926 0.160920
0.210138 0.185944 0.191459
0.079327 0.081099 0.082572
0.090963 0.089728 0.088530
0.073353 0.072888 0.074319
0.212787 0.215061 0.215514
0.090550 0.090086 0.090495
0.311520 0.312075 0.312418
0.102582 0.102048 0.102399
0.067530 0.069634 0.070476
0.069835 0.069543 0.069488
0.280373 0.280112 0.279049
0.067227 0.067687 0.070025
0.257661 0.259586 0.263843
0.077213 0.077173 0.077186
0.069327 0.068638 0.068732
0.075272 0.076268 0.076659
0.082590 0.081950 0.080066
0.315714 0.311963 0.311657
0.115918 0.116037 0.116205
0.338949 0.338368 0.338776
0.067812 0.067646 0.068122
0.078729 0.080022 0.080895
0.118406 0.118585 0.118359
0.150580 0.150950 0.152085
0.075594 0.074919 0.074227
0.147833 0.147674 0.147970
0.262119 0.258484 0.255479
0.070747 0.071385 0.071999
0.118612 0.118159 0.117861
0.338808 0.338711 0.337243
0.231106 0.231975 0.238760
0.151108 0.150803 0.150547
0.093329 0.091869 0.092024
0.086386 0.086756 0.086924
0.228486 0.228481 0.228248
0.197514 0.197548 0.197868
0.115110 0.115054 0.115353
0.218604 0.218399 0.218467
0.066832 0.067219 0.068025
0.075892 0.074711 0.074219
0.147132 0.147761 0.148907
0.143961 0.144123 0.144362
0.239627 0.238980 0.238175
0.086123 0.084794 0.084379
0.137078 0.139326 0.139401
0.150609 0.150989 0.150951
0.121310 0.120411 0.120537
0.071122 0.071335 0.071240
0.074311 0.074456 0.073932
0.114806 0.114763 0.114300
0.119565 0.119974 0.119994
0.127116 0.126887 0.126814
0.337388 0.339349 0.339046
0.133858 0.133815 0.133458
0.071975 0.072375 0.072915
0.110304 0.110219 0.110171
0.086349 0.086970 0.086752
0.101791 0.100588 0.100750
0.135060 0.133638 0.132608
0.077180 0.077363 0.077288
0.260067 0.261459 0.261385
0.075534 0.075708 0.076033
0.163697 0.162847 0.160176
0.062228 0.062638 0.062485
0.112010 0.112567 0.112625
0.172246 0.171916 0.173836
0.307283 0.307608 0.308344
0.074583 0.077905 0.079079
0.062758 0.062639 0.061800
0.102953 0.103191 0.103164
0.233194 0.234770 0.234544
0.241838 0.243649 0.254913
0.073201 0.072513 0.070617
0.112552 0.112266 0.111264
0.091517 0.091427 0.090319
0.115138 0.115096 0.115023
0.110521 0.110898 0.111025
0.125669 0.126292 0.126913
0.102190 0.102667 0.102518
0.078602 0.079363 0.080606
0.110098 0.109887 0.109875
0.107073 0.107551 0.108757
0.235578 0.233172 0.232529
0.103582 0.104085 0.105654
0.156349 0.157104 0.160350
0.124755 0.124244 0.122930
0.062533 0.062577 0.061883
0.313427 0.314325 0.315042
0.066840 0.067060 0.067618
0.082462 0.082562 0.082218
0.249253 0.251663 0.252457
0.071888 0.071811 0.071482
0.083923 0.084531 0.084920
0.112377 0.111867 0.110015
0.077023 0.077633 0.076498
0.101128 0.086817 0.085920
0.075970 0.076495 0.076568
0.078047 0.077297 0.076383
0.280916 0.280440 0.280231
0.115105 0.115227 0.115825
0.104721 0.104725 0.106554
0.074569 0.074724 0.074361
0.117361 0.117483 0.118011
0.100487 0.100518 0.100120
0.078287 0.077471 0.078087
0.106698 0.106757 0.105774
0.113312 0.112792 0.112423
0.155095 0.155199 0.154819
0.073585 0.073282 0.073424
0.140729 0.140906 0.140583
0.061161 0.061573 0.061916
0.080425 0.080494 0.081189
0.071144 0.071775 0.071874
0.109153 0.108221 0.108512
0.072103 0.072479 0.071448
0.170382 0.171065 0.173056
0.070850 0.070915 0.071049
0.114821 0.113671 0.113599
0.195239 0.195167 0.192526
0.066409 0.066572 0.066641
0.167715 0.167424 0.166823
0.104762 0.105158 0.105048
0.115349 0.115110 0.115054
0.121074 0.121164 0.121437
0.236505 0.234742 0.237150
0.072842 0.072479 0.070208
0.290471 0.289567 0.291275
0.090963 0.090401 0.089488
0.077334 0.076991 0.077006
0.086470 0.086350 0.084724
0.086034 0.086292 0.086922
0.086957 0.087761 0.087769
0.077851 0.077457 0.077561
0.117214 0.117317 0.117381
0.066304 0.067015 0.067946
0.326457 0.324162 0.322848
0.242771 0.245105 0.245684
0.105629 0.105721 0.105130
0.180082 0.181562 0.183268
0.108742 0.108429 0.107695
0.144877 0.143776 0.143825
0.315684 0.315296 0.315226
0.355905 0.355640 0.353186
0.067026 0.067661 0.068010
0.170268 0.171525 0.182932
0.187062 0.187034 0.186934
0.074158 0.073782 0.074020
0.383944 0.375918 0.377431
0.223111 0.224520 0.227268
0.108760 0.109333 0.110055
0.296610 0.296022 0.293679
0.074858 0.074891 0.074983
0.085942 0.083622 0.083390
0.071754 0.073529 0.072851
0.087070 0.087122 0.087399
0.106800 0.107086 0.107145
0.078710 0.078544 0.081146
0.107649 0.107773 0.107517
0.069845 0.070271 0.070296
0.060551 0.061033 0.061414
0.371671 0.373766 0.372611
0.162665 0.162912 0.162806
0.115078 0.115987 0.116060
0.218234 0.218626 0.218395
0.075164 0.075230 0.076151
0.101866 0.101695 0.100846
0.271984 0.273867 0.282404
0.081393 0.081386 0.080149
0.270373 0.270040 0.268341
0.066083 0.066216 0.066429
0.297702 0.296638 0.295788
0.184910 0.185191 0.185051
0.107818 0.109537 0.109793
0.126709 0.126298 0.126723
0.119988 0.120161 0.119957
0.340210 0.338945 0.337495
0.127523 0.127447 0.128062
0.083087 0.082948 0.083206
0.069799 0.069632 0.069429
0.165300 0.165452 0.165204
0.143332 0.143984 0.144476
0.069116 0.067744 0.067481
0.157115 0.156232 0.155370
0.115126 0.113580 0.112249
0.155076 0.154546 0.152349
0.192143 0.192066 0.192270
0.143264 0.145583 0.145535
0.068876 0.068885 0.070933
0.238532 0.238454 0.237484
0.217944 0.217462 0.215962
0.076631 0.076257 0.076296
0.108104 0.107929 0.107275
0.076335 0.076652 0.076950
0.309256 0.313245 0.313246
0.191982 0.189811 0.187574
0.183632 0.187298 0.192117
0.114552 0.116182 0.116127
0.084037 0.084119 0.084942
0.161916 0.161133 0.160589
0.102280 0.102290 0.102648
0.149826 0.149784 0.149675
0.118599 0.118162 0.116614
0.188084 0.187468 0.190644
0.184695 0.184452 0.184578
0.094480 0.094614 0.094705
0.132488 0.131755 0.131476
0.177520 0.176894 0.177628
0.070279 0.070178 0.070161
0.147284 0.147076 0.145670
0.092297 0.092326 0.092255
0.107980 0.107964 0.108027
0.125661 0.126266 0.126449
0.144564 0.146042 0.145832
0.175824 0.177818 0.178446
0.065657 0.065629 0.065448
0.071663 0.071516 0.073242
0.140636 0.140447 0.141689
0.270174 0.269622 0.268462
0.078890 0.081328 0.081337
0.074821 0.074317 0.074329
0.063814 0.063952 0.063953
0.082393 0.082029 0.082354
0.160759 0.161123 0.160952
0.106248 0.106001 0.106666
0.078635 0.080127 0.080486
0.090370 0.087770 0.087614
0.297562 0.296478 0.295796
0.152426 0.152006 0.152031
0.174254 0.173706 0.177488
0.166628 0.168278 0.169308
0.117077 0.116843 0.117271
0.102813 0.103011 0.102951
0.089570 0.089400 0.089683
0.077250 0.077425 0.077534
0.094271 0.093903 0.094291
0.144089 0.144072 0.144839
0.259784 0.268129 0.269541
0.276327 0.275427 0.277365
0.073828 0.073525 0.073742
0.179786 0.180285 0.181184
0.186491 0.185617 0.183553
0.103299 0.103410 0.103311
0.145427 0.145846 0.146895
0.119087 0.117815 0.118715
0.148251 0.158723 0.161611
0.089683 0.090641 0.090916
0.163323 0.169654 0.170297
0.149134 0.148777 0.148838
0.107770 0.107128 0.106810
0.195472 0.194992 0.195160
0.271319 0.270053 0.270476
0.071147 0.070525 0.070691
0.230886 0.229947 0.230412
0.080237 0.079000 0.078728
0.072993 0.072669 0.074351
0.143930 0.143827 0.143351
0.099085 0.098893 0.098147
0.065706 0.065923 0.065993
0.327676 0.327833 0.327254
0.075193 0.075529 0.077122
0.191100 0.191307 0.191071
0.259661 0.259351 0.260060
0.072112 0.072247 0.072026
0.107442 0.109120 0.110318
0.082271 0.082152 0.082859
0.074574 0.074651 0.074342
0.105777 0.106287 0.106601
0.171078 0.171230 0.171651
0.198860 0.198454 0.195654
0.165468 0.165752 0.168503
0.081044 0.080630 0.079674
0.115339 0.115524 0.117682
0.168414 0.168409 0.168771
0.284024 0.284434 0.287196
0.115270 0.115107 0.115140
0.080571 0.080624 0.079804
0.061955 0.064176 0.064167
0.098820 0.100062 0.100589
0.256087 0.255701 0.260648
0.214111 0.213846 0.212883
0.256154 0.261836 0.263218
0.302406 0.301599 0.301173
0.080691 0.082473 0.084824
0.325295 0.327433 0.340354
0.149893 0.149146 0.149811
0.109108 0.108426 0.108134
0.103589 0.103742 0.102821
0.095062 0.095801 0.096693
0.149664 0.149376 0.148710
0.073567 0.073487 0.073395
0.092314 0.091269 0.090894
0.082707 0.082679 0.081857
0.169683 0.169121 0.168435
0.073431 0.073335 0.073468
0.094048 0.093686 0.092973
0.105015 0.104979 0.105256
0.173087 0.173637 0.172998
0.165439 0.166726 0.167214
0.105801 0.105137 0.104797
0.234180 0.233813 0.232901
0.116170 0.117087 0.117363
0.164009 0.164348 0.165734
0.071844 0.072701 0.072892
0.232771 0.233409 0.234076
0.299377 0.299139 0.295252
0.107862 0.107934 0.108422
0.109881 0.112727 0.111407
0.109175 0.102736 0.101557
0.236571 0.232546 0.237082
0.082773 0.084353 0.084841
0.108334 0.108238 0.108750
0.070692 0.070942 0.070895
0.124528 0.124589 0.123515
0.190116 0.190855 0.188928
0.081677 0.081501 0.080929
0.253450 0.250067 0.249193
0.101924 0.101493 0.102783
0.087161 0.086896 0.086530
0.096085 0.096257 0.096038
0.216502 0.216182 0.216537
0.074179 0.074191 0.074659
0.233791 0.233710 0.237713
0.190393 0.190295 0.189455
0.284415 0.285005 0.286951
0.101710 0.102169 0.102551
0.235326 0.235378 0.235447
0.153474 0.152245 0.151914
0.076344 0.076001 0.076546
0.227829 0.231872 0.235422
0.128902 0.126846 0.126471
0.071199 0.072305 0.073131
0.112551 0.112502 0.111325
0.234733 0.235020 0.235018
0.085958 0.083839 0.083354
0.113845 0.113097 0.113329
0.133376 0.133691 0.134666
0.181166 0.181468 0.182486
0.082873 0.081711 0.081265
0.112528 0.109954 0.109977
0.102477 0.102101 0.101545
0.078590 0.078300 0.078039
0.098710 0.098444 0.097025
0.095411 0.096181 0.096959
0.113090 0.112914 0.111164
0.086553 0.086979 0.086765
0.127078 0.128303 0.132533
0.071611 0.071473 0.070762
0.114316 0.114862 0.115969
0.251873 0.247861 0.245509
0.118912 0.119087 0.117815
0.099798 0.099901 0.101109
0.263072 0.255646 0.253973
0.114468 0.116000 0.117002
0.066550 0.065993 0.065979
0.178057 0.180976 0.181295
0.115128 0.116171 0.118923
0.249921 0.247615 0.249152
0.072790 0.070380 0.069871
0.093993 0.093171 0.092329
0.111325 0.109791 0.110733
0.083067 0.082362 0.085118
0.104528 0.104176 0.104388
0.079116 0.079750 0.080231
0.077354 0.077293 0.076510
0.102379 0.102204 0.102086
0.235287 0.233372 0.230669
0.115540 0.115633 0.117036
0.082427 0.082196 0.082387
0.154905 0.155305 0.155007
0.168966 0.170070 0.169563
0.096738 0.096197 0.095940
0.091924 0.091989 0.092068
0.107627 0.108765 0.109313
0.104249 0.101123 0.099971
0.228398 0.226961 0.226212
0.263211 0.263293 0.261165
0.229663 0.230702 0.230349
0.298851 0.298197 0.298405
0.249128 0.248988 0.249046
0.140891 0.140955 0.141603
0.098602 0.098626 0.097327
0.110731 0.111501 0.111942
0.078134 0.078054 0.077866
0.077189 0.077178 0.077074
0.233710 0.237713 0.239020
0.372611 0.369944 0.369665
0.090258 0.090299 0.090365
0.253788 0.253584 0.252778
0.136516 0.136101 0.135989
0.067807 0.068241 0.067867
0.313457 0.314193 0.312352
0.180138 0.180683 0.180429
0.327378 0.326920 0.316805
0.077393 0.077213 0.077173
0.105908 0.105534 0.105927
0.188878 0.188286 0.185013
0.169104 0.168471 0.170387
0.252515 0.248490 0.249206
0.107679 0.109222 0.109772
0.085272 0.086111 0.086420
0.103907 0.103795 0.103708
0.077666 0.077228 0.077488
0.152079 0.151716 0.151565
0.092051 0.091962 0.091903
0.103145 0.103664 0.104041
0.092585 0.092161 0.091130
0.107257 0.107152 0.107232
0.187646 0.188646 0.189735
0.084489 0.083960 0.085711
0.083132 0.082599 0.082243
0.093805 0.093306 0.093931
0.089006 0.088859 0.088590
0.091776 0.091689 0.092362
0.172328 0.172216 0.172617
0.080976 0.081161 0.080753
0.103740 0.104364 0.104181
0.100393 0.100333 0.100524
0.105909 0.106492 0.106551
0.176414 0.175951 0.175921
0.081463 0.081068 0.081116
0.089471 0.091522 0.091463
0.224912 0.223165 0.219679
0.068652 0.068661 0.068703
0.148274 0.148282 0.148190
0.148942 0.147990 0.147346
0.102728 0.102461 0.103245
0.174858 0.175912 0.176385
0.173517 0.173284 0.173535
0.080215 0.079325 0.078931
0.275427 0.277365 0.277323
0.215589 0.217136 0.219585
0.270749 0.260349 0.262808
0.100731 0.100742 0.100661
0.116151 0.116255 0.116431
0.087047 0.086360 0.086087
0.077690 0.076948 0.075675
0.255646 0.253973 0.253788
0.111019 0.111074 0.111173
0.076207 0.077419 0.077969
0.235459 0.234814 0.234222
0.126054 0.126421 0.126602
0.106431 0.106760 0.107101
0.207396 0.206441 0.206211
0.337504 0.337447 0.340553
0.112681 0.111996 0.111374
0.069616 0.069488 0.069616
0.263364 0.262624 0.259861
0.147251 0.147327 0.147183
0.173239 0.173578 0.174547
0.146065 0.145841 0.145706
0.105182 0.104784 0.105212
0.110307 0.108177 0.107969
0.131074 0.133243 0.135745
0.076959 0.076390 0.076123
0.064492 0.064581 0.064549
0.144791 0.145171 0.145871
0.180427 0.179162 0.178823
0.088322 0.087820 0.086953
0.204641 0.206992 0.207026
0.192282 0.193527 0.194383
0.069579 0.068530 0.068640
0.077415 0.077032 0.077272
0.268033 0.268896 0.270845
0.076647 0.076658 0.076378
0.109316 0.107928 0.108262
0.233611 0.234988 0.234343
0.140162 0.139282 0.138693
0.185015 0.185599 0.184085
0.234711 0.236922 0.258515
0.149818 0.149796 0.149593
0.307384 0.307601 0.308707
0.217171 0.215381 0.214989
0.098423 0.099478 0.099795
0.309248 0.307678 0.306799
0.105684 0.105827 0.106416
0.109532 0.110955 0.111024
0.230514 0.234203 0.234412
0.211198 0.212880 0.216185
0.168510 0.168414 0.168409
0.318451 0.327425 0.330450
0.117347 0.117741 0.118090
0.180824 0.179653 0.179309
0.178878 0.178038 0.178175
0.071787 0.072089 0.072449
0.100260 0.099981 0.100274
0.070708 0.068596 0.067970
0.178004 0.179055 0.179301
0.108342 0.108477 0.106747
0.112108 0.112040 0.111695
0.120178 0.120112 0.119647
0.102200 0.102624 0.103041
0.169201 0.168994 0.168805
0.072700 0.070850 0.070915
0.211920 0.212203 0.212061
0.102012 0.101567 0.101011
0.131267 0.130792 0.128037
0.072749 0.073089 0.073489
0.268000 0.268648 0.274976
0.149228 0.149379 0.149425
0.248020 0.247614 0.247934
0.149080 0.147706 0.147595
0.356334 0.360065 0.360617
0.142887 0.142584 0.143547
0.102899 0.102758 0.102579
0.179816 0.179843 0.180711
0.069161 0.069297 0.069629
0.184142 0.182932 0.175176
0.074645 0.074542 0.073404
0.072928 0.072458 0.072358
0.245028 0.260067 0.261459
0.111397 0.116352 0.116814
0.119659 0.121099 0.122126
0.160531 0.162739 0.162830
0.167717 0.167428 0.167321
0.278035 0.281146 0.280997
0.134019 0.133043 0.133188
0.292357 0.292136 0.293303
0.119563 0.119977 0.119943
0.212158 0.215637 0.218557
0.072663 0.072661 0.074471
0.189692 0.190127 0.189776
0.242474 0.242940 0.243695
0.268796 0.267988 0.267998
0.174844 0.176689 0.176617
0.260353 0.254872 0.255047
0.157216 0.156048 0.155729
0.108146 0.108429 0.108173
0.138227 0.138842 0.140246
0.112601 0.111332 0.109485
0.080770 0.080570 0.080115
0.177257 0.177850 0.177872
0.073825 0.074148 0.075484
0.100539 0.096797 0.096350
0.096089 0.096105 0.095952
0.108035 0.108682 0.110280
0.145760 0.145446 0.143821
0.104879 0.103253 0.102352
0.083689 0.083002 0.083152
0.082402 0.082248 0.082655
0.184960 0.200763 0.202427
0.083853 0.084838 0.085507
0.247861 0.245509 0.245283
0.098941 0.098730 0.098793
0.238024 0.236707 0.235248
0.104302 0.105178 0.105321
0.078533 0.079538 0.084133
0.081140 0.079708 0.077607
0.068721 0.068715 0.068797
0.303041 0.302989 0.303134
0.078171 0.078674 0.078747
0.083053 0.082546 0.082465
0.080116 0.080199 0.080564
0.104107 0.103739 0.105326
0.253449 0.253248 0.253253
0.074646 0.074423 0.074578
0.235248 0.234860 0.234255
0.077885 0.077274 0.077084
0.065799 0.065768 0.065868
0.078600 0.079432 0.079654
0.087349 0.087579 0.087812
0.063822 0.064052 0.063474
0.224976 0.224754 0.223791
0.104244 0.103724 0.107772
0.071278 0.071246 0.071144
0.098395 0.098420 0.098820
0.084402 0.083901 0.085537
0.073931 0.074082 0.074553
0.198808 0.198813 0.198923
0.200485 0.197948 0.197480
0.144473 0.144269 0.144367
0.101215 0.101122 0.101959
0.125037 0.125570 0.126083
0.142750 0.141853 0.138960
0.117290 0.116939 0.114842
0.246343 0.246221 0.245467
0.168994 0.168326 0.170066
0.260626 0.258592 0.257814
0.113987 0.115535 0.115803
0.080204 0.080409 0.080818
0.123681 0.123106 0.123033
0.105076 0.104993 0.106149
0.103637 0.102957 0.103582
0.095725 0.095472 0.095390
0.083078 0.082361 0.082559
0.178440 0.179244 0.179283
0.250505 0.251973 0.252940
0.099699 0.101266 0.102187
0.069338 0.068877 0.069111
0.102124 0.102552 0.099176
0.168749 0.170163 0.176094
0.106898 0.105943 0.105705
0.091804 0.091211 0.089008
0.078152 0.078581 0.078583
0.074028 0.073328 0.073100
0.103708 0.103054 0.101727
0.267483 0.267324 0.267514
0.148383 0.150357 0.151103
0.140168 0.142356 0.141040
0.208479 0.205853 0.205494
0.116000 0.117002 0.119492
0.068480 0.068505 0.068385
0.072501 0.072172 0.071868
0.299904 0.296367 0.301282
0.098201 0.098165 0.098050
0.176493 0.169334 0.168448
0.181869 0.181754 0.179915
0.072391 0.071913 0.071973
0.262847 0.262612 0.260562
0.116141 0.115944 0.116037
0.079785 0.079901 0.080032
0.079544 0.079887 0.079708
0.180213 0.179694 0.180416
0.060796 0.060801 0.060800
0.084278 0.084303 0.084479
0.101738 0.101944 0.101933
0.073102 0.073495 0.073505
0.168711 0.168234 0.166471
0.125198 0.124626 0.124760
0.095097 0.094314 0.094023
0.166207 0.163916 0.164397
0.283037 0.284771 0.286376
0.114303 0.114787 0.115279
0.179406 0.176076 0.175465
0.085018 0.084212 0.083465
0.169730 0.169963 0.171488
0.260763 0.263234 0.261097
0.202944 0.200479 0.201613
0.135074 0.135210 0.134788
0.292398 0.291373 0.290570
0.143070 0.142648 0.139373
0.060850 0.061386 0.062213
0.109701 0.109823 0.111314
0.077194 0.076520 0.076242
0.108042 0.108090 0.108146
0.247330 0.248141 0.248000
0.109354 0.109608 0.109628
0.168262 0.168748 0.172827
0.198893 0.199188 0.199227
0.170530 0.170881 0.170959
0.167610 0.166714 0.165920
0.259707 0.259532 0.260871
0.177371 0.177520 0.176894
0.246408 0.250394 0.251969
0.114123 0.114020 0.113070
0.180429 0.180369 0.180206
0.273482 0.272904 0.272173
0.257428 0.256961 0.256688
0.094587 0.093831 0.094161
0.091323 0.091629 0.091820
0.076590 0.075980 0.076759
0.180619 0.180265 0.181760
0.067038 0.067174 0.068499
0.100838 0.099588 0.099144
0.180641 0.180308 0.180241
0.180862 0.184072 0.187411
0.276663 0.277936 0.277410
0.161109 0.161860 0.166209
0.078084 0.078891 0.079406
0.133188 0.133252 0.135040
0.083608 0.083588 0.083285
0.172801 0.172563 0.171884
0.124248 0.119478 0.118862
0.086652 0.089490 0.090172
0.086581 0.088376 0.089153
0.080820 0.079789 0.079733
0.242586 0.247295 0.248098
0.340914 0.335726 0.337844
0.093024 0.093136 0.093248
0.099635 0.099115 0.098714
0.284950 0.278882 0.278065
0.073534 0.073838 0.073921
0.173549 0.173087 0.173637
0.150985 0.151736 0.152374
0.067716 0.067671 0.066027
0.078556 0.078538 0.078533
0.143648 0.138983 0.136908
0.290862 0.289052 0.287501
0.109226 0.109355 0.109339
0.102290 0.102648 0.101980
0.079866 0.080355 0.080725
0.119196 0.117864 0.114855
0.245185 0.235775 0.236718
0.070373 0.070267 0.070429
0.099527 0.099369 0.098952
0.153847 0.153607 0.152903
0.188733 0.192876 0.194015
0.110321 0.110065 0.107723
0.132025 0.130994 0.130821
0.162115 0.162546 0.162330
0.172782 0.173448 0.176440
0.295279 0.295790 0.296784
0.267137 0.267282 0.266950
0.104829 0.104549 0.104698
0.090621 0.090326 0.089503
0.077971 0.079901 0.080172
0.107405 0.108225 0.108319
0.155208 0.153228 0.154264
0.105774 0.105416 0.105473
0.111407 0.109344 0.109440
0.150999 0.148288 0.152153
0.193295 0.192699 0.191467
0.148347 0.151283 0.151067
0.080929 0.080657 0.080321
0.079052 0.079372 0.079379
0.099705 0.100161 0.100014
0.077547 0.076953 0.077043
0.076976 0.076765 0.077323
0.362490 0.360758 0.361632
0.286358 0.286918 0.285464
0.093709 0.092818 0.092091
0.282994 0.282945 0.281110
0.071356 0.071346 0.071829
0.069860 0.069076 0.069591
0.108728 0.108131 0.108258
0.079856 0.079478 0.079277
0.116036 0.118965 0.118886
0.262883 0.262525 0.258671
0.074620 0.074604 0.073258
0.105873 0.106494 0.106704
0.150975 0.150585 0.150757
0.099488 0.099198 0.099459
0.092647 0.093463 0.094482
0.188006 0.186678 0.186889
0.086721 0.086867 0.087171
0.170304 0.170272 0.169949
0.223795 0.224239 0.225886
0.224967 0.219187 0.220492
0.109600 0.110782 0.110219
0.088655 0.088953 0.092820
0.290650 0.286935 0.269654
0.176234 0.168764 0.168170
0.090713 0.090026 0.090952
0.107145 0.107256 0.106933
0.108300 0.110484 0.109031
0.308428 0.308268 0.305123
0.084826 0.084694 0.084354
0.094575 0.096109 0.096094
0.072514 0.072513 0.072480
0.229526 0.229681 0.233245
0.086306 0.086726 0.087305
0.076140 0.075743 0.076034
0.083273 0.084777 0.090865
0.230806 0.231200 0.231946
0.195057 0.194906 0.198192
0.244774 0.245132 0.244496
0.142150 0.141840 0.142573
0.072437 0.071751 0.072326
0.111879 0.113008 0.113147
0.112110 0.103469 0.103618
0.117155 0.117171 0.117290
0.161202 0.161144 0.161252
0.232860 0.233477 0.233163
0.151138 0.150960 0.154684
0.065908 0.065254 0.065101
0.099918 0.099419 0.098326
0.078599 0.078130 0.078035
0.108029 0.106350 0.105723
0.103345 0.103327 0.103399
0.070620 0.070200 0.070255
0.107117 0.107608 0.108660
0.159009 0.159196 0.155819
