0.107993 0.107967 0.108099
0.122436 0.122497 0.124985
0.110681 0.110920 0.111000
0.078687 0.078516 0.078529
0.070044 0.069739 0.071123
0.112023 0.111327 0.110977
0.075909 0.076011 0.075982
0.113532 0.113184 0.112035
0.094509 0.094420 0.094028
0.112741 0.112624 0.112956
0.077710 0.078908 0.079353
0.074451 0.073210 0.072435
0.187807 0.187442 0.186459
0.092494 0.092498 0.092367
0.063468 0.061641 0.061541
0.108573 0.110012 0.110090
0.107576 0.110037 0.110591
0.114009 0.114031 0.113283
0.066254 0.066277 0.065426
0.103519 0.101570 0.101118
0.095954 0.095845 0.095553
0.072292 0.072965 0.073156
0.137284 0.137074 0.137516
0.105817 0.106156 0.106006
0.106550 0.106734 0.109049
0.120240 0.115616 0.114675
0.104448 0.104234 0.103899
0.101601 0.102190 0.102309
0.083406 0.083610 0.082652
0.062095 0.063220 0.063379
0.169120 0.167547 0.162995
0.067081 0.067064 0.067083
0.077852 0.077752 0.077141
0.114326 0.113916 0.114073
0.089658 0.089553 0.089612
0.099983 0.099611 0.099317
0.123586 0.124019 0.124177
0.121892 0.123423 0.123316
0.135569 0.136438 0.137306
0.063483 0.063347 0.063245
0.054790 0.054454 0.054698
0.084252 0.082768 0.082352
0.081039 0.081129 0.081219
0.095518 0.095618 0.096206
0.089593 0.089971 0.090001
0.078806 0.078299 0.066175
0.049657 0.049218 0.048584
0.082134 0.080988 0.081312
0.070788 0.071548 0.073443
0.088514 0.087246 0.085814
0.110845 0.111226 0.111280
0.048529 0.048326 0.048298
0.139023 0.136992 0.134008
0.136704 0.137178 0.137135
0.078773 0.079349 0.079407
0.103754 0.103759 0.103796
0.076766 0.076259 0.076101
0.079107 0.079888 0.079652
0.096424 0.096512 0.096587
0.081146 0.081149 0.081185
0.102985 0.101308 0.099829
0.149783 0.150299 0.148082
0.106402 0.106314 0.105727
0.149296 0.149255 0.149709
0.126428 0.125585 0.125722
0.109724 0.109114 0.107987
0.076180 0.076566 0.076608
0.109319 0.108944 0.109152
0.114924 0.114849 0.114642
0.090701 0.092725 0.097042
0.060211 0.059325 0.059453
0.082120 0.082186 0.082429
0.111089 0.111453 0.111895
0.101074 0.101189 0.101190
0.061627 0.061330 0.061332
0.117868 0.118470 0.119480
0.111759 0.112108 0.112068
0.111879 0.111881 0.111422
0.066146 0.066310 0.066085
0.132067 0.132495 0.131747
0.095882 0.095130 0.095044
0.177507 0.177658 0.177203
0.074567 0.074636 0.074338
0.092579 0.092146 0.091480
0.118393 0.117643 0.116552
0.097893 0.096143 0.094654
0.075450 0.075541 0.075615
0.114188 0.114742 0.114537
0.147322 0.146151 0.146502
0.122948 0.122707 0.122445
0.080487 0.079940 0.079916
0.075682 0.075144 0.074827
0.126684 0.128802 0.129687
0.080670 0.080611 0.080665
0.083967 0.084524 0.084832
0.108798 0.109082 0.108891
0.109246 0.109572 0.109504
0.112074 0.113168 0.116915
0.092309 0.092398 0.092715
0.113711 0.113948 0.115415
0.107321 0.105882 0.105898
0.111157 0.112216 0.112851
0.094028 0.093938 0.094460
0.079766 0.080547 0.081008
0.117037 0.109341 0.108392
0.141633 0.140318 0.140731
0.086900 0.086918 0.086921
0.095897 0.096253 0.096396
0.169917 0.169811 0.169828
0.105164 0.105517 0.109422
0.120340 0.123743 0.124711
0.071749 0.071571 0.071279
0.069549 0.069012 0.068906
0.095466 0.098074 0.097022
0.073435 0.072706 0.073428
0.082237 0.077213 0.076780
0.118597 0.118004 0.118158
0.076270 0.077099 0.076944
0.071895 0.071871 0.071773
0.145212 0.145534 0.145320
0.077673 0.077824 0.077897
0.075139 0.075272 0.075140
0.164058 0.163696 0.163965
0.081466 0.081348 0.080991
0.058377 0.058491 0.059170
0.069658 0.069500 0.069515
0.137996 0.141354 0.139974
0.148409 0.147192 0.147196
0.109581 0.109407 0.109709
0.094882 0.094822 0.096226
0.104091 0.104216 0.104321
0.116785 0.120369 0.120725
0.052894 0.052693 0.052773
0.069773 0.067906 0.067935
0.111763 0.111019 0.109970
0.134774 0.133916 0.131242
0.099754 0.099793 0.100219
0.106855 0.107292 0.109644
0.109838 0.109993 0.109967
0.120180 0.120615 0.120804
0.139736 0.139799 0.137386
0.128858 0.129466 0.128519
0.052509 0.052273 0.052048
0.100953 0.101229 0.101290
0.072357 0.072156 0.072223
0.096134 0.096034 0.095927
0.120458 0.120510 0.120615
0.086962 0.087049 0.087360
0.107400 0.107389 0.107115
0.096512 0.096786 0.095921
0.090713 0.090262 0.090458
0.142261 0.142136 0.142012
0.117557 0.117194 0.117451
0.087849 0.087706 0.087756
0.060219 0.060003 0.059602
0.070965 0.071372 0.071275
0.067928 0.067932 0.067865
0.125533 0.125024 0.126373
0.075163 0.075116 0.075369
0.129918 0.130201 0.131880
0.103782 0.103229 0.103229
0.082777 0.083662 0.084230
0.100345 0.099030 0.099390
0.093992 0.093376 0.092437
0.143522 0.144684 0.145487
0.082309 0.082323 0.082291
0.099106 0.099512 0.100662
0.200072 0.200068 0.200287
0.142670 0.143477 0.145138
0.122672 0.122233 0.122738
0.068221 0.068440 0.068826
0.093651 0.094037 0.093781
0.072892 0.073074 0.073161
0.074384 0.074240 0.075054
0.121424 0.122545 0.125559
0.129407 0.130455 0.130218
0.063220 0.063379 0.062915
0.147160 0.147053 0.147266
0.109940 0.109516 0.108409
0.071974 0.072270 0.072273
0.074273 0.074714 0.075488
0.122029 0.120574 0.120597
0.067998 0.067916 0.067520
0.059881 0.059753 0.058908
0.055881 0.055596 0.053551
0.127816 0.127630 0.126605
0.131772 0.132104 0.132017
0.127913 0.127691 0.130530
0.162126 0.164894 0.167030
0.077787 0.078343 0.078374
0.122999 0.123388 0.123337
0.117957 0.118269 0.118223
0.082788 0.083450 0.083748
0.119824 0.120414 0.120548
0.075474 0.075154 0.074731
0.088552 0.087615 0.087671
0.095149 0.094126 0.093724
0.095753 0.095782 0.095928
0.077290 0.077256 0.077214
0.048980 0.048281 0.047914
0.123949 0.123651 0.123174
0.111455 0.111142 0.111259
0.148673 0.147521 0.150268
0.125715 0.125552 0.124680
0.131995 0.132358 0.131084
0.101390 0.101725 0.102220
0.140347 0.140769 0.140913
0.114015 0.114037 0.115199
0.135786 0.135339 0.135258
0.100051 0.100035 0.100224
0.060004 0.060072 0.060289
0.114174 0.113951 0.113506
0.077057 0.076870 0.073197
0.107335 0.108046 0.108049
0.090319 0.090652 0.090390
0.082581 0.082596 0.082248
0.078329 0.077855 0.078103
0.047355 0.047749 0.047643
0.097129 0.097050 0.096951
0.053290 0.054148 0.054296
0.145835 0.142656 0.137886
0.079535 0.080427 0.082059
0.090182 0.089402 0.089536
0.101170 0.101859 0.102406
0.096456 0.096858 0.097596
0.077554 0.077481 0.076807
0.089096 0.089295 0.089790
0.096235 0.096341 0.096307
0.127719 0.126605 0.125768
0.082912 0.082991 0.082594
0.159759 0.158759 0.162035
0.094555 0.094385 0.094103
0.111267 0.115392 0.115244
0.105303 0.107330 0.107513
0.115136 0.115080 0.115220
0.106623 0.106418 0.107956
0.101948 0.100226 0.101703
0.051135 0.051271 0.050202
0.128257 0.128150 0.128185
0.081206 0.082095 0.083944
0.071902 0.071834 0.071754
0.168792 0.168166 0.168173
0.087127 0.087849 0.087706
0.080222 0.079955 0.079868
0.118683 0.118388 0.112482
0.182001 0.194487 0.195295
0.085632 0.088623 0.088542
0.073899 0.074920 0.075177
0.120338 0.122922 0.124621
0.076095 0.076394 0.076385
0.085154 0.084899 0.084288
0.069521 0.070099 0.070176
0.051692 0.051893 0.051949
0.073428 0.077733 0.078719
0.117187 0.120010 0.119743
0.109226 0.109511 0.108416
0.097519 0.097430 0.097718
0.143520 0.144390 0.145053
0.096239 0.100683 0.103156
0.080745 0.080627 0.079797
0.074731 0.074824 0.076180
0.081272 0.082517 0.083468
0.134120 0.133818 0.133994
0.110222 0.109903 0.110129
0.087816 0.089878 0.088963
0.198235 0.198430 0.198952
0.109032 0.108464 0.108715
0.096312 0.096174 0.096080
0.091303 0.089476 0.093754
0.077197 0.077266 0.077364
0.096547 0.096581 0.099081
0.102508 0.102654 0.103267
0.062946 0.062791 0.062673
0.111560 0.111249 0.111485
0.177714 0.176566 0.175045
0.092934 0.093440 0.093874
0.103455 0.102250 0.102039
0.072534 0.072392 0.072938
0.112278 0.113104 0.113054
0.132454 0.132962 0.133121
0.069344 0.072072 0.072280
0.095531 0.095543 0.095748
0.065454 0.065889 0.065831
0.160947 0.160533 0.160574
0.112790 0.112703 0.112351
0.075941 0.076998 0.077523
0.137508 0.135903 0.135146
0.099175 0.098612 0.098269
0.096846 0.096769 0.097150
0.100947 0.098717 0.096716
0.102826 0.102998 0.102678
0.071379 0.071345 0.069132
0.053252 0.053290 0.054148
0.096226 0.095859 0.094124
0.117439 0.117765 0.118709
0.073943 0.073626 0.072131
0.092164 0.091705 0.091436
0.099448 0.099467 0.100994
0.096079 0.096042 0.095931
0.112063 0.112041 0.111656
0.090104 0.088346 0.088239
0.147912 0.148170 0.148980
0.141249 0.144335 0.144711
0.146301 0.147480 0.146151
0.144603 0.145669 0.146292
0.089818 0.089597 0.088499
0.070541 0.070969 0.073478
0.113967 0.113532 0.113184
0.083966 0.084350 0.084978
0.173832 0.172396 0.166893
0.112272 0.111838 0.110802
0.107802 0.107674 0.105651
0.136772 0.135441 0.140661
0.133104 0.133572 0.133923
0.162644 0.163124 0.163376
0.082186 0.082429 0.082597
0.067767 0.067274 0.066710
0.103844 0.104744 0.106268
0.094698 0.094284 0.094008
0.104910 0.104213 0.103431
0.061812 0.061679 0.061627
0.067131 0.066827 0.066305
0.093635 0.092664 0.092606
0.131531 0.130897 0.126512
0.061086 0.061188 0.061298
0.107593 0.109107 0.109127
0.064288 0.062116 0.061583
0.098691 0.098902 0.101525
0.119005 0.118391 0.117599
0.123427 0.123641 0.122243
0.098754 0.099412 0.099619
0.067500 0.067493 0.067452
0.101748 0.101056 0.101026
0.099602 0.099137 0.098535
0.051432 0.051261 0.050562
0.108762 0.108433 0.106254
0.113330 0.113050 0.113259
0.115222 0.115341 0.115803
0.137702 0.137573 0.137001
0.094642 0.094537 0.094376
0.099826 0.098762 0.098031
0.066278 0.066254 0.066277
0.056881 0.056937 0.056841
0.113540 0.112137 0.112214
0.101672 0.101633 0.101460
0.111988 0.108468 0.107961
0.122419 0.123720 0.124993
0.086457 0.086594 0.086763
0.119227 0.118761 0.118354
0.054454 0.054698 0.054731
0.165457 0.135893 0.117605
0.166365 0.166751 0.167570
0.107914 0.108113 0.108769
0.094798 0.094926 0.095789
0.101650 0.101665 0.101614
0.113226 0.114628 0.114514
0.070924 0.070693 0.070530
0.110729 0.112543 0.112701
0.063533 0.065127 0.065164
0.110052 0.109833 0.109551
0.173241 0.174096 0.173580
0.058608 0.059223 0.058702
0.095859 0.094124 0.093771
0.098041 0.098309 0.098113
0.135044 0.134776 0.138140
0.102863 0.103862 0.102108
0.075807 0.075955 0.076206
0.052896 0.053083 0.052707
0.115888 0.116845 0.116240
0.063136 0.063026 0.062403
0.104975 0.104948 0.104758
0.082244 0.079010 0.078473
0.083173 0.083616 0.083588
0.089545 0.089589 0.089848
0.091517 0.091412 0.091474
0.114066 0.114005 0.113540
0.058482 0.058557 0.058461
0.133577 0.130092 0.130273
0.125332 0.122020 0.120171
0.149015 0.149043 0.148972
0.089431 0.089032 0.088616
0.061113 0.061098 0.060833
0.122908 0.122168 0.121101
0.096992 0.097190 0.097042
0.094499 0.095069 0.096770
0.073774 0.073148 0.073131
0.110807 0.105422 0.104176
0.053112 0.052968 0.052990
0.201285 0.201627 0.201888
0.088451 0.089982 0.090462
0.106834 0.105746 0.105550
0.094460 0.094655 0.094603
0.101854 0.101841 0.101771
0.095760 0.095815 0.095853
0.065643 0.066161 0.066212
0.047980 0.047817 0.047715
0.077039 0.076835 0.076805
0.100860 0.100511 0.099964
0.098579 0.096586 0.092099
0.078859 0.079161 0.079318
0.065918 0.065995 0.065927
0.064980 0.064395 0.064135
0.142261 0.142029 0.142006
0.143073 0.143411 0.143945
0.059011 0.058726 0.057835
0.111937 0.111902 0.111760
0.132250 0.132724 0.132080
0.115983 0.115797 0.116503
0.114759 0.114578 0.114634
0.101896 0.101686 0.102514
0.116067 0.111009 0.110814
0.080175 0.080151 0.080149
0.082598 0.082787 0.083188
0.104686 0.103102 0.103001
0.093636 0.093668 0.093618
0.196868 0.197933 0.198167
0.075067 0.074884 0.074618
0.101653 0.101523 0.101440
0.067694 0.067827 0.068200
0.126208 0.125716 0.126443
0.093130 0.093159 0.093280
0.116638 0.116971 0.117022
0.146389 0.147204 0.147312
0.097142 0.096760 0.094365
0.098170 0.098140 0.097897
0.112850 0.112722 0.112834
0.077884 0.078275 0.078344
0.129033 0.128804 0.129046
0.069779 0.070275 0.071207
0.061364 0.061216 0.061601
0.103875 0.103439 0.103726
0.114694 0.114712 0.114267
0.093765 0.094444 0.095024
0.096077 0.095767 0.095907
0.076130 0.075984 0.076355
0.077652 0.077461 0.075274
0.063032 0.062923 0.063295
0.080303 0.080420 0.080961
0.099095 0.096992 0.096764
0.105964 0.104223 0.104047
0.079299 0.078170 0.078946
0.078097 0.078737 0.079180
0.114990 0.114027 0.114174
0.107316 0.107120 0.106601
0.108797 0.108004 0.104776
0.100021 0.099678 0.100014
0.056811 0.056714 0.056666
0.063631 0.063642 0.063410
0.080032 0.077870 0.077970
0.110814 0.110131 0.109858
0.099964 0.099615 0.099225
0.078553 0.078123 0.075020
0.052470 0.052938 0.052971
0.099716 0.099719 0.099971
0.103341 0.103562 0.103368
0.081412 0.081507 0.081559
0.068632 0.069999 0.070498
0.138370 0.136475 0.137622
0.097021 0.096745 0.096325
0.158743 0.159458 0.159785
0.080881 0.081228 0.080862
0.178437 0.181650 0.182759
0.094471 0.094657 0.095332
0.088988 0.088817 0.087693
0.069069 0.069171 0.069717
0.085226 0.084957 0.084642
0.086922 0.086481 0.083723
0.091616 0.091544 0.090905
0.069928 0.070977 0.072890
0.073840 0.073866 0.073932
0.091669 0.091720 0.091643
0.102881 0.102549 0.102581
0.127653 0.127766 0.127445
0.059839 0.059806 0.059843
0.115930 0.115832 0.115147
0.080205 0.079750 0.079880
0.075238 0.075385 0.075748
0.095755 0.095319 0.095782
0.145921 0.146393 0.147322
0.094959 0.095421 0.097250
0.066246 0.066278 0.066254
0.096784 0.095897 0.095002
0.126657 0.125623 0.125003
0.079748 0.079658 0.079970
0.089032 0.088616 0.087474
0.091903 0.091350 0.090994
0.117521 0.117554 0.112380
0.096785 0.096391 0.096202
0.128187 0.127840 0.127844
0.138471 0.137185 0.136461
0.078709 0.077877 0.077596
0.089607 0.089502 0.089266
0.120048 0.120247 0.121249
0.097395 0.098593 0.098704
0.103896 0.104923 0.104915
0.100716 0.100015 0.100157
0.078893 0.078033 0.078528
0.089233 0.089321 0.089024
0.109181 0.109245 0.109303
0.096583 0.096424 0.096512
0.112716 0.112768 0.112572
0.132950 0.132681 0.131988
0.091436 0.091226 0.091284
0.080331 0.079076 0.077686
0.124519 0.124938 0.124997
0.096380 0.096460 0.096406
0.071352 0.071696 0.072214
0.057415 0.057240 0.057202
0.160425 0.160693 0.159928
0.114075 0.115171 0.115293
0.096226 0.095796 0.095703
0.091756 0.091542 0.091477
0.059069 0.059574 0.064633
0.078840 0.078594 0.078753
0.137582 0.138367 0.140154
0.053254 0.053919 0.053712
0.057506 0.057174 0.056776
0.109539 0.110058 0.110361
0.076989 0.077273 0.081669
0.082623 0.082147 0.081959
0.102127 0.102410 0.102335
0.104514 0.099102 0.096420
0.061637 0.061448 0.061461
0.056213 0.056856 0.057143
0.110614 0.110803 0.110185
0.085947 0.086239 0.086421
0.111895 0.111821 0.111476
0.073755 0.073557 0.073208
0.135903 0.135146 0.135032
0.102087 0.102396 0.102560
0.140697 0.141205 0.142409
0.114786 0.114869 0.114736
0.105210 0.105744 0.105417
0.073267 0.073227 0.074170
0.103187 0.103167 0.103307
0.133097 0.134120 0.133818
0.112144 0.112700 0.113140
0.092405 0.092500 0.092175
0.128251 0.128679 0.127944
0.145847 0.145795 0.147458
0.073302 0.072785 0.071576
0.076933 0.076747 0.076416
0.115873 0.114407 0.113847
0.053165 0.053111 0.052978
0.078329 0.078343 0.079283
0.147210 0.147225 0.146305
0.083661 0.084219 0.084479
0.112097 0.112093 0.111571
0.062547 0.062752 0.062895
0.080121 0.080135 0.080151
0.079815 0.078997 0.078703
0.074335 0.074017 0.073678
0.109012 0.106756 0.107513
0.086590 0.086746 0.086710
0.106170 0.106348 0.106269
0.108913 0.108324 0.108374
0.110460 0.110769 0.111442
0.074844 0.074052 0.074055
0.073365 0.072367 0.072472
0.052313 0.052123 0.052020
0.111702 0.111603 0.111994
0.077042 0.077939 0.077157
0.074722 0.074868 0.074903
0.059366 0.059650 0.059246
0.059813 0.059040 0.058917
0.053159 0.053069 0.052546
0.066076 0.065968 0.065964
0.158608 0.157448 0.157548
0.102785 0.103257 0.103567
0.120692 0.121122 0.120180
0.083968 0.083571 0.079631
0.081424 0.081370 0.081242
0.101373 0.101622 0.101904
0.129664 0.129594 0.129099
0.114329 0.115094 0.115537
0.100684 0.101276 0.103540
0.101874 0.101646 0.104055
0.073795 0.074737 0.075791
0.200178 0.200060 0.200004
0.125372 0.124010 0.122307
0.057367 0.054551 0.054176
0.075721 0.075204 0.073269
0.070895 0.069118 0.066849
0.120263 0.120504 0.122629
0.079797 0.079779 0.079584
0.144134 0.144123 0.145201
0.183928 0.184461 0.183622
0.110384 0.111970 0.112417
0.124650 0.120360 0.122913
0.110494 0.110578 0.110061
0.132681 0.131988 0.132499
0.069423 0.070475 0.070308
0.102112 0.103459 0.102818
0.089101 0.089342 0.088958
0.074766 0.074740 0.075134
0.092626 0.092039 0.091868
0.104728 0.104751 0.104510
0.071341 0.071295 0.071079
0.102904 0.104337 0.104497
0.099047 0.098049 0.097128
0.108896 0.108933 0.109198
0.098866 0.097551 0.097424
0.096460 0.096406 0.096417
0.116247 0.116116 0.115812
0.071435 0.071367 0.071420
0.075411 0.075508 0.076427
0.102647 0.104568 0.104835
0.080044 0.081095 0.080363
0.116716 0.116671 0.113651
0.090193 0.091124 0.090793
0.087056 0.086313 0.085607
0.101120 0.101149 0.101258
0.118392 0.118336 0.118318
0.094277 0.094642 0.094537
0.066516 0.066847 0.065580
0.125464 0.125353 0.121350
0.117790 0.117310 0.117601
0.105077 0.105553 0.106349
0.120967 0.121087 0.121461
0.073353 0.073050 0.073338
0.074350 0.074766 0.075445
0.120652 0.120945 0.121187
0.073521 0.074081 0.073521
0.105465 0.104352 0.103475
0.066408 0.065952 0.065741
0.124139 0.124364 0.124375
0.098324 0.098108 0.097993
0.081947 0.082150 0.082201
0.079843 0.080426 0.081130
0.110567 0.111158 0.111384
0.101566 0.101897 0.100282
0.167534 0.167684 0.167498
0.105168 0.105050 0.103958
0.121024 0.119639 0.123688
0.139124 0.138315 0.133581
0.105301 0.106928 0.107281
0.121044 0.120676 0.120894
0.087318 0.088788 0.091072
0.117580 0.112271 0.113761
0.182845 0.182892 0.182519
0.141752 0.141511 0.141639
0.097086 0.096769 0.094376
0.163033 0.164855 0.168363
0.118024 0.118630 0.119434
0.051100 0.050976 0.051166
0.068965 0.069012 0.069216
0.096417 0.095774 0.097150
0.076999 0.077312 0.077476
0.082928 0.082335 0.083079
0.094727 0.094897 0.094848
0.048976 0.048104 0.048411
0.074523 0.075050 0.075179
0.123988 0.124236 0.123710
0.086597 0.086209 0.084889
0.103268 0.103224 0.103341
0.103514 0.103728 0.103428
0.069554 0.069624 0.069702
0.095806 0.095725 0.093973
0.108101 0.108440 0.108691
0.075752 0.075985 0.075019
0.073209 0.073239 0.073248
0.085906 0.084758 0.084016
0.115644 0.115809 0.116116
0.118629 0.116899 0.116470
0.085196 0.086230 0.087144
0.073810 0.073727 0.072973
0.094443 0.094054 0.094663
0.160251 0.148715 0.147563
0.091502 0.091708 0.091569
0.133159 0.138018 0.137889
0.100671 0.101834 0.101870
0.100847 0.101184 0.097151
0.099808 0.101175 0.100890
0.140451 0.140568 0.139847
0.178775 0.178550 0.178112
0.081265 0.081340 0.081225
0.091451 0.091466 0.091180
0.102975 0.102637 0.102158
0.079488 0.079691 0.079380
0.141536 0.139596 0.140741
0.125469 0.125302 0.125580
0.095191 0.095425 0.095815
0.183955 0.183901 0.184507
0.069251 0.069292 0.070106
0.119860 0.120148 0.120285
0.119854 0.119814 0.120466
0.100809 0.101739 0.102379
0.112715 0.114266 0.117448
0.101929 0.102196 0.100066
0.103123 0.103006 0.102556
0.174881 0.174311 0.173973
0.119788 0.118618 0.118269
0.154113 0.154690 0.158174
0.107603 0.107105 0.105104
0.094194 0.094790 0.092874
0.098452 0.098613 0.098279
0.074199 0.074186 0.073942
0.104163 0.103047 0.102648
0.087406 0.087163 0.086859
0.099168 0.097498 0.097242
0.134618 0.137615 0.136696
0.176227 0.175915 0.175139
0.089125 0.088403 0.088249
0.108198 0.107032 0.106761
0.084900 0.085033 0.084792
0.095803 0.099227 0.099331
0.119060 0.118996 0.118261
0.088447 0.088495 0.088969
0.074709 0.074552 0.074071
0.063703 0.063724 0.063631
0.163536 0.163904 0.164197
0.096998 0.097209 0.097540
0.126497 0.129747 0.128659
0.109656 0.109201 0.106677
0.073218 0.070956 0.070288
0.098367 0.098061 0.097758
0.121315 0.121569 0.121609
0.101467 0.101435 0.100827
0.101936 0.101671 0.103687
0.093473 0.093505 0.093728
0.125121 0.125091 0.123543
0.085337 0.084230 0.083744
0.067504 0.067444 0.067469
0.066005 0.065522 0.065496
0.107370 0.106846 0.105887
0.069550 0.069308 0.069016
0.085696 0.083207 0.082062
0.096505 0.094926 0.094155
0.105005 0.104954 0.104475
0.048369 0.048727 0.048931
0.074439 0.074390 0.074397
0.096066 0.096507 0.096696
0.171624 0.161184 0.132754
0.061695 0.061664 0.061634
0.108211 0.107610 0.107243
0.091780 0.092115 0.092154
0.076634 0.077270 0.077733
0.072292 0.072888 0.073113
0.177203 0.175390 0.175360
0.076213 0.076158 0.076202
0.047665 0.047526 0.046578
0.063343 0.063414 0.063004
0.067129 0.064187 0.063277
0.131972 0.131980 0.132494
0.134043 0.134545 0.134274
0.081115 0.080277 0.080477
0.072965 0.073156 0.073016
0.073185 0.071183 0.070325
0.170501 0.170730 0.170673
0.100108 0.099602 0.099137
0.102524 0.102774 0.102935
0.081951 0.082756 0.083141
0.145306 0.143886 0.143248
0.082416 0.082385 0.083665
0.105652 0.104967 0.104625
0.120282 0.120258 0.120380
0.079137 0.078536 0.077503
0.120258 0.120380 0.120549
0.094046 0.094145 0.094840
0.092260 0.092385 0.092494
0.058764 0.059208 0.059208
0.090412 0.092355 0.098514
0.111497 0.109717 0.108552
0.103274 0.102807 0.103032
0.074184 0.074988 0.075981
0.099712 0.099723 0.100027
0.102762 0.102611 0.102549
0.109541 0.109653 0.109364
0.117737 0.118120 0.119112
0.118158 0.117770 0.117239
0.133128 0.131972 0.131980
0.096616 0.096593 0.096998
0.047714 0.047829 0.048191
0.081669 0.081880 0.081977
0.111577 0.112044 0.112131
0.067285 0.066862 0.066508
0.166447 0.167457 0.167697
0.096622 0.097493 0.098593
0.072627 0.072950 0.073381
0.063510 0.062688 0.062091
0.113189 0.115573 0.116364
0.124230 0.122984 0.122356
0.094764 0.094822 0.094859
0.058928 0.059496 0.060023
0.107181 0.107393 0.107465
0.075880 0.076457 0.076519
0.117737 0.117566 0.112754
0.095984 0.095740 0.095750
0.104181 0.105209 0.107809
0.093924 0.094824 0.095092
0.061419 0.062951 0.062750
0.104000 0.104868 0.105351
0.080108 0.079784 0.079445
0.099359 0.099667 0.100644
0.100864 0.100735 0.100644
0.070702 0.070758 0.070361
0.082108 0.082166 0.082326
0.063031 0.062977 0.062902
0.125604 0.125866 0.126177
0.089174 0.089129 0.089843
0.073432 0.072948 0.072859
0.076874 0.077000 0.076931
0.070044 0.070349 0.071802
0.121826 0.121899 0.121973
0.100178 0.100668 0.101087
0.073718 0.073553 0.073174
0.111972 0.110427 0.110006
0.118250 0.118156 0.119471
0.177782 0.177733 0.177727
0.056730 0.058262 0.059947
0.070004 0.069548 0.069509
0.123237 0.122741 0.121750
0.102147 0.101768 0.101833
0.094982 0.094303 0.094510
0.107888 0.107432 0.107264
0.132850 0.133077 0.134157
0.130726 0.131280 0.131589
0.079678 0.078504 0.077782
0.110808 0.111545 0.111862
0.120907 0.121095 0.122077
0.069097 0.069132 0.069176
0.079981 0.079809 0.079831
0.106781 0.107292 0.106794
0.128818 0.128121 0.128043
0.128959 0.129538 0.129223
0.135661 0.134298 0.134703
0.099942 0.095979 0.098234
0.079435 0.078773 0.078958
0.072883 0.072987 0.073176
0.171571 0.172196 0.172460
0.068865 0.074815 0.074952
0.082259 0.082511 0.082788
0.075225 0.075828 0.075898
0.051280 0.051633 0.052988
0.086396 0.086920 0.087217
0.115147 0.115250 0.118136
0.135048 0.133679 0.134796
0.115953 0.116033 0.116045
0.084823 0.084928 0.085452
0.087360 0.087667 0.089115
0.125103 0.125166 0.124417
0.081330 0.081399 0.082302
0.102082 0.101896 0.101880
0.072190 0.072069 0.071648
0.109062 0.108722 0.108509
0.055675 0.055668 0.055726
0.106565 0.106492 0.106403
0.089235 0.089174 0.089129
0.091415 0.092184 0.092301
0.108607 0.108240 0.107596
0.134109 0.133442 0.133168
0.087171 0.086669 0.085959
0.067274 0.067131 0.066827
0.135752 0.132271 0.130217
0.077539 0.078175 0.078312
0.088650 0.088520 0.088243
0.142075 0.142213 0.142597
0.138495 0.139379 0.139724
0.144906 0.145717 0.145379
0.086696 0.085980 0.085506
0.122704 0.123863 0.125263
0.126552 0.127005 0.126934
0.110102 0.109715 0.108239
0.053171 0.053927 0.054328
0.091411 0.091498 0.091409
0.122217 0.122800 0.122193
0.085461 0.084956 0.084458
0.112242 0.111936 0.111943
0.112738 0.115252 0.114591
0.102246 0.102346 0.101983
0.052312 0.052493 0.052418
0.105466 0.105352 0.105216
0.081347 0.081592 0.081530
0.114090 0.114578 0.114901
0.066106 0.066440 0.065261
0.093623 0.099481 0.104920
0.060897 0.060798 0.060721
0.067906 0.067935 0.068640
0.112276 0.112055 0.110492
0.104884 0.105056 0.104866
0.118214 0.118559 0.116693
0.077569 0.077067 0.075614
0.112128 0.112099 0.112432
0.085656 0.085803 0.086624
0.065258 0.065286 0.065249
0.112720 0.113979 0.113818
0.110448 0.109865 0.109677
0.134274 0.132287 0.132684
0.128619 0.129395 0.129095
0.103916 0.102793 0.102566
0.051936 0.051727 0.051516
0.077050 0.077848 0.077100
0.114780 0.114875 0.114924
0.081060 0.081372 0.081101
0.142002 0.142860 0.143145
0.123903 0.125259 0.125452
0.087205 0.086882 0.086895
0.107858 0.108096 0.108426
0.119868 0.118601 0.118274
0.169723 0.169735 0.169669
0.150931 0.155423 0.154762
0.131944 0.130745 0.128378
0.109937 0.109631 0.109329
0.140131 0.140645 0.141331
0.126019 0.126450 0.127948
0.106354 0.106649 0.106522
0.142204 0.140661 0.140169
0.073733 0.073565 0.073514
0.116652 0.116923 0.116577
0.122448 0.122457 0.121907
0.074000 0.073518 0.073367
0.130245 0.132564 0.133098
0.152884 0.151536 0.149722
0.116817 0.117028 0.116856
0.079097 0.079537 0.079719
0.164005 0.153493 0.150517
0.054176 0.053710 0.053266
0.095877 0.096330 0.096356
0.079805 0.079339 0.078398
0.107390 0.107389 0.105348
0.094339 0.094293 0.094710
0.169198 0.168475 0.170359
0.148924 0.150075 0.147461
0.116728 0.113526 0.113606
0.058791 0.059387 0.059642
0.050433 0.050569 0.051888
0.101850 0.103238 0.102991
0.075309 0.074654 0.074554
0.115585 0.115199 0.115407
0.081913 0.081529 0.081581
0.085498 0.085539 0.085103
0.098630 0.097836 0.097938
0.132638 0.132431 0.132146
0.103059 0.102983 0.102926
0.078628 0.078889 0.079756
0.071238 0.070827 0.071765
0.104936 0.105264 0.105501
0.081280 0.080982 0.081669
0.102014 0.103685 0.102751
0.062495 0.062307 0.060975
0.139477 0.140673 0.141137
0.076466 0.076665 0.077481
0.118269 0.118510 0.119253
0.062068 0.061058 0.061118
0.107858 0.108469 0.107412
0.061557 0.061876 0.061841
0.126137 0.125912 0.126449
0.086783 0.085139 0.084599
0.111151 0.112291 0.111974
0.097358 0.096887 0.095711
0.110503 0.111756 0.111631
0.115407 0.115854 0.116084
0.110933 0.110557 0.109455
0.110415 0.108665 0.108512
0.058386 0.058642 0.060389
0.111303 0.106928 0.108213
0.101611 0.101401 0.100261
0.072062 0.072355 0.072128
0.147791 0.147379 0.147196
0.052746 0.051506 0.051389
0.068084 0.068280 0.068282
0.142029 0.142006 0.142027
0.101426 0.100962 0.100662
0.110308 0.104514 0.099102
0.144321 0.145521 0.145567
0.123570 0.123236 0.122164
0.074470 0.074545 0.074811
0.092125 0.092346 0.092831
0.097824 0.097983 0.096332
0.102935 0.104273 0.104737
0.078307 0.078884 0.079234
0.110308 0.110222 0.109903
0.100691 0.100417 0.100664
0.101890 0.101993 0.104468
0.083272 0.082998 0.080759
0.096764 0.096660 0.096543
0.124474 0.128174 0.130140
0.076674 0.076319 0.076287
0.100183 0.100000 0.100257
0.103454 0.103347 0.103421
0.143355 0.142931 0.143111
0.108297 0.107595 0.107339
0.053282 0.053220 0.053344
0.087000 0.086603 0.086599
0.134672 0.135381 0.135768
0.132017 0.132408 0.133350
0.115715 0.116011 0.116054
0.107818 0.108487 0.109528
0.052988 0.053165 0.053111
0.068755 0.068616 0.068632
0.062569 0.062762 0.062754
0.113615 0.114548 0.114631
0.063880 0.063770 0.063645
0.107014 0.107587 0.106945
0.073480 0.073580 0.072959
0.137226 0.137759 0.137780
0.137434 0.138055 0.137563
0.083987 0.084085 0.085563
0.112075 0.112937 0.112594
0.112551 0.110349 0.109542
