0.183365 0.183313 0.176583
0.124912 0.123868 0.122089
0.205191 0.204466 0.202810
0.221792 0.222312 0.222578
0.140198 0.150601 0.151355
0.239921 0.240658 0.233969
0.213002 0.213230 0.213838
0.321597 0.321285 0.320949
0.150253 0.149179 0.152562
0.249100 0.245669 0.244283
0.211421 0.210650 0.209722
0.154645 0.154915 0.154393
0.229042 0.229408 0.232933
0.137984 0.137531 0.136337
0.245657 0.245483 0.246761
0.388498 0.385609 0.384824
0.289606 0.289359 0.289800
0.267586 0.265566 0.255409
0.260043 0.263261 0.263588
0.213386 0.213363 0.211677
0.229679 0.229575 0.229691
0.152191 0.152540 0.152384
0.111496 0.111869 0.114091
0.185333 0.185408 0.187937
0.333766 0.333607 0.330420
0.215190 0.215474 0.215764
0.173015 0.172859 0.173243
0.185424 0.184777 0.185409
0.257068 0.254150 0.253588
0.319057 0.311904 0.311392
0.213718 0.214601 0.215505
0.255080 0.253637 0.250602
0.201387 0.193462 0.190941
0.263774 0.265317 0.273439
0.173462 0.173343 0.171714
0.178529 0.179303 0.181212
0.174185 0.173663 0.172491
0.251224 0.251570 0.253783
0.153370 0.153600 0.155238
0.276443 0.276910 0.279729
0.198521 0.197822 0.197452
0.253128 0.252480 0.252088
0.218541 0.219630 0.218923
0.300902 0.299707 0.299672
0.115937 0.115876 0.115196
0.180552 0.180940 0.180877
0.145176 0.143033 0.145284
0.231105 0.230808 0.231362
0.254495 0.254942 0.256703
0.149728 0.149985 0.149589
0.242041 0.241548 0.241766
0.307375 0.307509 0.304503
0.282419 0.284001 0.286833
0.189726 0.189721 0.191957
0.114393 0.115393 0.115846
0.268584 0.268433 0.268654
0.175678 0.169834 0.169233
0.242395 0.242845 0.231794
0.280544 0.277062 0.275235
0.155639 0.156114 0.156858
0.162169 0.162190 0.161927
0.207775 0.208410 0.201365
0.172400 0.171757 0.171471
0.225234 0.226011 0.226339
0.143226 0.143126 0.144141
0.289786 0.291144 0.291074
0.190083 0.188919 0.188453
0.257506 0.257629 0.257186
0.181867 0.182028 0.182818
0.250325 0.251473 0.253850
0.225336 0.222726 0.226499
0.158733 0.159108 0.158845
0.282219 0.287495 0.285962
0.181008 0.179450 0.179056
0.307599 0.297358 0.297568
0.231330 0.230652 0.229769
0.180743 0.180744 0.181746
0.216251 0.217794 0.215293
0.191932 0.198831 0.201703
0.196545 0.195863 0.196788
0.159654 0.159234 0.160653
0.272367 0.272671 0.272870
0.230965 0.237336 0.235097
0.201189 0.202753 0.202112
0.337964 0.349804 0.351396
0.223364 0.215792 0.214383
0.239042 0.238904 0.236881
0.273289 0.271946 0.272414
0.207958 0.209248 0.208785
0.291800 0.292022 0.291332
0.246307 0.246865 0.248788
0.225402 0.224569 0.224180
0.245068 0.245791 0.248919
0.218496 0.217295 0.217132
0.245452 0.245468 0.247441
0.170606 0.168510 0.167691
0.189619 0.189835 0.191776
0.147418 0.147595 0.150092
0.295594 0.295497 0.292753
0.169467 0.169610 0.168717
0.347082 0.335351 0.333981
0.169308 0.167226 0.167352
0.205150 0.204950 0.204936
0.168050 0.169535 0.169467
0.154916 0.156043 0.154861
0.233646 0.233899 0.233991
0.201508 0.201483 0.200297
0.248667 0.248627 0.247384
0.145575 0.144990 0.144838
0.307083 0.307403 0.308446
0.246535 0.243975 0.244278
0.263057 0.260925 0.258548
0.129412 0.130523 0.129950
0.185796 0.192503 0.190617
0.111607 0.111512 0.111460
0.196560 0.196480 0.196059
0.276831 0.279585 0.280058
0.319883 0.319057 0.311904
0.167482 0.166263 0.165661
0.203951 0.203812 0.204270
0.172313 0.172465 0.171947
0.180784 0.181414 0.182112
0.200266 0.199144 0.199775
0.156156 0.156151 0.156489
0.205986 0.201232 0.199847
0.255639 0.255803 0.255146
0.165986 0.166818 0.167389
0.308229 0.307714 0.309120
0.233024 0.231489 0.229096
0.296014 0.294678 0.293296
0.192738 0.192204 0.192308
0.171653 0.170440 0.169008
0.175255 0.174918 0.174406
0.232197 0.232515 0.236260
0.166506 0.166663 0.163761
0.177808 0.179076 0.178163
0.196503 0.196330 0.199718
0.207732 0.205904 0.205242
0.308805 0.309197 0.307688
0.224903 0.226785 0.228371
0.222736 0.222071 0.220241
0.185563 0.188353 0.188784
0.252945 0.254755 0.255762
0.221655 0.221871 0.223174
0.132343 0.132455 0.132838
0.242402 0.243951 0.244097
0.149718 0.149868 0.150153
0.245156 0.246636 0.247241
0.191325 0.192047 0.194280
0.215696 0.225438 0.230565
0.257417 0.257448 0.257331
0.246466 0.245249 0.245449
0.213500 0.212503 0.211932
0.271073 0.270861 0.271187
0.308879 0.302035 0.300659
0.244303 0.244333 0.244209
0.185103 0.186132 0.186900
0.217680 0.217623 0.217958
0.158347 0.159639 0.162821
0.191122 0.190324 0.189738
0.167244 0.166957 0.163703
0.296919 0.297294 0.294356
0.206256 0.207033 0.209014
0.172897 0.173018 0.173173
0.248227 0.245486 0.244912
0.227322 0.228807 0.246202
0.133246 0.132514 0.132874
0.178843 0.178504 0.177537
0.286596 0.286879 0.288222
0.151225 0.150750 0.149125
0.284768 0.284936 0.284139
0.146291 0.145741 0.145556
0.258342 0.258119 0.257643
0.141467 0.141543 0.141627
0.174658 0.175703 0.179926
0.163527 0.163998 0.164407
0.105286 0.106339 0.106716
0.313215 0.317395 0.318789
0.245249 0.245449 0.245198
0.174873 0.174816 0.175151
0.341617 0.340913 0.343376
0.294776 0.289977 0.286730
0.240110 0.240725 0.240730
0.135172 0.137388 0.138160
0.167586 0.168102 0.172198
0.151663 0.150837 0.149599
0.236936 0.236385 0.233825
0.181963 0.181950 0.182573
0.159750 0.159335 0.159511
0.160121 0.160703 0.160886
0.241579 0.242700 0.243058
0.213664 0.214378 0.213153
0.253778 0.253645 0.253650
0.199736 0.203489 0.204897
0.153242 0.152376 0.149124
0.154556 0.154820 0.155629
0.203266 0.202318 0.202286
0.176209 0.176011 0.175943
0.191785 0.191823 0.192570
0.211962 0.212498 0.211120
0.217490 0.217129 0.217103
0.156525 0.155598 0.154332
0.207814 0.207344 0.206081
0.282534 0.281069 0.279583
0.141145 0.141208 0.143211
0.195265 0.195228 0.193555
0.206079 0.205555 0.203310
0.249799 0.250099 0.245784
0.202082 0.195172 0.195126
0.227389 0.224437 0.225367
0.225382 0.219671 0.220462
0.213331 0.212352 0.207115
0.253964 0.254251 0.254818
0.132245 0.133189 0.132911
0.216049 0.215777 0.216818
0.155908 0.155483 0.156096
0.189094 0.188774 0.188244
0.133603 0.132543 0.131569
0.141163 0.141608 0.141762
0.157518 0.158568 0.158741
0.160597 0.160187 0.161857
0.225800 0.226468 0.228732
0.253975 0.249484 0.249389
0.381693 0.381588 0.382019
0.290030 0.304370 0.305584
0.204663 0.204940 0.205403
0.194064 0.194790 0.194886
0.263807 0.264261 0.263741
0.309254 0.310682 0.310796
0.230579 0.230513 0.229709
0.284265 0.284395 0.283694
0.194983 0.194924 0.194988
0.151979 0.152025 0.149718
0.191615 0.190721 0.188588
0.205151 0.205839 0.206312
0.346845 0.346461 0.345971
0.195345 0.194052 0.195293
0.170349 0.168862 0.172085
0.268543 0.276521 0.276425
0.176339 0.177506 0.177139
0.177968 0.175862 0.175790
0.145550 0.145000 0.144027
0.254737 0.254969 0.254341
0.203188 0.202659 0.202584
0.158616 0.156525 0.155598
0.142136 0.141232 0.140297
0.168656 0.177604 0.178849
0.198673 0.198750 0.198981
0.185059 0.179803 0.180052
0.162998 0.162509 0.162852
0.181441 0.181227 0.182160
0.152042 0.152384 0.153097
0.163507 0.163527 0.163998
0.232185 0.238950 0.240242
0.160394 0.159863 0.161220
0.181194 0.176273 0.178348
0.216054 0.216627 0.216402
0.209722 0.210501 0.209563
0.149378 0.160081 0.160410
0.178288 0.178857 0.178223
0.293441 0.291772 0.288978
0.193195 0.191968 0.191765
0.157002 0.157012 0.151125
0.113778 0.112885 0.111462
0.289334 0.290776 0.290387
0.152489 0.154698 0.154900
0.271423 0.271355 0.271047
0.185165 0.186217 0.189203
0.173363 0.174264 0.175168
0.262073 0.261384 0.260870
0.277397 0.277202 0.277064
0.184891 0.185506 0.181158
0.250327 0.247890 0.247237
0.136345 0.134288 0.134302
0.189574 0.188530 0.188163
0.379702 0.379672 0.382286
0.232797 0.234008 0.242236
0.232608 0.232264 0.232722
0.243131 0.243041 0.241932
0.180382 0.179401 0.179409
0.167551 0.167070 0.168131
0.166457 0.166340 0.166696
0.184181 0.185080 0.193667
0.198620 0.205090 0.204960
0.136671 0.135048 0.134841
0.189143 0.188228 0.192765
0.229333 0.229462 0.226799
0.159112 0.158059 0.156919
0.328360 0.328278 0.327891
0.173539 0.171527 0.171330
0.194200 0.194125 0.194899
0.122704 0.122424 0.121389
0.290981 0.291688 0.293506
0.242781 0.245025 0.244244
0.154492 0.154223 0.153752
0.171620 0.173033 0.172931
0.200378 0.201063 0.203988
0.251240 0.250912 0.251466
0.198401 0.197455 0.198819
0.207856 0.207958 0.206412
0.262330 0.262549 0.263713
0.210905 0.206201 0.205980
0.174971 0.175940 0.177216
0.280229 0.280611 0.279925
0.143581 0.142019 0.143656
0.282086 0.281071 0.280755
0.155504 0.164330 0.166565
0.253371 0.254622 0.255145
0.176730 0.176720 0.177001
0.152700 0.154044 0.154309
0.303954 0.306120 0.307316
0.232576 0.229356 0.220961
0.302604 0.302979 0.304743
0.173550 0.174634 0.175915
0.229531 0.229204 0.225313
0.211356 0.210800 0.217961
0.165224 0.163534 0.149564
0.261115 0.260315 0.260188
0.256465 0.255066 0.255256
0.195069 0.195015 0.194986
0.156698 0.160138 0.161896
0.250211 0.250394 0.251048
0.214469 0.215315 0.215329
0.152109 0.152959 0.153157
0.114008 0.114555 0.114511
0.229897 0.229754 0.229065
0.187103 0.188301 0.188120
0.159729 0.159291 0.159574
0.233928 0.231794 0.232109
0.170760 0.170724 0.167524
0.332934 0.335755 0.336598
0.341859 0.343345 0.344110
0.165313 0.164284 0.163799
0.170595 0.169956 0.170380
0.220303 0.219777 0.215985
0.180558 0.180903 0.180840
0.217901 0.217451 0.217218
0.187850 0.187855 0.186539
0.275902 0.280379 0.280134
0.207772 0.207561 0.206339
0.217129 0.217103 0.213545
0.186976 0.187780 0.187980
0.174057 0.173970 0.173947
0.178173 0.178131 0.174993
0.360203 0.361951 0.363139
0.187377 0.186998 0.186698
0.301197 0.297920 0.295214
0.265179 0.264911 0.262187
0.164525 0.164816 0.164610
0.194361 0.194370 0.195292
0.152611 0.150253 0.149179
0.150006 0.150790 0.151613
0.194336 0.194701 0.194660
0.214858 0.214962 0.214055
0.197584 0.196089 0.191939
0.261345 0.260887 0.257399
0.266071 0.266843 0.266796
0.174447 0.173289 0.172503
0.353939 0.354378 0.345309
0.194503 0.196129 0.195302
0.184909 0.185137 0.185995
0.297493 0.301445 0.333418
0.186094 0.185761 0.184726
0.204948 0.202329 0.200947
0.149194 0.149745 0.151102
0.161545 0.160848 0.160419
0.291005 0.289313 0.288617
0.282382 0.284504 0.285062
0.101545 0.101631 0.099798
0.197976 0.203543 0.204712
0.170249 0.169399 0.167658
0.181195 0.182486 0.181112
0.214414 0.208607 0.210104
0.224168 0.225498 0.227140
0.236104 0.236402 0.259995
0.229618 0.230492 0.231053
0.160740 0.159789 0.160743
0.331430 0.330805 0.328884
0.194469 0.195033 0.193440
0.266134 0.261229 0.258410
0.277392 0.277367 0.277151
0.278530 0.279695 0.283952
0.263639 0.263858 0.264472
0.186545 0.186437 0.187630
0.255697 0.262623 0.264309
0.211209 0.210988 0.210360
0.233410 0.230285 0.229207
0.211890 0.211641 0.208700
0.136773 0.137036 0.139776
0.288018 0.289524 0.289020
0.135511 0.135483 0.136216
0.260487 0.257243 0.256253
0.141543 0.141627 0.141952
0.258492 0.258807 0.260456
0.252430 0.253251 0.254929
0.207169 0.208068 0.205866
0.126781 0.127781 0.128421
0.165049 0.165598 0.166640
0.151066 0.151411 0.151922
0.227300 0.226682 0.226607
0.235843 0.242099 0.248667
0.184280 0.184104 0.186227
0.215622 0.215038 0.210928
0.184891 0.185518 0.185273
0.187663 0.188646 0.186095
0.113430 0.114101 0.114929
0.177263 0.177225 0.176728
0.215928 0.216004 0.215900
0.173243 0.172025 0.170820
0.156678 0.160237 0.161753
0.244061 0.231141 0.231105
0.183597 0.185111 0.187702
0.306104 0.305586 0.305370
0.311279 0.314428 0.314356
0.110717 0.110929 0.114012
0.268775 0.268691 0.266017
0.193529 0.196012 0.196833
0.171217 0.170623 0.169969
0.159970 0.160401 0.159457
0.159567 0.159074 0.160235
0.211939 0.212172 0.212822
0.282336 0.284074 0.292725
0.136955 0.139861 0.139247
0.147437 0.149097 0.149596
0.179834 0.179127 0.178428
0.115386 0.113778 0.112885
0.191751 0.191834 0.193134
0.197625 0.197274 0.196525
0.157818 0.156982 0.157006
0.167629 0.168471 0.168207
0.252672 0.253214 0.253953
0.205638 0.203288 0.203365
0.256804 0.255832 0.255800
0.256221 0.255740 0.254837
0.201866 0.205201 0.205003
0.257169 0.257409 0.257069
0.217062 0.217375 0.217758
0.290278 0.285104 0.284063
0.211155 0.211270 0.210955
0.150931 0.149280 0.148023
0.211950 0.212562 0.209612
0.154391 0.153159 0.153183
0.159114 0.157761 0.157392
0.151629 0.150743 0.151010
0.237381 0.237193 0.235942
0.121612 0.122160 0.122944
0.276178 0.275670 0.281329
0.284091 0.283603 0.283795
0.222806 0.222842 0.221340
0.169563 0.166363 0.165689
0.210121 0.210094 0.209832
0.139416 0.140001 0.144678
0.261911 0.267313 0.267581
0.173785 0.171780 0.171003
0.192072 0.192016 0.192208
0.160602 0.163013 0.163675
0.291359 0.291271 0.290121
0.209168 0.214787 0.215502
0.181330 0.180797 0.180006
0.204938 0.205342 0.205018
0.187784 0.189612 0.195541
0.361185 0.360439 0.358459
0.288527 0.287649 0.287432
0.157211 0.158149 0.158807
0.113765 0.113041 0.112993
0.173649 0.172712 0.174971
0.261420 0.261247 0.259489
0.151483 0.153666 0.153659
0.219665 0.220016 0.222509
0.170672 0.171353 0.171238
0.217200 0.216185 0.215148
0.254893 0.252657 0.252464
0.155209 0.154639 0.155565
0.190291 0.189855 0.190351
0.154328 0.153444 0.151148
0.151751 0.152080 0.153554
0.213911 0.212895 0.212579
0.154075 0.153216 0.153698
0.202042 0.202993 0.203301
0.177764 0.178733 0.179805
0.192338 0.190618 0.191083
0.245519 0.243954 0.244328
0.197704 0.198238 0.198499
0.169202 0.166494 0.168174
0.190710 0.181625 0.183782
0.158100 0.156995 0.156338
0.121980 0.121502 0.122658
0.294121 0.283641 0.279470
0.217791 0.218358 0.218194
0.136574 0.135674 0.136409
0.177897 0.177837 0.172278
0.163947 0.164257 0.166639
0.190003 0.188193 0.187426
0.291084 0.291935 0.293015
0.312100 0.307561 0.306546
0.178961 0.181731 0.182268
0.162979 0.165897 0.165699
0.252222 0.257080 0.258219
0.186673 0.190718 0.190454
0.200506 0.202710 0.203504
0.248666 0.249324 0.248082
0.182026 0.180224 0.180311
0.208088 0.200037 0.198358
0.241722 0.244236 0.244238
0.115181 0.114406 0.114097
0.159397 0.156283 0.156048
0.154573 0.155356 0.157602
0.161960 0.161960 0.161988
0.197160 0.199238 0.204492
0.203628 0.200572 0.199580
0.262008 0.260331 0.260647
0.185264 0.184813 0.186148
0.169788 0.170647 0.171897
0.183613 0.184084 0.184394
0.159340 0.163835 0.162005
0.217647 0.218465 0.218405
0.213760 0.219987 0.218034
0.158963 0.159863 0.160154
0.280271 0.280076 0.280250
0.163850 0.161826 0.160572
0.256736 0.255917 0.256410
0.161504 0.160556 0.161174
0.250037 0.250858 0.249570
0.218728 0.218770 0.219347
0.229185 0.207064 0.201473
0.224743 0.223061 0.218496
0.198364 0.199756 0.199703
0.192143 0.193378 0.193610
0.286720 0.286412 0.285838
0.190078 0.189332 0.189019
0.166079 0.166874 0.166762
0.337847 0.337529 0.340520
0.235546 0.235979 0.236506
0.338230 0.338184 0.337122
0.179938 0.183636 0.183939
0.197783 0.197540 0.198053
0.196680 0.198060 0.198497
0.149420 0.149313 0.150382
0.283477 0.282860 0.282522
0.176601 0.177190 0.179022
0.192978 0.194278 0.195195
0.163700 0.163741 0.163202
0.263642 0.264181 0.264009
0.193585 0.197205 0.195071
0.194668 0.194779 0.195612
0.217204 0.217020 0.217909
0.147555 0.147283 0.147448
0.196694 0.195994 0.196677
0.219528 0.219679 0.219991
0.291991 0.296942 0.296908
0.308175 0.306317 0.306294
0.157677 0.157400 0.156303
0.147484 0.147966 0.146737
0.145345 0.146927 0.147313
0.275308 0.278700 0.280509
0.192490 0.192535 0.192660
0.268075 0.268625 0.268543
0.125069 0.124907 0.125021
0.214070 0.217628 0.219865
0.194278 0.194995 0.195734
0.246284 0.245415 0.246057
0.098080 0.096791 0.096468
0.194822 0.195632 0.196806
0.268084 0.268837 0.267237
0.170613 0.170838 0.171000
0.224574 0.224360 0.225979
0.291465 0.275650 0.275462
0.189856 0.191266 0.192655
0.153230 0.153039 0.151489
0.321202 0.321456 0.320478
0.183676 0.183379 0.183455
0.222701 0.224582 0.225602
0.254788 0.254923 0.256361
0.139482 0.139450 0.139607
0.176150 0.175522 0.176170
0.203373 0.205032 0.204306
0.193474 0.194044 0.193710
0.233977 0.233823 0.234451
0.255318 0.257065 0.257417
0.217168 0.220141 0.220518
0.148894 0.149381 0.151008
0.240761 0.239340 0.237026
0.169202 0.169002 0.169484
0.195629 0.195079 0.192061
0.187946 0.185250 0.182215
0.230567 0.225634 0.225800
0.166321 0.165901 0.165611
0.168950 0.168367 0.168395
0.231430 0.230195 0.228383
0.317241 0.317564 0.319194
0.202275 0.203740 0.208134
0.285675 0.284446 0.283360
0.188080 0.188424 0.187819
0.263788 0.264710 0.265575
0.230360 0.229755 0.229052
0.150762 0.153081 0.152566
0.160493 0.160640 0.160169
0.287288 0.289153 0.289604
0.156222 0.153302 0.152500
0.196453 0.196872 0.197185
0.199556 0.197125 0.196454
0.140746 0.141195 0.141944
0.236268 0.233928 0.227882
0.164257 0.166639 0.166872
0.188613 0.183854 0.185538
0.162320 0.162181 0.162000
0.168207 0.167992 0.169654
0.289476 0.288905 0.298295
0.186904 0.188250 0.188465
0.258391 0.257857 0.256972
0.172558 0.171939 0.171682
0.231875 0.234986 0.233658
0.191955 0.198839 0.203304
0.156694 0.156339 0.155878
0.185847 0.184582 0.184689
0.160446 0.160468 0.160753
0.339610 0.338692 0.338637
0.198767 0.199622 0.202406
0.149313 0.149963 0.150613
0.204593 0.204181 0.204206
0.209448 0.211118 0.207262
0.130722 0.131461 0.129674
0.148506 0.150550 0.149621
0.173004 0.173746 0.174852
0.244848 0.244700 0.243474
0.153592 0.154072 0.148680
0.180115 0.181801 0.182411
0.161613 0.161181 0.161212
0.271883 0.256441 0.256570
0.180020 0.178572 0.178991
0.194780 0.194681 0.201742
0.146073 0.143778 0.142855
0.282487 0.292043 0.291637
0.153703 0.154890 0.155433
0.306215 0.306784 0.307170
0.232463 0.233829 0.236026
0.134984 0.138266 0.138981
0.216811 0.216929 0.216292
0.216080 0.217354 0.215590
0.198084 0.197028 0.194596
0.250839 0.250263 0.250696
0.169958 0.170864 0.171099
0.265360 0.267881 0.268558
0.273635 0.273425 0.274140
0.174465 0.174969 0.174513
0.194696 0.195079 0.195021
0.192074 0.191586 0.191830
0.243713 0.243835 0.244651
0.321321 0.319973 0.319592
0.139106 0.138379 0.139197
0.187156 0.187066 0.186927
0.160765 0.160820 0.160759
0.245981 0.244938 0.243584
0.143207 0.143901 0.143589
0.174028 0.174155 0.172806
0.133383 0.134329 0.133826
0.240703 0.239136 0.239384
0.284797 0.284815 0.283945
0.264757 0.265870 0.267930
0.291913 0.291745 0.291525
0.243463 0.244069 0.245426
0.277956 0.279472 0.280056
0.194913 0.193041 0.191303
0.168300 0.167115 0.166769
0.175685 0.172579 0.173207
0.163838 0.174466 0.174948
0.153843 0.154357 0.156313
0.172656 0.171266 0.170381
0.249296 0.248232 0.248384
0.136776 0.136955 0.137762
0.179433 0.180515 0.180959
0.154656 0.157539 0.155909
0.172854 0.174337 0.174739
0.171865 0.171504 0.172573
0.175692 0.176174 0.183131
0.147183 0.144139 0.143900
0.240066 0.238211 0.234288
0.203564 0.203492 0.204462
0.172092 0.165572 0.163670
0.170030 0.171845 0.177459
0.308301 0.307948 0.306235
0.202467 0.203261 0.204427
0.260417 0.263208 0.263378
0.169659 0.164285 0.164407
0.122137 0.123783 0.124442
0.163964 0.162447 0.159269
0.201296 0.205667 0.213873
0.193288 0.193399 0.193309
0.240623 0.240520 0.242758
0.211603 0.221668 0.221458
0.223883 0.223722 0.224097
0.188425 0.191087 0.191417
0.273894 0.276353 0.281632
0.286339 0.285943 0.285987
0.168315 0.169871 0.168883
0.186299 0.185328 0.184103
0.160956 0.160667 0.159339
0.141718 0.140786 0.141335
0.256164 0.255648 0.255964
0.181050 0.182150 0.182925
0.187416 0.188231 0.188457
0.198907 0.198969 0.199791
0.334389 0.334978 0.335548
0.252793 0.251238 0.252258
0.291046 0.290988 0.292994
0.213492 0.214580 0.213755
0.277077 0.276504 0.275861
0.225273 0.230852 0.230677
0.172870 0.172588 0.175019
0.151526 0.152239 0.152642
0.193524 0.191849 0.191346
0.182997 0.182262 0.181957
0.179364 0.179316 0.179864
0.214539 0.213937 0.215433
0.183906 0.184644 0.184908
0.242959 0.242871 0.242331
0.294555 0.293282 0.288129
0.209213 0.209573 0.207934
0.148929 0.147555 0.147283
0.220911 0.221705 0.225238
0.142857 0.142842 0.144110
0.188676 0.188932 0.189085
0.265166 0.264011 0.262783
0.143077 0.142581 0.142594
0.170846 0.170900 0.171064
0.268430 0.268266 0.266874
0.161112 0.160856 0.161746
0.293145 0.294823 0.300562
0.161770 0.162728 0.161910
0.250668 0.250841 0.252463
0.216177 0.216604 0.215459
0.149801 0.153725 0.154451
0.197304 0.196440 0.195597
0.165461 0.165278 0.165120
0.229390 0.229422 0.230002
0.203042 0.202328 0.201844
0.246806 0.246572 0.248229
0.201121 0.195355 0.193835
0.141485 0.141007 0.140042
0.172080 0.173238 0.173686
0.150153 0.151349 0.150564
0.234886 0.233325 0.233060
0.165704 0.165289 0.159418
0.170883 0.171411 0.172482
0.276473 0.276089 0.276013
0.178671 0.177795 0.179420
0.214221 0.211873 0.209425
0.124079 0.123957 0.123847
0.238479 0.238381 0.236685
0.185913 0.187206 0.188579
0.115684 0.115675 0.115884
0.170243 0.165682 0.166459
0.140249 0.140850 0.144844
0.236950 0.237640 0.239262
0.201437 0.202534 0.201781
0.172492 0.172617 0.173113
0.246695 0.244552 0.244067
0.184668 0.183906 0.184644
0.323910 0.324714 0.324842
0.152738 0.152811 0.152498
0.181340 0.182894 0.182785
0.277068 0.279592 0.279914
0.255570 0.257020 0.256291
0.382325 0.381413 0.382140
0.197694 0.196772 0.195930
0.314428 0.314356 0.311681
0.186529 0.187037 0.187083
0.206280 0.207372 0.205342
0.170810 0.169666 0.159463
0.302438 0.303246 0.306081
0.258200 0.258833 0.258283
0.178544 0.179758 0.181532
0.168853 0.168887 0.169913
0.165107 0.165030 0.165851
0.180736 0.180875 0.179136
0.198444 0.198973 0.198419
0.297484 0.296220 0.293068
0.207137 0.206529 0.200573
0.144690 0.145279 0.145859
0.100238 0.100601 0.098915
0.163998 0.164407 0.164299
0.164638 0.165381 0.166454
0.221992 0.217663 0.217056
0.185437 0.184676 0.181462
0.192750 0.191857 0.191730
0.177755 0.180547 0.181125
0.202075 0.202279 0.202222
0.308521 0.314704 0.309682
0.222278 0.227295 0.230125
0.247763 0.250559 0.252737
0.144110 0.150932 0.151923
0.263771 0.264898 0.266840
0.184111 0.184235 0.184939
0.236145 0.231114 0.227393
0.197739 0.195482 0.195598
0.164669 0.164523 0.165138
0.315045 0.310808 0.316382
0.168292 0.171967 0.175401
0.159706 0.160579 0.159775
0.254800 0.253770 0.253524
0.159407 0.159356 0.159163
0.153006 0.147728 0.146694
0.165969 0.166054 0.167003
0.208472 0.211854 0.212080
0.194837 0.194564 0.193927
0.149817 0.151043 0.151781
0.183605 0.181930 0.180901
0.141927 0.143478 0.148649
0.222755 0.224474 0.239159
0.192387 0.192636 0.194599
0.260754 0.258379 0.258287
0.180743 0.182359 0.183172
0.165743 0.164842 0.166012
0.152534 0.151080 0.150793
0.268155 0.268215 0.269752
0.186341 0.187845 0.187794
0.170440 0.169008 0.171620
0.187122 0.186720 0.186967
0.246230 0.244446 0.243054
0.172495 0.173990 0.175213
0.178726 0.177164 0.176875
0.163666 0.163216 0.163288
0.178722 0.178795 0.179624
0.219628 0.223044 0.219349
0.348211 0.347861 0.347808
0.170304 0.169250 0.166238
0.191024 0.191476 0.192857
0.180131 0.180979 0.181322
0.154189 0.153767 0.153242
0.184271 0.181513 0.180994
0.205954 0.205136 0.187468
0.203373 0.206825 0.207020
0.299651 0.300146 0.299546
0.194921 0.198829 0.202486
0.314317 0.319311 0.319208
0.203609 0.202355 0.196600
0.206207 0.206226 0.207270
0.263749 0.264016 0.263531
0.291688 0.293506 0.292817
0.109366 0.109924 0.109828
0.177778 0.172429 0.171589
0.269339 0.268756 0.264089
0.223536 0.226164 0.227313
0.181397 0.181248 0.178446
0.166898 0.167033 0.167148
0.188181 0.187628 0.185857
0.197284 0.197931 0.197484
0.290004 0.292875 0.292847
0.135179 0.134361 0.135964
0.163435 0.163798 0.162748
0.216236 0.218379 0.213148
0.195292 0.194669 0.193105
0.212872 0.213178 0.213364
0.328050 0.326990 0.327353
0.211176 0.210379 0.207659
0.161341 0.165995 0.165734
0.188227 0.189232 0.195155
0.364476 0.366071 0.364983
0.176391 0.176029 0.175920
0.187879 0.187333 0.186832
0.182576 0.181846 0.181090
0.236422 0.234314 0.233817
0.295809 0.298523 0.302390
0.161941 0.160635 0.157318
0.260971 0.261713 0.261775
0.173698 0.174238 0.174634
0.214977 0.214138 0.211315
0.222617 0.232047 0.239291
0.217905 0.217292 0.217233
0.245739 0.245026 0.244308
0.213011 0.213686 0.214312
0.255118 0.254900 0.252568
0.195063 0.195052 0.193820
0.222992 0.222864 0.223241
0.247039 0.247113 0.242448
0.230103 0.228776 0.229013
0.338854 0.338500 0.337483
0.310520 0.294724 0.296075
0.165515 0.165611 0.166027
0.196440 0.195597 0.198985
0.193535 0.194263 0.194031
0.250484 0.249731 0.252014
0.234197 0.234887 0.240249
0.176894 0.178861 0.179453
0.211015 0.211863 0.213128
0.229450 0.231257 0.230832
0.147427 0.147473 0.147449
0.184252 0.183923 0.183840
0.183926 0.184821 0.185514
0.144371 0.144873 0.144662
0.218161 0.218004 0.217647
0.147162 0.149176 0.150869
0.173851 0.172704 0.172754
0.177005 0.177517 0.181726
0.159873 0.161601 0.160465
0.192803 0.197926 0.198752
0.157968 0.159730 0.159710
0.224056 0.220204 0.220768
0.265661 0.265680 0.265166
0.194673 0.189790 0.188676
0.309159 0.309420 0.308019
0.194886 0.193704 0.193730
0.242666 0.242656 0.242762
0.337954 0.337874 0.337971
0.203793 0.194013 0.191868
0.281420 0.283063 0.282361
0.291052 0.292328 0.294320
0.193984 0.194085 0.193981
0.234066 0.237855 0.238097
0.238214 0.236039 0.237306
0.286696 0.285950 0.285691
0.145878 0.146366 0.147603
0.239076 0.241875 0.241851
0.247325 0.244059 0.242162
0.159609 0.159747 0.159402
0.126676 0.129360 0.130359
0.157720 0.156650 0.159125
0.146957 0.147352 0.145494
0.192292 0.185179 0.184553
0.258090 0.256261 0.257262
0.246938 0.252630 0.254056
0.189153 0.193407 0.194244
0.220916 0.221658 0.221830
0.126418 0.127157 0.127126
0.238291 0.215818 0.212058
0.268599 0.266064 0.265526
0.378718 0.377032 0.363896
0.243794 0.241805 0.227968
0.193326 0.192268 0.191668
0.165319 0.165132 0.164911
0.362795 0.363599 0.363756
0.192134 0.191727 0.185548
0.191565 0.190947 0.190719
0.246493 0.258208 0.258927
0.218166 0.216352 0.216125
0.132171 0.130002 0.129761
0.222774 0.222880 0.222463
0.147293 0.146897 0.147134
0.143195 0.142996 0.145489
0.327889 0.328991 0.329441
0.193253 0.198249 0.199531
0.190609 0.197508 0.198835
0.162313 0.155661 0.153349
0.219528 0.219392 0.218984
0.265469 0.257843 0.255830
0.190450 0.189226 0.188476
0.179758 0.180749 0.180615
0.154505 0.154845 0.155390
0.169484 0.167672 0.167814
0.220307 0.219096 0.220364
0.263983 0.264508 0.264392
0.151569 0.151766 0.153121
0.156564 0.156310 0.155017
0.220283 0.221293 0.221733
0.164643 0.158306 0.157730
0.201000 0.201522 0.201763
0.272356 0.272689 0.274572
0.213375 0.212826 0.211638
0.244236 0.237801 0.237881
0.265511 0.266158 0.266802
0.223124 0.221657 0.220566
0.160961 0.160191 0.160459
0.146143 0.150354 0.151357
0.179893 0.180821 0.180610
0.136072 0.135113 0.134816
0.168100 0.168703 0.168726
0.167961 0.167263 0.166695
0.217392 0.218109 0.220068
0.164284 0.165861 0.166848
0.188089 0.188636 0.189021
0.318224 0.319276 0.338620
0.124515 0.124349 0.124097
0.146955 0.146905 0.146957
0.233940 0.234535 0.235201
0.237409 0.242932 0.245437
0.153930 0.154117 0.154214
0.184658 0.187046 0.187682
0.166506 0.165738 0.163713
0.382863 0.383336 0.381667
0.326356 0.328487 0.328840
0.285180 0.285333 0.286062
0.235792 0.241747 0.241236
0.256378 0.254803 0.255115
0.195418 0.197252 0.197487
0.296931 0.296783 0.294308
0.145875 0.146469 0.146590
0.101339 0.101313 0.100771
0.193585 0.192611 0.191979
0.195302 0.194771 0.194262
0.174889 0.174838 0.174448
0.287138 0.287222 0.303435
0.198226 0.193302 0.192248
0.210378 0.215256 0.215996
0.153085 0.151853 0.151799
0.162488 0.162415 0.160191
0.193672 0.194493 0.195152
0.289611 0.292821 0.294308
0.185687 0.188470 0.187122
0.154306 0.154100 0.153397
0.254641 0.254169 0.250512
