0.092400 0.093045 0.093068
0.081624 0.081112 0.079586
0.075892 0.075998 0.076204
0.071063 0.070945 0.070539
0.081827 0.081023 0.080067
0.087237 0.086835 0.086111
0.112561 0.112354 0.112232
0.043926 0.044358 0.045135
0.120227 0.119526 0.119175
0.095025 0.095791 0.095679
0.073482 0.073401 0.072917
0.104112 0.104325 0.105549
0.062130 0.062185 0.062894
0.080590 0.080516 0.080415
0.073490 0.073489 0.073456
0.057271 0.057295 0.057136
0.079016 0.079336 0.079555
0.099914 0.100212 0.099716
0.118162 0.118341 0.118667
0.063676 0.064056 0.065225
0.080850 0.080016 0.080357
0.114464 0.114884 0.113198
0.070347 0.070402 0.070281
0.098867 0.098793 0.099096
0.101668 0.101649 0.101165
0.113160 0.113284 0.113314
0.092699 0.092314 0.090871
0.065010 0.064648 0.063095
0.499423 0.499456 0.499490
0.111248 0.112105 0.112030
0.080311 0.080317 0.079204
0.057984 0.058503 0.059206
0.079958 0.081667 0.082905
0.077171 0.077154 0.077680
0.069345 0.068975 0.069025
0.068969 0.069171 0.068959
0.086498 0.086845 0.086872
0.064956 0.065270 0.066120
0.104082 0.104119 0.104013
0.111136 0.112031 0.112399
0.097630 0.095586 0.095629
0.077394 0.076546 0.076047
0.085996 0.086122 0.086072
0.155855 0.156001 0.156362
0.092571 0.092778 0.092912
0.350133 0.349369 0.349141
0.048968 0.049787 0.050339
0.102253 0.101354 0.101459
0.104420 0.104437 0.102751
0.088692 0.089010 0.087676
0.088240 0.089266 0.089408
0.092059 0.092021 0.092061
0.069090 0.069158 0.068975
0.065344 0.065443 0.066426
0.064384 0.064147 0.064232
0.065364 0.065264 0.065357
0.072226 0.072232 0.072111
0.059860 0.059978 0.060651
0.052160 0.051968 0.052116
0.080790 0.081572 0.081719
0.062518 0.061310 0.061702
0.104628 0.104635 0.104214
0.095732 0.095241 0.090294
0.076219 0.075897 0.075785
0.064442 0.063758 0.063741
0.106850 0.106858 0.106908
0.086450 0.086729 0.084265
0.072693 0.072817 0.072779
0.095025 0.094445 0.095517
0.074890 0.075256 0.075055
0.086439 0.086130 0.085902
0.499690 0.499798 0.499839
0.100739 0.100637 0.100261
0.071851 0.071474 0.071768
0.075410 0.075233 0.074981
0.079661 0.078251 0.078437
0.057451 0.057620 0.057740
0.051335 0.051887 0.053608
0.482582 0.482646 0.482733
0.069304 0.069512 0.069767
0.089252 0.087754 0.088731
0.063289 0.063039 0.063012
0.086824 0.086455 0.085743
0.079996 0.079972 0.079820
0.074322 0.074458 0.075635
0.098960 0.100208 0.100999
0.425502 0.451986 0.465235
0.073706 0.073976 0.074366
0.051736 0.051711 0.051200
0.108705 0.108640 0.109437
0.059142 0.058908 0.058454
0.108213 0.107555 0.106684
0.071760 0.071661 0.071576
0.094804 0.094723 0.095023
0.067078 0.066587 0.066914
0.085409 0.085890 0.087231
0.156124 0.157022 0.157222
0.093034 0.093461 0.092779
0.085653 0.086562 0.087285
0.083211 0.083530 0.082712
0.089946 0.090240 0.090433
0.577121 0.577095 0.577070
0.095092 0.095245 0.095691
0.095379 0.095799 0.095813
0.092076 0.091955 0.091936
0.111860 0.111937 0.111826
0.095824 0.095762 0.095635
0.050415 0.050101 0.050113
0.049295 0.049432 0.051023
0.065010 0.064896 0.064869
0.050496 0.050490 0.050518
0.079971 0.080049 0.079855
0.079996 0.079488 0.076726
0.090407 0.090442 0.090469
0.070166 0.070286 0.070813
0.084268 0.084891 0.087387
0.082082 0.080868 0.079578
0.106454 0.107134 0.106587
0.042575 0.042641 0.042607
0.076035 0.077431 0.077635
0.109088 0.109112 0.109976
0.087551 0.086536 0.086181
0.057908 0.058046 0.058356
0.078571 0.077993 0.077997
0.049952 0.049602 0.050405
0.062462 0.062977 0.063059
0.063667 0.063137 0.061495
0.088936 0.088904 0.087652
0.063967 0.064002 0.064408
0.576700 0.576718 0.576743
0.051076 0.051077 0.051215
0.074553 0.074625 0.073523
0.092797 0.093062 0.094346
0.066132 0.065983 0.065540
0.080501 0.081407 0.081303
0.048184 0.048776 0.048897
0.085643 0.085268 0.084284
0.070633 0.070826 0.070744
0.065078 0.062573 0.062416
0.081694 0.082074 0.082708
0.081057 0.081789 0.081800
0.576707 0.576699 0.576711
0.075614 0.075742 0.076086
0.082155 0.082195 0.081680
0.049356 0.049085 0.048401
0.074700 0.075182 0.074977
0.073773 0.075602 0.075824
0.045183 0.044820 0.044806
0.086384 0.086078 0.085520
0.084992 0.084706 0.084333
0.099375 0.099853 0.100095
0.095233 0.090395 0.088469
0.059691 0.059784 0.059377
0.079855 0.080376 0.080695
0.095432 0.095666 0.095539
0.061128 0.061198 0.061475
0.058190 0.056940 0.056792
0.091189 0.091819 0.094113
0.075444 0.075218 0.075030
0.079082 0.079359 0.078310
0.094523 0.095497 0.095478
0.081541 0.080935 0.080609
0.084774 0.085410 0.085500
0.083348 0.082927 0.083853
0.101605 0.101624 0.102090
0.046038 0.046093 0.046243
0.052011 0.052054 0.051892
0.091230 0.090928 0.090450
0.082136 0.081603 0.081709
0.079145 0.080439 0.080452
0.109296 0.109172 0.109250
0.087365 0.087122 0.088911
0.081251 0.081248 0.081199
0.101649 0.101165 0.099811
0.098242 0.097798 0.097562
0.058033 0.056969 0.056258
0.100696 0.100704 0.100701
0.053789 0.056022 0.056233
0.075441 0.075032 0.074881
0.130659 0.128424 0.125703
0.107927 0.107457 0.106554
0.062089 0.061346 0.062188
0.099674 0.099015 0.099817
0.089395 0.089330 0.088387
0.089036 0.090344 0.090352
0.081501 0.080578 0.080214
0.096816 0.097313 0.097376
0.065423 0.065638 0.065944
0.111442 0.111271 0.110998
0.111285 0.110726 0.110431
0.083415 0.083597 0.083695
0.110873 0.110960 0.111147
0.080372 0.080678 0.081042
0.140376 0.140031 0.139545
0.104706 0.104115 0.104862
0.095202 0.095025 0.096410
0.076007 0.076013 0.076596
0.087652 0.087094 0.084940
0.079100 0.077595 0.077493
0.076138 0.074583 0.074331
0.077708 0.077652 0.077437
0.066133 0.065658 0.065169
0.063865 0.064162 0.064427
0.093141 0.090350 0.090350
0.087827 0.086799 0.086711
0.076581 0.077488 0.077914
0.088028 0.087575 0.087450
0.078609 0.078765 0.079502
0.070410 0.070688 0.071402
0.072939 0.073096 0.073138
0.065584 0.065211 0.065186
0.084037 0.084487 0.084929
0.066444 0.066097 0.065359
0.072298 0.072518 0.072597
0.081439 0.081760 0.084196
0.046789 0.046839 0.046855
0.101493 0.100448 0.099508
0.436283 0.462895 0.483877
0.079755 0.079288 0.079315
0.098571 0.100283 0.100673
0.051835 0.051303 0.051085
0.087333 0.087334 0.087254
0.041549 0.042164 0.042463
0.071027 0.071235 0.071237
0.105724 0.105783 0.105987
0.439136 0.457172 0.473851
0.067044 0.069574 0.070959
0.090462 0.090191 0.089786
0.049432 0.051023 0.051684
0.087133 0.086766 0.086529
0.142004 0.140746 0.139586
0.050684 0.050519 0.050324
0.059231 0.060607 0.060755
0.079125 0.079701 0.079848
0.070204 0.070425 0.070932
0.048345 0.048665 0.048659
0.103238 0.104324 0.103606
0.052489 0.051878 0.051713
0.082256 0.081965 0.081938
0.083118 0.091091 0.098670
0.061321 0.060908 0.060790
0.080090 0.080400 0.080957
0.107492 0.108154 0.109238
0.067893 0.067906 0.067914
0.091008 0.090847 0.090462
0.099131 0.098406 0.098870
0.130307 0.130435 0.134032
0.110685 0.110753 0.110728
0.075625 0.075838 0.077272
0.067241 0.067086 0.067219
0.047349 0.047285 0.046939
0.111624 0.111270 0.107668
0.075176 0.074779 0.074591
0.110769 0.110444 0.111306
0.054378 0.054343 0.054080
0.482877 0.482812 0.482882
0.071331 0.075534 0.075887
0.061279 0.061145 0.061016
0.095508 0.095430 0.094426
0.101871 0.102126 0.102761
0.064508 0.064502 0.064342
0.500003 0.492751 0.468757
0.091851 0.091400 0.091407
0.079306 0.078273 0.072972
0.097521 0.097335 0.097183
0.092193 0.091732 0.091689
0.074254 0.073978 0.072941
0.577483 0.577471 0.577424
0.109416 0.110826 0.115075
0.068403 0.068230 0.067928
0.052025 0.052078 0.052186
0.077969 0.080641 0.081011
0.046927 0.047010 0.046482
0.065123 0.064941 0.063735
0.084866 0.084898 0.084644
0.092840 0.092544 0.091696
0.085872 0.085628 0.085168
0.106390 0.106850 0.106858
0.051186 0.051764 0.052220
0.060023 0.060262 0.059772
0.058298 0.058120 0.058196
0.067610 0.068052 0.068698
0.099677 0.099680 0.101506
0.080668 0.081801 0.082235
0.120990 0.120855 0.120689
0.103552 0.103532 0.103309
0.109172 0.109250 0.108891
0.076651 0.076538 0.076474
0.081959 0.081575 0.080180
0.048051 0.048292 0.048440
0.105365 0.105191 0.105125
0.049381 0.049330 0.049366
0.103181 0.103283 0.103317
0.084238 0.084843 0.083766
0.071400 0.071419 0.071438
0.577015 0.576930 0.576835
0.073031 0.072465 0.066072
0.066910 0.066642 0.065286
0.083967 0.083600 0.082640
0.090734 0.090616 0.090863
0.097280 0.097290 0.097090
0.140123 0.139713 0.139448
0.110551 0.106908 0.106391
0.115874 0.115884 0.114753
0.092097 0.092845 0.093104
0.047940 0.047755 0.047732
0.080838 0.081065 0.081093
0.069119 0.069137 0.069054
0.089714 0.090074 0.090200
0.085592 0.084829 0.089757
0.076978 0.077799 0.078003
0.084361 0.084020 0.084041
0.106193 0.106342 0.106744
0.088550 0.088209 0.088220
0.066940 0.067056 0.067400
0.091936 0.092247 0.092225
0.047533 0.047716 0.048034
0.083463 0.084924 0.085040
0.048602 0.048571 0.048109
0.067127 0.067500 0.067484
0.051324 0.050728 0.050654
0.097216 0.095688 0.095590
0.089813 0.089764 0.088506
0.097204 0.097367 0.096054
0.065537 0.065456 0.065788
0.053044 0.053070 0.051621
0.087539 0.087195 0.086848
0.081646 0.082044 0.081807
0.083330 0.081873 0.081733
0.080117 0.080862 0.080983
0.059817 0.060777 0.061524
0.072494 0.072447 0.072651
0.063444 0.063504 0.063724
0.064779 0.065640 0.067506
0.046919 0.046034 0.045826
0.051204 0.051113 0.050975
0.103931 0.103644 0.104697
0.058093 0.057990 0.058440
0.079741 0.079486 0.080283
0.061653 0.059691 0.059008
0.116504 0.116522 0.116083
0.073164 0.073355 0.073426
0.081117 0.080701 0.081326
0.089971 0.089696 0.090510
0.082365 0.082391 0.082259
0.049352 0.049348 0.049182
0.051265 0.051447 0.051843
0.073352 0.073352 0.073496
0.075918 0.074054 0.073443
0.135830 0.135744 0.135087
0.087761 0.087778 0.087383
0.101771 0.102063 0.101691
0.112354 0.112232 0.112040
0.070838 0.070128 0.069188
0.085864 0.085966 0.084894
0.086452 0.086056 0.085760
0.090886 0.091047 0.091639
0.113044 0.112378 0.110953
0.082060 0.082378 0.082700
0.085461 0.084750 0.084676
0.099817 0.100640 0.101220
0.085522 0.084870 0.085706
0.145454 0.145122 0.142799
0.097605 0.097521 0.097335
0.063461 0.065101 0.065026
0.087320 0.087242 0.087275
0.081155 0.081024 0.077918
0.063260 0.063195 0.063371
0.069305 0.069481 0.070018
0.097991 0.097775 0.097837
0.066307 0.066397 0.066427
0.077255 0.081108 0.086592
0.139708 0.139447 0.139570
0.051517 0.051437 0.051267
0.084993 0.089713 0.091115
0.097176 0.095989 0.095011
0.052408 0.050100 0.048597
0.095605 0.092360 0.092565
0.084224 0.083922 0.083111
0.075673 0.077067 0.077402
0.070000 0.070321 0.070293
0.090680 0.089362 0.088919
0.084902 0.085002 0.084803
0.067758 0.068894 0.068693
0.067899 0.067920 0.067984
0.079251 0.078937 0.079299
0.050436 0.050390 0.050345
0.046967 0.047017 0.047181
0.083990 0.084412 0.084436
0.079625 0.080011 0.079837
0.131451 0.131138 0.130823
0.072235 0.072106 0.072386
0.113420 0.114644 0.114953
0.067031 0.066793 0.066801
0.053209 0.054123 0.055052
0.139959 0.139841 0.139994
0.117495 0.118305 0.115009
0.070930 0.070430 0.070132
0.110078 0.110072 0.108666
0.050493 0.050453 0.050531
0.092715 0.092613 0.092785
0.113724 0.114026 0.114121
0.096232 0.095731 0.096469
0.090535 0.089915 0.088263
0.077847 0.077583 0.077377
0.071070 0.071244 0.071321
0.070746 0.071041 0.071084
0.109165 0.108960 0.104472
0.062418 0.062807 0.062828
0.105968 0.104268 0.104284
0.071692 0.071339 0.070561
0.097634 0.097229 0.097273
0.095046 0.095277 0.095240
0.096774 0.096636 0.096102
0.055141 0.055572 0.056307
0.088119 0.087807 0.087275
0.482883 0.482704 0.482700
0.063024 0.062307 0.061997
0.071722 0.070996 0.070945
0.059950 0.059198 0.059267
0.047522 0.047597 0.048061
0.062534 0.062450 0.063413
0.076101 0.075396 0.076189
0.098384 0.098966 0.098684
0.137924 0.137770 0.137496
0.092026 0.092578 0.091307
0.081199 0.080838 0.081065
0.064982 0.065210 0.064676
0.047082 0.047320 0.047426
0.088682 0.088438 0.088360
0.065762 0.065911 0.066833
0.100091 0.100286 0.100346
0.083789 0.083647 0.082874
0.062396 0.062110 0.062089
0.068956 0.069423 0.069901
0.083687 0.082968 0.082695
0.061707 0.061675 0.061677
0.050888 0.050435 0.050634
0.095571 0.095542 0.095487
0.051676 0.051885 0.052049
0.047897 0.048027 0.048099
0.079397 0.078245 0.076938
0.073495 0.074214 0.074935
0.095154 0.095211 0.095950
0.081583 0.081290 0.081057
0.063425 0.063168 0.063027
0.111170 0.111005 0.111664
0.064980 0.064967 0.065254
0.081020 0.081362 0.083107
0.107191 0.107215 0.107179
0.054598 0.054025 0.054515
0.099398 0.099000 0.098319
0.106630 0.107555 0.107668
0.062551 0.063199 0.063602
0.083603 0.083545 0.083363
0.104426 0.105809 0.105564
0.111991 0.111201 0.110078
0.058920 0.059004 0.058983
0.082620 0.082475 0.082477
0.046319 0.048412 0.049254
0.102627 0.102448 0.104699
0.098445 0.097405 0.097250
0.061425 0.061473 0.060588
0.079837 0.079904 0.078651
0.044462 0.043642 0.043540
0.075994 0.075758 0.075385
0.047551 0.047436 0.047396
0.084918 0.089657 0.090040
0.085304 0.084902 0.085002
0.080873 0.082119 0.082142
0.088190 0.088205 0.087922
0.108379 0.108022 0.107616
0.084373 0.084391 0.084101
0.116737 0.114849 0.114578
0.089374 0.089234 0.088431
0.088077 0.088362 0.088880
0.048428 0.048495 0.048392
0.083881 0.084016 0.085743
0.061625 0.060792 0.060719
0.079175 0.078411 0.079082
0.070599 0.071291 0.071636
0.065832 0.067536 0.072035
0.099989 0.099725 0.099131
0.049872 0.049589 0.049554
0.080092 0.080875 0.081110
0.103700 0.103026 0.103067
0.087511 0.087438 0.087372
0.090279 0.089809 0.089552
0.084984 0.085226 0.085567
0.060280 0.061576 0.061223
0.080901 0.080665 0.080176
0.071192 0.071678 0.071630
0.072192 0.072385 0.073341
0.114617 0.114981 0.115897
0.087170 0.087282 0.086892
0.087952 0.088041 0.087860
0.062349 0.062262 0.062564
0.088317 0.089491 0.089884
0.079411 0.080187 0.080229
0.098563 0.098334 0.098311
0.062509 0.062526 0.061673
0.088387 0.088487 0.088650
0.483226 0.483166 0.483150
0.104481 0.104938 0.104848
0.074046 0.074073 0.073983
0.096183 0.097559 0.097487
0.087120 0.086592 0.087026
0.065779 0.065966 0.065829
0.072315 0.072543 0.072187
0.065296 0.065518 0.065205
0.066580 0.066472 0.066415
0.102848 0.103014 0.102576
0.055673 0.055267 0.054906
0.097970 0.098649 0.099854
0.136741 0.161621 0.218528
0.096596 0.095702 0.095471
0.087688 0.088038 0.087958
0.065835 0.065609 0.066177
0.082119 0.082239 0.082527
0.091947 0.091072 0.090891
0.078243 0.078327 0.080889
0.112398 0.111631 0.110208
0.049939 0.049925 0.049871
0.088670 0.088661 0.088475
0.090682 0.090584 0.090678
0.064480 0.063215 0.063135
0.111469 0.111558 0.110751
0.081144 0.083370 0.083588
0.081951 0.081880 0.082915
0.068522 0.068176 0.064423
0.482846 0.482825 0.482837
0.077226 0.077059 0.076766
0.072267 0.072790 0.073438
0.085049 0.084288 0.083910
0.051602 0.051870 0.051981
0.082386 0.081881 0.081868
0.048977 0.048977 0.049108
0.086972 0.085586 0.081719
0.101885 0.101740 0.101770
0.079085 0.079276 0.079166
0.060241 0.059855 0.059134
0.104629 0.105752 0.106683
0.111651 0.112107 0.114373
0.045114 0.044818 0.044828
0.503741 0.503886 0.504017
0.099476 0.099101 0.099846
0.088397 0.088730 0.089767
0.083264 0.083224 0.083253
0.058624 0.057512 0.059817
0.095515 0.095328 0.095064
0.068354 0.067598 0.067722
0.137662 0.139614 0.139784
0.104701 0.105237 0.105518
0.049066 0.048462 0.048268
0.102561 0.103179 0.103070
0.103176 0.104201 0.104231
0.065530 0.066204 0.067199
0.077068 0.077040 0.076812
0.068356 0.067192 0.066860
0.079985 0.079880 0.079806
0.044940 0.044527 0.044442
0.063400 0.064336 0.064347
0.068162 0.068810 0.068493
0.066214 0.065892 0.065625
0.083653 0.084081 0.085759
0.074214 0.074935 0.075442
0.087469 0.087235 0.086517
0.056638 0.058955 0.059378
0.075817 0.075069 0.075198
0.063063 0.063199 0.063229
0.089613 0.089169 0.088924
0.068986 0.068495 0.069364
0.062419 0.062089 0.062143
0.267612 0.104160 0.095419
0.091840 0.091822 0.090837
0.078532 0.090106 0.092115
0.091720 0.091655 0.092496
0.086573 0.086894 0.087745
0.054080 0.053614 0.053453
0.065583 0.065600 0.065565
0.058962 0.058997 0.058592
0.092015 0.094369 0.095206
0.107690 0.107981 0.108135
0.084730 0.083145 0.083051
0.041812 0.041737 0.041748
0.082134 0.082287 0.082348
0.070546 0.070738 0.070766
0.073601 0.074296 0.076560
0.113833 0.114420 0.115069
0.078613 0.077789 0.079776
0.077993 0.077997 0.076201
0.507372 0.508832 0.509270
0.094445 0.095517 0.095661
0.482603 0.482078 0.481689
0.048496 0.048034 0.047891
0.125229 0.125346 0.124586
0.046973 0.048794 0.049649
0.058423 0.059145 0.059534
0.084880 0.085217 0.086390
0.136548 0.138335 0.139192
0.118600 0.116118 0.119020
0.075069 0.075198 0.075117
0.104692 0.103740 0.103277
0.104001 0.104686 0.104628
0.065029 0.063159 0.063447
0.070940 0.070666 0.069732
0.074931 0.074979 0.071838
0.096636 0.096201 0.097228
0.081572 0.081486 0.081382
0.125728 0.125954 0.126257
0.070660 0.071083 0.071916
0.069565 0.070649 0.070624
0.071393 0.071524 0.071810
0.082126 0.082258 0.082378
0.084622 0.084506 0.084493
0.046642 0.046965 0.047866
0.097288 0.096893 0.098909
0.066225 0.066588 0.066737
0.047173 0.047145 0.047229
0.092150 0.091803 0.091798
0.048029 0.048079 0.048217
0.059164 0.058954 0.058738
0.078972 0.079169 0.079419
0.060985 0.060871 0.060807
0.084945 0.085112 0.085956
0.095487 0.095417 0.094848
0.064346 0.065194 0.065225
0.152536 0.152302 0.148778
0.059169 0.059087 0.059065
0.057481 0.057517 0.058410
0.576609 0.576342 0.577446
0.087089 0.085033 0.083730
0.077865 0.078155 0.078629
0.075595 0.076748 0.077784
0.075618 0.076006 0.075924
0.069700 0.070089 0.070477
0.100218 0.100407 0.100494
0.113752 0.114026 0.114147
0.088400 0.088038 0.088458
0.102100 0.101746 0.101725
0.118742 0.118853 0.118138
0.086350 0.085191 0.084360
0.065840 0.065780 0.065885
0.086980 0.087725 0.087819
0.073308 0.073301 0.073546
0.070035 0.069672 0.070313
0.043091 0.043808 0.043860
0.069755 0.070041 0.072538
0.068715 0.069168 0.070601
0.070477 0.069927 0.070542
0.068157 0.067878 0.068535
0.049173 0.048971 0.048767
0.083189 0.082992 0.083087
0.081431 0.081979 0.082086
0.089362 0.088123 0.087560
0.076502 0.076482 0.076754
0.095851 0.095978 0.096477
0.061369 0.061884 0.062488
0.073465 0.073624 0.072939
0.482535 0.482610 0.482729
0.053807 0.050990 0.050751
0.080858 0.081193 0.081936
0.060241 0.060228 0.060160
0.082583 0.082621 0.082994
0.085794 0.085643 0.085205
0.079276 0.079166 0.079278
0.071980 0.071696 0.071111
0.109864 0.113061 0.112873
0.065102 0.062692 0.062686
0.096513 0.096721 0.098027
0.073490 0.073791 0.074464
0.133113 0.132422 0.131216
0.067643 0.066970 0.065757
0.576327 0.577425 0.577505
0.097192 0.096321 0.095343
0.088209 0.088220 0.088936
0.086965 0.087133 0.086766
0.068719 0.068453 0.068797
0.086892 0.086110 0.085500
0.082219 0.081925 0.082021
0.083000 0.083222 0.083615
0.070566 0.069798 0.069736
0.053251 0.052812 0.052854
0.085170 0.084933 0.085029
0.087894 0.088198 0.085419
0.042259 0.042480 0.042693
0.112268 0.112490 0.112590
0.078894 0.075091 0.075121
0.095329 0.095024 0.097832
0.083167 0.082505 0.081793
0.074031 0.074512 0.074677
0.118349 0.119711 0.119839
0.071115 0.071152 0.071601
0.095208 0.095970 0.096208
0.109673 0.108821 0.108488
0.092248 0.092075 0.091967
0.503736 0.503688 0.503766
0.078739 0.079003 0.079146
0.092544 0.091696 0.090644
0.100073 0.099514 0.099177
0.065428 0.065476 0.065395
0.098383 0.098175 0.097968
0.070275 0.070157 0.070396
0.076136 0.076046 0.075964
0.054708 0.054592 0.055003
0.053118 0.054905 0.054901
0.080624 0.079379 0.079132
0.069586 0.070563 0.070606
0.080700 0.081220 0.081451
0.108066 0.110896 0.109543
0.080524 0.081347 0.080669
0.106310 0.106382 0.107015
0.078937 0.079133 0.079448
0.101902 0.102458 0.103022
0.094337 0.094497 0.094849
0.102873 0.102386 0.102438
0.118189 0.117981 0.118309
0.050959 0.051705 0.051943
0.070209 0.070410 0.070688
0.114589 0.114320 0.114170
0.080914 0.080967 0.081149
0.051951 0.051791 0.051711
0.072416 0.073096 0.074414
0.091435 0.092097 0.092845
0.087811 0.087684 0.087745
0.053052 0.053035 0.053000
0.092851 0.090160 0.088458
0.083287 0.082945 0.082722
0.091756 0.091373 0.091653
0.099344 0.099187 0.096954
0.049488 0.049187 0.048551
0.042842 0.042762 0.043014
0.086489 0.086532 0.086555
0.347277 0.347265 0.343981
0.096065 0.096458 0.095093
0.072838 0.072269 0.073493
0.069036 0.069200 0.068346
0.095082 0.095121 0.086570
0.073092 0.073275 0.073738
0.067523 0.067695 0.068215
0.073154 0.073154 0.073417
0.575384 0.575552 0.576739
0.072582 0.073166 0.073229
0.090171 0.090474 0.091090
0.063207 0.063079 0.062679
0.083219 0.083529 0.082564
0.109275 0.109332 0.109503
0.059665 0.058514 0.058184
0.088515 0.088354 0.087762
0.097738 0.097681 0.095506
0.049838 0.050106 0.050254
0.081452 0.080084 0.080250
0.103987 0.104001 0.104686
0.096596 0.095352 0.095033
0.086165 0.084751 0.084802
0.044186 0.044379 0.044661
0.047361 0.047272 0.046937
0.111631 0.111095 0.109209
0.101667 0.102578 0.102261
0.105091 0.105646 0.105715
0.096471 0.096812 0.098329
0.072720 0.072255 0.071936
0.089917 0.089724 0.089508
0.071352 0.071674 0.071631
0.046568 0.045498 0.045196
0.075961 0.076086 0.076052
0.066274 0.070761 0.071857
0.065947 0.065686 0.065631
0.091726 0.091367 0.091458
0.047446 0.047646 0.048241
0.086704 0.087040 0.086179
0.095294 0.094480 0.094227
0.072067 0.072074 0.072077
0.075647 0.075483 0.074005
0.041395 0.041649 0.042748
0.068827 0.069457 0.069376
0.103812 0.103987 0.104001
0.105992 0.106242 0.107125
0.071494 0.072416 0.073096
0.091062 0.091101 0.091434
0.070560 0.069495 0.069781
0.088423 0.088368 0.087762
0.103089 0.103048 0.103041
0.081845 0.083126 0.083934
0.076288 0.076140 0.076036
0.075978 0.075925 0.076911
0.077273 0.076486 0.076497
0.061317 0.061262 0.061247
0.114178 0.114418 0.115554
0.056271 0.056489 0.056646
0.091939 0.091004 0.090956
0.482497 0.482480 0.482317
0.576767 0.576542 0.576556
0.092548 0.102399 0.103189
0.051879 0.050993 0.042383
0.184648 0.161615 0.139379
0.482316 0.482335 0.482354
0.042916 0.040965 0.039681
0.066297 0.065735 0.065049
0.105710 0.105844 0.105509
0.078165 0.077405 0.076777
0.088691 0.088274 0.087244
0.078913 0.078470 0.078717
0.061199 0.059660 0.059728
0.092090 0.091862 0.091659
0.065403 0.065319 0.065389
0.077266 0.077777 0.078000
0.079001 0.079585 0.079675
0.049346 0.048699 0.047841
0.080721 0.081348 0.085696
0.068496 0.067218 0.066107
0.082807 0.081646 0.082044
0.095808 0.096217 0.095699
0.095791 0.095679 0.095682
0.071546 0.071673 0.071750
0.071932 0.072582 0.073218
0.080863 0.080779 0.083253
0.077841 0.077547 0.076881
0.080448 0.079503 0.079288
0.044105 0.044104 0.044138
0.089451 0.089153 0.088729
0.048966 0.049058 0.049072
0.085034 0.085226 0.085246
0.091815 0.092228 0.094650
0.064920 0.065031 0.065038
0.048366 0.048625 0.048601
0.073813 0.073086 0.072562
0.054098 0.053688 0.053774
0.061465 0.060532 0.060324
0.072865 0.071715 0.073492
0.085730 0.086077 0.086401
0.071465 0.071519 0.073034
0.103191 0.103515 0.103967
0.110949 0.110959 0.111400
0.499455 0.499690 0.499798
0.064301 0.064266 0.063941
0.087455 0.087498 0.087604
0.071767 0.071283 0.071692
0.072799 0.071727 0.071687
0.125954 0.126257 0.128433
0.091032 0.092070 0.092746
0.071513 0.071923 0.072654
0.048577 0.048547 0.048103
0.100885 0.100740 0.100375
0.067274 0.067713 0.067457
0.087115 0.089046 0.089918
0.122746 0.123123 0.123405
0.085254 0.085859 0.086608
0.138888 0.139262 0.139301
0.060324 0.061213 0.061162
0.073867 0.074235 0.073680
0.054839 0.054848 0.055321
0.065016 0.065086 0.065136
0.140881 0.141326 0.141211
0.080836 0.082154 0.084643
0.088390 0.088462 0.088107
0.086519 0.086419 0.086234
0.068109 0.067834 0.067618
0.079106 0.079477 0.079325
0.076461 0.076543 0.076330
0.049125 0.049330 0.049468
0.058719 0.059384 0.060606
0.096493 0.097539 0.101819
0.079415 0.079047 0.077359
0.120570 0.120559 0.120525
0.065267 0.065195 0.065276
0.062048 0.060344 0.060254
0.091692 0.091594 0.091207
0.085055 0.084961 0.084789
0.071104 0.071417 0.071632
0.576200 0.574514 0.574016
0.071994 0.072876 0.074171
0.092556 0.093505 0.093716
0.064334 0.064633 0.065354
0.107513 0.107406 0.107407
0.089405 0.090916 0.092909
0.087139 0.085825 0.084300
0.042615 0.042611 0.042642
0.075844 0.075470 0.075468
0.094589 0.091848 0.091422
0.062081 0.061463 0.062324
0.081828 0.081855 0.082346
0.083633 0.084179 0.084565
0.074555 0.074417 0.075990
0.072765 0.073492 0.073383
0.057718 0.057200 0.056668
0.046893 0.046808 0.046820
0.081609 0.081920 0.082104
0.103024 0.103069 0.103190
0.103422 0.102900 0.103029
0.061227 0.060457 0.060414
0.087120 0.087279 0.087459
0.381733 0.382491 0.382748
0.123541 0.123240 0.121402
0.083255 0.083182 0.083266
0.086645 0.086607 0.086216
0.084676 0.084576 0.084981
0.059705 0.060303 0.062643
0.080163 0.080429 0.079887
0.099555 0.098537 0.097346
0.048381 0.048457 0.048792
0.102421 0.101844 0.101580
0.065952 0.065796 0.065717
0.115879 0.115107 0.113592
0.102984 0.105925 0.107084
0.509427 0.509570 0.509789
0.084750 0.084676 0.084576
0.093036 0.092343 0.090116
0.065906 0.065625 0.065672
0.077561 0.078406 0.080096
0.057112 0.057227 0.057391
0.068618 0.067956 0.066198
0.072917 0.072080 0.071965
0.577173 0.577136 0.577099
0.085459 0.083815 0.082719
0.065204 0.065265 0.065428
0.061375 0.061310 0.061279
0.084897 0.083909 0.083378
0.104508 0.104644 0.104841
0.061599 0.061591 0.061602
0.052075 0.052074 0.052145
0.041837 0.041403 0.041449
0.060711 0.060857 0.061111
0.059017 0.058291 0.057634
0.057751 0.057842 0.058133
0.079419 0.079247 0.074422
0.091072 0.090671 0.090043
0.083613 0.083455 0.083291
0.094043 0.093258 0.092005
0.079643 0.079812 0.079842
0.142968 0.142285 0.141392
0.073345 0.073388 0.073253
0.049787 0.050339 0.050439
0.069246 0.069490 0.069655
0.049445 0.049370 0.049389
0.055041 0.054999 0.053022
0.053059 0.052826 0.053055
0.054708 0.054692 0.054634
0.095465 0.095235 0.095704
0.101481 0.101798 0.101964
0.052791 0.052689 0.052371
0.083829 0.084015 0.084168
0.063231 0.063235 0.062807
0.071696 0.072821 0.073640
0.080204 0.081853 0.081885
0.116509 0.115090 0.114784
0.071432 0.071896 0.072683
0.100055 0.099691 0.098315
0.092689 0.092886 0.093930
0.064189 0.066187 0.066310
0.073333 0.073278 0.073282
0.095668 0.095923 0.096168
0.087872 0.088942 0.089623
0.051071 0.051073 0.051146
0.094309 0.089547 0.089651
0.084187 0.082994 0.082489
0.045333 0.045332 0.045387
0.091401 0.091888 0.092148
0.099947 0.099555 0.098537
0.082640 0.080977 0.081160
0.067548 0.068161 0.069109
0.483356 0.483329 0.483502
0.079046 0.079115 0.079457
0.081191 0.080705 0.081241
0.082986 0.082532 0.083218
0.062960 0.063060 0.063292
0.081052 0.080938 0.081125
0.073876 0.073743 0.073748
0.106672 0.106918 0.106886
0.071511 0.071566 0.071947
0.143040 0.142007 0.140865
0.060718 0.060705 0.060857
0.067503 0.067701 0.068222
0.049859 0.050272 0.050562
0.091906 0.090948 0.090752
0.109130 0.110094 0.110721
0.072375 0.071211 0.070859
0.509260 0.509432 0.509420
0.067448 0.069061 0.069166
0.109758 0.109624 0.110004
0.102043 0.105350 0.105327
0.482608 0.482734 0.483170
0.078284 0.078962 0.079068
0.074893 0.075176 0.074779
0.045314 0.045278 0.044988
0.096080 0.095757 0.095597
0.044148 0.044654 0.044640
0.348468 0.348102 0.347268
0.080078 0.079842 0.079661
0.067907 0.067870 0.067899
0.106794 0.105996 0.105039
0.053904 0.054411 0.054350
0.065245 0.067114 0.067233
0.101765 0.101872 0.102173
0.082213 0.082271 0.082369
0.067804 0.069193 0.069443
0.078104 0.077875 0.078064
0.509216 0.509260 0.509432
0.048973 0.049109 0.049296
0.074220 0.074176 0.074185
