0.213516 0.218381 0.218461
0.156831 0.158546 0.158642
0.088133 0.088482 0.088403
0.207319 0.206220 0.204491
0.197221 0.195795 0.195570
0.205243 0.204199 0.202741
0.131501 0.131345 0.131151
0.254900 0.254371 0.254928
0.207611 0.207356 0.205822
0.243453 0.243543 0.242907
0.087982 0.088383 0.088236
0.171689 0.172832 0.173850
0.132299 0.132007 0.131193
0.224037 0.221920 0.220925
0.195361 0.195215 0.195681
0.074566 0.074851 0.074892
0.101024 0.099971 0.099472
0.092656 0.093173 0.092598
0.167326 0.174073 0.175311
0.082979 0.083307 0.082726
0.212890 0.213732 0.215001
0.081059 0.080908 0.080344
0.334563 0.334085 0.336700
0.112378 0.112447 0.112532
0.145037 0.148094 0.149333
0.160910 0.160954 0.162994
0.142954 0.143775 0.145275
0.237691 0.238128 0.238337
0.297415 0.297064 0.298174
0.084161 0.084310 0.083944
0.074624 0.074581 0.074406
0.169754 0.169434 0.171404
0.138456 0.138778 0.138251
0.193749 0.193695 0.193730
0.145351 0.144953 0.146748
0.087860 0.088559 0.088762
0.179734 0.180278 0.180791
0.077737 0.078828 0.078319
0.067391 0.067106 0.066505
0.201852 0.200732 0.200385
0.169601 0.171057 0.169744
0.341962 0.343730 0.344091
0.190347 0.189457 0.192061
0.212293 0.211250 0.211403
0.244894 0.251360 0.251810
0.079404 0.079170 0.079443
0.225787 0.225230 0.226145
0.211620 0.215826 0.216088
0.106289 0.106581 0.104950
0.113524 0.111532 0.111487
0.088181 0.088786 0.088959
0.143775 0.145275 0.148068
0.112901 0.112615 0.113208
0.234483 0.236133 0.238656
0.136201 0.136135 0.136003
0.066980 0.067052 0.066542
0.127384 0.126728 0.129271
0.084346 0.084394 0.084413
0.302661 0.304572 0.304548
0.140075 0.140031 0.141008
0.070649 0.070310 0.070407
0.177062 0.181335 0.184504
0.193937 0.192990 0.193212
0.217430 0.217739 0.217298
0.158116 0.157984 0.159677
0.084504 0.084680 0.084569
0.127988 0.126405 0.128432
0.212455 0.216931 0.219015
0.153171 0.154967 0.154172
0.217053 0.224775 0.226230
0.187002 0.186530 0.188315
0.318420 0.316263 0.309719
0.121284 0.119044 0.118751
0.136443 0.136795 0.136999
0.080765 0.080944 0.080866
0.067367 0.066645 0.066250
0.075451 0.075676 0.075535
0.255419 0.256458 0.258852
0.175886 0.175401 0.175112
0.210706 0.211143 0.210897
0.289938 0.291877 0.292739
0.066902 0.067339 0.067367
0.130490 0.130590 0.130402
0.153145 0.154572 0.154767
0.195609 0.194902 0.194735
0.228899 0.228063 0.226184
0.082952 0.082686 0.082207
0.384265 0.388591 0.386543
0.142658 0.142762 0.142148
0.130163 0.129795 0.129254
0.216624 0.213839 0.213060
0.120174 0.121722 0.122911
0.103018 0.102611 0.102298
0.085899 0.087347 0.089589
0.076477 0.076077 0.077541
0.205122 0.204751 0.204475
0.238704 0.239131 0.242123
0.089389 0.089217 0.089154
0.204830 0.204976 0.206564
0.066565 0.067367 0.066645
0.115934 0.114890 0.114432
0.155414 0.156787 0.159517
0.215602 0.215924 0.224692
0.181083 0.180159 0.176994
0.186260 0.186798 0.186956
0.076092 0.075706 0.075799
0.101485 0.102348 0.103585
0.166613 0.166452 0.166471
0.256195 0.256131 0.256199
0.083853 0.083797 0.082413
0.170959 0.170993 0.171390
0.083339 0.083618 0.082608
0.095645 0.095581 0.095041
0.081286 0.081193 0.081783
0.100706 0.099695 0.099402
0.089326 0.088807 0.088641
0.100583 0.100694 0.101152
0.110532 0.110424 0.108346
0.175172 0.174836 0.174571
0.167030 0.169946 0.170946
0.115434 0.114658 0.113786
0.221789 0.223705 0.223544
0.210584 0.211217 0.211847
0.193047 0.194445 0.193358
0.200746 0.203247 0.201825
0.129652 0.129825 0.129298
0.201177 0.195105 0.193387
0.207765 0.205969 0.201885
0.146569 0.147616 0.147134
0.175163 0.174600 0.174284
0.174486 0.177620 0.179485
0.072070 0.072039 0.070716
0.090847 0.090858 0.090822
0.254864 0.256740 0.255241
0.183972 0.180810 0.180389
0.090596 0.090651 0.090338
0.205985 0.194162 0.192182
0.106050 0.106047 0.105035
0.070355 0.069306 0.069157
0.074895 0.074470 0.074079
0.223950 0.225028 0.224649
0.078714 0.080427 0.081066
0.066303 0.066111 0.066041
0.146992 0.146686 0.146240
0.080498 0.080814 0.080915
0.217271 0.219650 0.218670
0.208984 0.212528 0.212344
0.238594 0.238584 0.237474
0.202775 0.204684 0.205820
0.077079 0.077245 0.076682
0.077708 0.077630 0.077506
0.144657 0.144761 0.146469
0.258823 0.259111 0.258725
0.142337 0.142292 0.143087
0.070742 0.071480 0.071882
0.183923 0.183867 0.184077
0.175907 0.178365 0.182340
0.194785 0.195155 0.195463
0.196685 0.195064 0.193546
0.171897 0.171585 0.177109
0.202272 0.201341 0.201317
0.101382 0.101241 0.101096
0.136573 0.135035 0.134387
0.081038 0.080994 0.081388
0.322738 0.318835 0.315014
0.090780 0.092321 0.093048
0.085264 0.085008 0.084806
0.124033 0.124504 0.125948
0.092439 0.098282 0.099892
0.133799 0.133310 0.131762
0.122172 0.123111 0.122521
0.216878 0.216525 0.209697
0.191056 0.191858 0.198004
0.144167 0.146025 0.145277
0.084035 0.084138 0.083058
0.221728 0.222895 0.218099
0.210127 0.209793 0.210121
0.147645 0.147976 0.147725
0.334427 0.335353 0.335205
0.123076 0.121497 0.121284
0.200142 0.200705 0.200769
0.186030 0.185405 0.184079
0.115249 0.116006 0.117221
0.201499 0.200112 0.199805
0.138067 0.137253 0.137311
0.148611 0.148571 0.148716
0.134831 0.135692 0.135205
0.217172 0.216594 0.210960
0.243490 0.242850 0.240055
0.084796 0.085874 0.086451
0.213219 0.210386 0.209583
0.102470 0.102498 0.101208
0.112078 0.112902 0.112503
0.133261 0.134099 0.134039
0.194770 0.194523 0.188678
0.189128 0.190925 0.190874
0.136272 0.136218 0.137318
0.212585 0.211582 0.211553
0.201201 0.201604 0.201087
0.089787 0.090566 0.092066
0.208403 0.208204 0.207805
0.216738 0.216511 0.217456
0.202408 0.202099 0.200877
0.189282 0.190732 0.190364
0.142746 0.143224 0.143201
0.192378 0.192610 0.193062
0.219450 0.219427 0.219179
0.084069 0.084160 0.084107
0.131346 0.131357 0.132542
0.076985 0.077243 0.076868
0.192416 0.192207 0.191090
0.078229 0.078721 0.078574
0.212796 0.212958 0.212693
0.230624 0.231769 0.232181
0.189349 0.189795 0.190876
0.082319 0.082424 0.082598
0.272661 0.272940 0.267915
0.239867 0.223947 0.212734
0.202035 0.202055 0.200816
0.199430 0.208069 0.207503
0.190873 0.192538 0.196622
0.130408 0.129600 0.128688
0.068977 0.068889 0.069014
0.201299 0.202096 0.202795
0.190254 0.191330 0.191422
0.077091 0.077475 0.077842
0.202934 0.203690 0.204354
0.257397 0.254283 0.253069
0.078512 0.078125 0.077961
0.083176 0.082757 0.082327
0.144710 0.143273 0.144883
0.077513 0.077642 0.077564
0.105578 0.105485 0.103468
0.085763 0.085162 0.084938
0.081590 0.079148 0.079595
0.195758 0.194163 0.193956
0.088153 0.087870 0.088703
0.103240 0.102900 0.101930
0.074748 0.074493 0.073701
0.253048 0.253224 0.254572
0.088651 0.088627 0.088730
0.112425 0.112330 0.113393
0.064319 0.064000 0.064285
0.186181 0.184377 0.180059
0.187733 0.189159 0.189151
0.311839 0.302374 0.300189
0.165390 0.166487 0.164696
0.222943 0.222548 0.221178
0.069734 0.070300 0.070736
0.251575 0.255092 0.255768
0.312389 0.318834 0.320420
0.132392 0.132522 0.132683
0.137633 0.137794 0.138800
0.107317 0.108625 0.108853
0.180219 0.179714 0.180394
0.214990 0.212811 0.213033
0.172845 0.172889 0.172347
0.288410 0.288623 0.289491
0.183892 0.183978 0.183794
0.178979 0.178394 0.178290
0.219309 0.219245 0.217962
0.218046 0.218108 0.219540
0.162887 0.163235 0.163336
0.080220 0.080023 0.081261
0.222125 0.221934 0.221820
0.208785 0.209405 0.209873
0.081082 0.080999 0.081049
0.194212 0.194908 0.194073
0.114363 0.114198 0.112993
0.114100 0.114669 0.114304
0.100934 0.100955 0.100749
0.100613 0.100821 0.100651
0.140280 0.140395 0.139495
0.199634 0.199764 0.200615
0.212344 0.212206 0.210502
0.090669 0.090310 0.089763
0.140274 0.140210 0.140048
0.113346 0.114696 0.114876
0.185913 0.185287 0.185435
0.186489 0.190277 0.203598
0.192889 0.193094 0.193073
0.372251 0.369131 0.358765
0.149587 0.151119 0.151195
0.239948 0.239825 0.239749
0.112644 0.113249 0.112893
0.117279 0.118456 0.118009
0.168713 0.169627 0.169690
0.163395 0.161474 0.160960
0.073621 0.073538 0.073590
0.076494 0.076371 0.076493
0.232236 0.234089 0.235249
0.077146 0.077117 0.077504
0.248841 0.248505 0.248361
0.216540 0.212834 0.210476
0.129710 0.129206 0.128355
0.093227 0.093876 0.094476
0.079358 0.079290 0.079463
0.188513 0.188233 0.185639
0.191278 0.191019 0.192139
0.147458 0.147425 0.149837
0.086914 0.087036 0.087140
0.068412 0.067991 0.067526
0.236565 0.236389 0.235464
0.223394 0.223139 0.223332
0.076420 0.076556 0.076782
0.205661 0.206518 0.210091
0.148822 0.148749 0.149191
0.133436 0.133404 0.133360
0.201182 0.201051 0.201265
0.193458 0.193657 0.193816
0.220303 0.221439 0.223233
0.123043 0.122422 0.121459
0.209775 0.210051 0.210218
0.086099 0.086039 0.086212
0.182576 0.182864 0.184700
0.092649 0.092948 0.093426
0.196957 0.197074 0.198414
0.113556 0.113618 0.113603
0.248690 0.248898 0.248741
0.166461 0.167932 0.168572
0.109424 0.109864 0.110510
0.203638 0.202891 0.200586
0.175425 0.176009 0.177594
0.218674 0.218600 0.218813
0.214238 0.215402 0.215419
0.121862 0.120363 0.118569
0.184831 0.184295 0.184659
0.129750 0.129157 0.129662
0.219745 0.220696 0.218497
0.074803 0.074848 0.074580
0.161640 0.161291 0.162040
0.191106 0.189057 0.189442
0.077972 0.077915 0.078267
0.211428 0.209577 0.209019
0.189545 0.190372 0.198554
0.065057 0.064974 0.066282
0.175306 0.175353 0.175821
0.110063 0.112657 0.113978
0.217109 0.216668 0.209398
0.094725 0.095759 0.097273
0.264441 0.264718 0.264320
0.149788 0.149606 0.149509
0.141322 0.138567 0.137991
0.355538 0.353851 0.345826
0.079615 0.079725 0.080351
0.077304 0.077171 0.076486
0.195949 0.193624 0.193120
0.201358 0.200142 0.200705
0.086073 0.086059 0.086086
0.243358 0.243654 0.244228
0.215178 0.215297 0.214462
0.095552 0.094675 0.094188
0.249240 0.249266 0.249817
0.122790 0.123308 0.126474
0.304771 0.303915 0.302087
0.088402 0.086697 0.087201
0.287477 0.287146 0.288019
0.189440 0.185856 0.185352
0.193624 0.193120 0.192844
0.178342 0.178554 0.179419
0.089154 0.090666 0.090405
0.135956 0.132827 0.138686
0.204351 0.203853 0.203300
0.089481 0.089503 0.090076
0.108877 0.108660 0.108652
0.143286 0.143583 0.144861
0.080432 0.080493 0.080763
0.072419 0.072215 0.073053
0.088085 0.087896 0.086896
0.198749 0.198495 0.196250
0.264113 0.264402 0.264322
0.239976 0.235554 0.237397
0.083158 0.082825 0.083244
0.187124 0.186817 0.188365
0.083541 0.083786 0.084958
0.135949 0.136303 0.136594
0.158654 0.160755 0.161438
0.075840 0.074470 0.074436
0.078799 0.078855 0.080293
0.285687 0.285810 0.285928
0.229122 0.233410 0.233805
0.074311 0.074671 0.074683
0.213321 0.211605 0.211276
0.212173 0.212361 0.210872
0.143605 0.143861 0.143196
0.197939 0.208131 0.207385
0.216029 0.212607 0.211168
0.285665 0.285877 0.286426
0.194806 0.194137 0.193727
0.185871 0.183085 0.184615
0.191725 0.191239 0.190070
0.232253 0.234421 0.234906
0.119236 0.119106 0.119885
0.083017 0.083034 0.083192
0.158276 0.158419 0.158260
0.075980 0.076362 0.077818
0.217777 0.218628 0.219398
0.236514 0.236794 0.236799
0.079040 0.078870 0.080082
0.224373 0.219819 0.219180
0.190230 0.188860 0.188515
0.259695 0.259412 0.259428
0.184988 0.187075 0.188536
0.193497 0.187449 0.192502
0.149207 0.148926 0.148641
0.221704 0.219310 0.223340
0.171602 0.174488 0.177621
0.065516 0.065371 0.065073
0.084670 0.084744 0.084655
0.146481 0.146419 0.148051
0.219409 0.220290 0.220833
0.219042 0.218142 0.218077
0.188719 0.191793 0.191775
0.243336 0.242304 0.241439
0.182361 0.181013 0.180352
0.185227 0.189489 0.188711
0.084748 0.084704 0.084859
0.181591 0.182268 0.183620
0.185672 0.186274 0.185744
0.201568 0.199585 0.200087
0.087972 0.087989 0.088236
0.084638 0.085173 0.086471
0.097554 0.097297 0.097745
0.262947 0.263565 0.263421
0.112392 0.111912 0.112427
0.238640 0.237995 0.237698
0.189862 0.190473 0.189961
0.079432 0.079572 0.079421
0.282381 0.282009 0.281737
0.190910 0.191748 0.189124
0.085189 0.085054 0.084593
0.208725 0.207588 0.207170
0.075413 0.075518 0.075682
0.069326 0.069449 0.069136
0.138579 0.138364 0.138482
0.143794 0.143862 0.146308
0.236932 0.236915 0.236717
0.299180 0.298279 0.298264
0.136227 0.136239 0.137301
0.198264 0.197928 0.199798
0.203628 0.204259 0.201265
0.081821 0.081714 0.080802
0.078195 0.077854 0.078433
0.211887 0.213126 0.213787
0.230195 0.230132 0.230418
0.223729 0.226952 0.228608
0.079484 0.080050 0.080536
0.082382 0.082414 0.082560
0.196375 0.195158 0.193608
0.078891 0.079586 0.079762
0.192983 0.195400 0.199260
0.078644 0.078877 0.079186
0.203735 0.199416 0.199622
0.204256 0.202665 0.200815
0.226497 0.226984 0.226830
0.065316 0.065027 0.064590
0.193360 0.194635 0.194785
0.081375 0.079915 0.078668
0.206069 0.205226 0.205369
0.221552 0.220514 0.219591
0.143950 0.143898 0.143736
0.112687 0.112713 0.110965
0.132954 0.131815 0.131705
0.100979 0.100971 0.100666
0.143766 0.143848 0.141368
0.064943 0.065132 0.064863
0.241946 0.241995 0.241715
0.216551 0.205661 0.204281
0.188420 0.188003 0.187315
0.185749 0.185988 0.190001
0.156149 0.156775 0.156788
0.145941 0.145368 0.144603
0.151138 0.151675 0.152445
0.199998 0.196493 0.197290
0.304597 0.302086 0.301924
0.069853 0.070641 0.072194
0.077892 0.077742 0.077471
0.199718 0.198102 0.198028
0.161733 0.162081 0.162002
0.218713 0.215024 0.215223
0.214736 0.213957 0.214476
0.190727 0.191430 0.191358
0.318835 0.315014 0.314859
0.069749 0.069909 0.070258
0.074288 0.074198 0.074999
0.109795 0.109899 0.109781
0.219447 0.218983 0.219055
0.114305 0.114550 0.116384
0.217298 0.218912 0.220716
0.088248 0.089342 0.089426
0.075518 0.075682 0.075616
0.099598 0.099914 0.099563
0.140779 0.139326 0.137766
0.070525 0.070750 0.072117
0.094048 0.094014 0.094950
0.158901 0.158178 0.157650
0.248731 0.249363 0.250738
0.097901 0.098257 0.098200
0.102732 0.102084 0.101147
0.086804 0.086764 0.086971
0.242969 0.243809 0.256390
0.118128 0.118222 0.117751
0.088930 0.089394 0.089819
0.188222 0.188352 0.189262
0.194328 0.194702 0.195275
0.087834 0.087342 0.087952
0.161882 0.161758 0.162102
0.087189 0.086061 0.084493
0.146286 0.146163 0.145302
0.134605 0.133675 0.133657
0.208875 0.208309 0.208442
0.074935 0.074044 0.071021
0.207742 0.205492 0.202220
0.214409 0.210986 0.210503
0.172901 0.171678 0.167791
0.214505 0.216177 0.216807
0.138117 0.138900 0.137920
0.142435 0.143823 0.144336
0.143104 0.143146 0.141250
0.238492 0.237592 0.239982
0.194862 0.195616 0.195477
0.197529 0.197878 0.197009
0.193656 0.193497 0.187449
0.299189 0.298984 0.299003
0.174394 0.169502 0.169135
0.236746 0.237384 0.237746
0.090829 0.090789 0.090984
0.138345 0.137773 0.136938
0.089164 0.091385 0.092802
0.186890 0.187686 0.188401
0.090986 0.090299 0.089850
0.067210 0.067508 0.066598
0.271246 0.271076 0.270573
0.070666 0.070718 0.071308
0.082576 0.083785 0.082342
0.189335 0.188766 0.187346
0.312820 0.311474 0.302929
0.096232 0.096696 0.096021
0.067489 0.068234 0.068221
0.128360 0.128291 0.127460
0.186018 0.185610 0.185860
0.222667 0.226724 0.227654
0.192119 0.193004 0.201333
0.098519 0.098776 0.099291
0.075229 0.074420 0.074262
0.074300 0.075537 0.074265
0.065700 0.065818 0.065689
0.182440 0.180971 0.180608
0.225324 0.225234 0.224693
0.080836 0.080794 0.080250
0.090335 0.091207 0.093271
0.207114 0.204034 0.201064
0.104687 0.104624 0.105821
0.174704 0.179119 0.179979
0.227355 0.221826 0.220870
0.134622 0.134585 0.134197
0.139228 0.142090 0.142070
0.131507 0.131281 0.130744
0.202718 0.204252 0.204996
0.198102 0.199960 0.199616
0.083927 0.083772 0.083388
0.211517 0.211259 0.210402
0.082945 0.082224 0.081369
0.164106 0.162234 0.159037
0.097212 0.097315 0.096869
0.068600 0.068057 0.067957
0.165324 0.167214 0.166628
0.110832 0.111489 0.110937
0.206717 0.205520 0.203648
0.158736 0.158181 0.158889
0.093732 0.093500 0.093184
0.140151 0.142624 0.142564
0.193512 0.193946 0.190965
0.176850 0.178000 0.177902
0.193175 0.192721 0.191042
0.205633 0.205652 0.207397
0.087282 0.086558 0.086369
0.177370 0.177378 0.178481
0.263063 0.270773 0.270625
0.069313 0.070067 0.070469
0.150350 0.151476 0.151555
0.183947 0.184079 0.180397
0.213221 0.216302 0.216241
0.193770 0.193147 0.193700
0.157883 0.158273 0.158663
0.089323 0.087405 0.086719
0.153441 0.153822 0.155572
0.102654 0.102070 0.101177
0.091957 0.092149 0.093274
0.186021 0.195521 0.194732
0.192132 0.198482 0.198072
0.217269 0.217114 0.216029
0.092616 0.092833 0.092980
0.087423 0.088023 0.086780
0.143285 0.143268 0.142782
0.216529 0.216914 0.217325
0.239707 0.240011 0.240404
0.344256 0.348661 0.348795
0.250141 0.250498 0.250588
0.185884 0.191800 0.190395
0.079011 0.078150 0.078035
0.206885 0.206622 0.206517
0.170641 0.171193 0.170897
0.180126 0.177873 0.176957
0.204550 0.208310 0.208999
0.130854 0.130961 0.130918
0.192413 0.191943 0.193897
0.067942 0.067820 0.067731
0.240218 0.241102 0.240820
0.076656 0.076494 0.076371
0.345312 0.345288 0.344256
0.074319 0.074680 0.074940
0.092482 0.092053 0.091435
0.101170 0.101334 0.101745
0.198163 0.198588 0.198313
0.207092 0.205159 0.193300
0.189448 0.189780 0.191731
0.093579 0.093687 0.093868
0.074475 0.073795 0.075149
0.073701 0.073985 0.073551
0.218813 0.222595 0.223230
0.128591 0.128853 0.131019
0.172647 0.173606 0.172873
0.084413 0.084318 0.083640
0.085371 0.085497 0.085195
0.232870 0.236394 0.237645
0.083568 0.083692 0.083523
0.087076 0.087310 0.088053
0.123612 0.125391 0.125635
0.193398 0.191243 0.190557
0.181171 0.181083 0.180159
0.101516 0.101080 0.101671
0.187123 0.186854 0.186534
0.139836 0.139280 0.147053
0.089872 0.089762 0.089197
0.196783 0.201641 0.203073
0.076703 0.077362 0.077773
0.171835 0.172367 0.178122
0.233164 0.234063 0.236031
0.137493 0.137734 0.137032
0.169884 0.170082 0.171149
0.252030 0.253117 0.255444
0.185469 0.186576 0.186701
0.078871 0.078894 0.079273
0.198611 0.207142 0.208081
0.218161 0.215795 0.216738
0.078894 0.078906 0.078942
0.221911 0.221533 0.219182
0.162420 0.161860 0.163482
0.226185 0.226565 0.226627
0.202953 0.202818 0.200770
0.153312 0.147954 0.148762
0.221789 0.222444 0.226608
0.133209 0.133676 0.133546
0.208929 0.209266 0.209797
0.094563 0.094592 0.095060
0.217801 0.215851 0.214539
0.191080 0.185760 0.184979
0.085012 0.085090 0.085526
0.213890 0.213872 0.215298
0.258331 0.257167 0.257650
0.181567 0.182247 0.181053
0.115417 0.116011 0.117230
0.177340 0.177394 0.176451
0.156308 0.160009 0.162089
0.140608 0.141703 0.142918
0.190885 0.190228 0.190942
0.219485 0.219658 0.219208
0.255049 0.251895 0.251597
0.198728 0.198554 0.195879
0.156909 0.156959 0.157168
0.161336 0.161664 0.163009
0.085288 0.084051 0.084270
0.230585 0.230835 0.231387
0.171982 0.171444 0.163506
0.217295 0.216632 0.216624
0.161929 0.161884 0.163866
0.094075 0.094230 0.094823
0.089546 0.089216 0.088896
0.136890 0.131346 0.131357
0.080751 0.080856 0.079548
0.101433 0.101569 0.101851
0.158443 0.158647 0.158600
0.117878 0.116261 0.110459
0.147483 0.148966 0.151654
0.066655 0.066688 0.066805
0.075742 0.076163 0.076227
0.104676 0.105056 0.104146
0.080793 0.084558 0.085071
0.079089 0.079913 0.080002
0.126834 0.126770 0.126761
0.212317 0.212913 0.213216
0.186013 0.186132 0.185751
0.069696 0.069363 0.069006
0.152717 0.146707 0.145999
0.197545 0.198407 0.197550
0.179554 0.180007 0.179897
0.193811 0.194193 0.194784
0.081617 0.081412 0.079670
0.088344 0.087300 0.086820
0.197606 0.197137 0.197210
0.094530 0.095328 0.096136
0.144930 0.145275 0.145586
0.076806 0.076571 0.076919
0.220202 0.216844 0.216341
0.088893 0.087831 0.085995
0.133198 0.132939 0.128888
0.230870 0.231429 0.229679
0.188352 0.188689 0.190122
0.185256 0.185744 0.186154
0.099498 0.099968 0.100009
0.131847 0.131674 0.131038
0.216622 0.217159 0.227314
0.216106 0.217146 0.217404
0.281737 0.282411 0.266915
0.078406 0.077589 0.077161
0.218696 0.217243 0.206425
0.192536 0.191817 0.190977
0.259557 0.257547 0.257370
0.121993 0.133069 0.138864
0.185242 0.186830 0.187316
0.207952 0.208981 0.208926
0.177882 0.176907 0.177175
0.232716 0.232298 0.232696
0.115475 0.114713 0.115230
0.068411 0.068539 0.068606
0.079917 0.080228 0.080269
0.196144 0.195732 0.195306
0.080274 0.080558 0.079803
0.201298 0.200825 0.200489
0.202022 0.200090 0.198436
0.073008 0.072827 0.072907
0.086428 0.086536 0.086969
0.091644 0.091451 0.093601
0.103584 0.104115 0.105100
0.179896 0.179587 0.180237
0.111322 0.111039 0.110342
0.158663 0.158494 0.158677
0.194188 0.194919 0.194227
0.240685 0.240537 0.243926
0.093247 0.093550 0.093772
0.181054 0.181008 0.180559
0.253155 0.252576 0.249963
0.239300 0.239684 0.239028
0.086038 0.085684 0.084941
0.211259 0.207785 0.206019
0.203195 0.204301 0.205211
0.080219 0.080328 0.079771
0.182832 0.182768 0.183819
0.201259 0.203779 0.204132
0.204035 0.205202 0.207883
0.289905 0.286365 0.286468
0.065245 0.065476 0.066003
0.096869 0.096801 0.096518
0.193005 0.193077 0.193478
0.309920 0.310449 0.311424
0.078738 0.077911 0.077233
0.078928 0.078916 0.079085
0.208393 0.207919 0.207642
0.131705 0.132543 0.133180
0.147778 0.149513 0.150218
0.217901 0.217497 0.216951
0.152994 0.154358 0.159581
0.148084 0.148372 0.148635
0.211491 0.213431 0.214241
0.201028 0.200942 0.200747
0.214776 0.211850 0.210983
0.252896 0.254991 0.255822
0.142881 0.141055 0.140923
0.093468 0.091779 0.092289
0.096642 0.096629 0.096607
0.189384 0.188482 0.188256
0.204507 0.204683 0.204656
0.089627 0.090234 0.090241
0.134825 0.134733 0.135329
0.140583 0.141881 0.142096
0.095585 0.095505 0.095000
0.214167 0.215489 0.214778
0.101185 0.101194 0.101180
0.077294 0.077265 0.076165
0.116681 0.116241 0.119205
0.240681 0.240852 0.240671
0.129867 0.130297 0.131913
0.249994 0.250518 0.250764
0.192265 0.192620 0.191744
0.091478 0.092607 0.092554
0.213507 0.213102 0.213140
0.201556 0.201907 0.202029
0.188459 0.188663 0.189308
0.169405 0.170258 0.169608
0.076059 0.075432 0.075223
0.233132 0.232135 0.230756
0.254657 0.251813 0.251247
0.372045 0.372281 0.371156
0.150038 0.149617 0.147578
0.332075 0.331895 0.329825
0.077872 0.077496 0.076158
0.104630 0.105062 0.105058
0.206829 0.206795 0.206877
0.113135 0.112516 0.112577
0.180240 0.178673 0.172195
0.075176 0.075165 0.074595
0.188289 0.188779 0.189890
0.158133 0.158277 0.158092
0.214583 0.218856 0.219429
0.133457 0.132741 0.132105
0.085406 0.086064 0.085879
0.175580 0.176143 0.178992
0.090622 0.090954 0.091328
0.074496 0.074544 0.074176
0.172241 0.172364 0.175071
0.210391 0.211089 0.211713
0.118092 0.118188 0.119182
0.216555 0.216662 0.217421
0.122375 0.123401 0.123295
0.075845 0.076132 0.076535
0.213033 0.216228 0.216494
0.137125 0.137076 0.137623
0.213902 0.213045 0.211828
0.196408 0.198332 0.199960
0.181007 0.180788 0.181356
0.216386 0.217497 0.217846
0.167496 0.167463 0.167680
0.124052 0.124132 0.123902
0.160834 0.161470 0.161344
0.215324 0.216828 0.216533
0.069493 0.069449 0.068450
0.105577 0.105688 0.106891
0.070427 0.070742 0.071480
0.172906 0.173037 0.172855
0.312734 0.312162 0.313317
0.141352 0.141146 0.140723
0.089617 0.089101 0.088612
0.178623 0.178486 0.173607
0.222072 0.226487 0.226068
0.105375 0.106092 0.107259
0.136430 0.136428 0.136830
0.184717 0.184744 0.182666
0.117660 0.117047 0.116776
0.132660 0.134743 0.135681
0.248221 0.244993 0.246775
0.258891 0.258347 0.259354
0.135369 0.135675 0.136558
0.209941 0.214983 0.214361
0.193787 0.194616 0.193599
0.091202 0.091479 0.091562
0.072387 0.072724 0.072682
0.229312 0.221979 0.221705
0.065569 0.065728 0.066554
0.137797 0.137530 0.138331
0.205251 0.205443 0.205757
0.095905 0.096244 0.096408
0.134813 0.137507 0.138671
0.104874 0.104624 0.105007
0.097625 0.097415 0.097313
0.089151 0.089360 0.089303
0.206007 0.207438 0.208367
0.145293 0.144764 0.143486
0.125751 0.124058 0.122353
0.118467 0.123527 0.124317
0.084030 0.084346 0.084394
0.145688 0.144364 0.145251
0.068607 0.068653 0.068059
0.074829 0.074900 0.074832
0.200894 0.200348 0.200975
0.194012 0.191644 0.190731
0.232673 0.232281 0.231552
0.214064 0.213760 0.214269
0.144996 0.143473 0.144035
0.343998 0.344417 0.342111
0.234238 0.233448 0.234563
0.144294 0.144370 0.143374
0.140837 0.139980 0.140389
0.238475 0.238074 0.238273
0.156423 0.155835 0.155004
0.079472 0.079531 0.078935
0.097788 0.097180 0.097318
0.119645 0.118515 0.114592
0.111246 0.111908 0.112847
0.149837 0.150862 0.152654
0.282600 0.279989 0.279524
0.187332 0.184598 0.183351
0.082494 0.081741 0.080697
0.086666 0.086974 0.087098
0.099677 0.099131 0.098792
0.157659 0.157746 0.157566
0.088552 0.088104 0.087904
0.194032 0.195382 0.194592
0.233493 0.227189 0.226904
0.206940 0.204830 0.204976
0.081787 0.082031 0.081500
0.209019 0.208590 0.211072
0.098687 0.098564 0.098580
0.090243 0.089587 0.088683
0.194598 0.194394 0.193501
0.083058 0.081476 0.079126
0.090281 0.091388 0.093211
0.073334 0.073523 0.072419
0.091746 0.092058 0.092164
0.223863 0.223766 0.223797
0.109230 0.111340 0.111345
0.148172 0.147750 0.149772
0.147386 0.148089 0.148139
0.084547 0.084479 0.084730
0.136137 0.135924 0.134889
0.255993 0.255626 0.255021
0.237192 0.236766 0.235455
0.215024 0.215223 0.214028
0.214475 0.209504 0.208658
0.222392 0.222578 0.221271
0.157721 0.158389 0.158193
0.082182 0.082449 0.083577
0.119691 0.119973 0.120022
0.069642 0.069696 0.069363
0.173053 0.173623 0.173503
0.095640 0.095324 0.094442
0.141331 0.141807 0.147411
0.193147 0.193700 0.193271
0.217997 0.217744 0.217613
0.086138 0.086343 0.086063
0.079467 0.079052 0.079020
0.074488 0.074507 0.075129
0.109631 0.109275 0.109291
0.282642 0.282602 0.283471
0.208112 0.206691 0.204362
0.065308 0.064181 0.063917
0.102820 0.108818 0.109245
0.190732 0.190364 0.185552
0.207937 0.207100 0.201704
0.240027 0.240218 0.241102
0.133297 0.133823 0.134417
0.088019 0.087450 0.086342
0.076255 0.076715 0.077036
0.251367 0.252310 0.249978
0.113027 0.112535 0.110508
0.120228 0.120002 0.118728
0.139986 0.138161 0.136529
0.197963 0.200881 0.199944
0.193694 0.193528 0.191303
0.193147 0.191085 0.200873
0.079146 0.080200 0.080806
0.319118 0.319002 0.324266
0.134861 0.134547 0.134068
0.129705 0.130150 0.130124
0.279699 0.279098 0.278670
0.066802 0.067558 0.067713
0.195768 0.196022 0.195520
0.099499 0.099814 0.099901
0.085568 0.085416 0.085627
0.138287 0.137790 0.137956
0.161614 0.163116 0.163246
0.080725 0.080623 0.080577
0.230459 0.233583 0.234445
0.090029 0.090689 0.090042
0.306137 0.308106 0.307413
0.197808 0.197574 0.194599
0.098946 0.098395 0.098307
0.146716 0.148045 0.147433
0.095003 0.094952 0.094646
0.174947 0.175060 0.175029
0.147742 0.150047 0.152098
0.111627 0.111685 0.111651
0.143623 0.143279 0.143397
0.143653 0.143663 0.144787
0.074342 0.073857 0.074273
0.196493 0.198128 0.198138
0.318058 0.317100 0.315423
0.095793 0.095284 0.094472
0.155958 0.156589 0.156913
0.208810 0.208929 0.209266
0.197100 0.196811 0.196937
0.091030 0.090084 0.090234
0.076883 0.077124 0.076957
0.097132 0.097554 0.097297
0.194311 0.196291 0.199598
0.197765 0.196957 0.197074
0.085934 0.086168 0.086793
0.158207 0.158332 0.155980
0.082436 0.082822 0.083389
0.077081 0.077598 0.077673
0.254852 0.255773 0.255872
0.116384 0.118456 0.118053
0.219269 0.219090 0.219898
0.097319 0.099196 0.100228
0.329680 0.328414 0.327379
0.223916 0.224688 0.222908
0.225217 0.223456 0.222145
0.121853 0.122999 0.124284
0.102673 0.101070 0.100297
0.201590 0.201937 0.201349
0.211037 0.209173 0.212501
0.065862 0.065547 0.065465
0.103175 0.103517 0.102889
0.270029 0.269966 0.269671
0.198876 0.196377 0.195649
0.193001 0.192258 0.192889
0.165724 0.166493 0.166574
0.153834 0.150488 0.148336
0.205802 0.205685 0.205371
0.080211 0.079950 0.079421
