0.348459 0.344608 0.344628
0.323856 0.325363 0.324019
0.336445 0.329974 0.331423
0.448070 0.450326 0.451469
0.320893 0.321200 0.323333
0.352943 0.352006 0.352789
0.355639 0.356032 0.359055
0.321384 0.322692 0.323638
0.353954 0.354908 0.357284
0.398959 0.399724 0.399046
0.407923 0.407123 0.405407
0.326755 0.326828 0.325148
0.365999 0.369359 0.369999
0.412504 0.411346 0.411863
0.385740 0.381960 0.383135
0.368142 0.372635 0.385213
0.443824 0.442441 0.446122
0.456180 0.455912 0.456255
0.360110 0.360282 0.356255
0.363157 0.364209 0.362633
0.352088 0.354206 0.368742
0.516623 0.516505 0.499132
0.428411 0.430761 0.428206
0.369087 0.370422 0.370328
0.375776 0.378086 0.383903
0.515538 0.513591 0.505953
0.433065 0.432359 0.432088
0.395741 0.394186 0.391899
0.344821 0.343281 0.344347
0.355788 0.357645 0.355696
0.396686 0.391035 0.390318
0.375770 0.384337 0.381609
0.288234 0.288026 0.284575
0.348415 0.346154 0.344575
0.371255 0.370231 0.370402
0.330134 0.329013 0.325439
0.312506 0.313181 0.314101
0.360886 0.358555 0.358357
0.302841 0.303338 0.302108
0.337268 0.351058 0.349040
0.332341 0.331093 0.335753
0.355635 0.344224 0.337352
0.286813 0.286732 0.286030
0.364172 0.364915 0.367326
0.296051 0.295931 0.294117
0.339358 0.338172 0.339041
0.376210 0.376191 0.376427
0.331742 0.328691 0.324112
0.400597 0.401396 0.402590
0.440530 0.442288 0.441153
0.296060 0.293918 0.293479
0.303915 0.306281 0.304179
0.359199 0.357604 0.360782
0.364805 0.364910 0.370554
0.347710 0.351313 0.353813
0.363785 0.363119 0.365809
0.325815 0.325278 0.324517
0.389464 0.392590 0.391648
0.388563 0.388604 0.388860
0.317152 0.319671 0.322596
0.273809 0.272874 0.272192
0.393037 0.390391 0.382779
0.372897 0.379763 0.380909
0.456896 0.458750 0.459223
0.378859 0.378631 0.376057
0.404605 0.402672 0.401000
0.415672 0.417268 0.427701
0.540988 0.539125 0.537673
0.354183 0.351650 0.350428
0.393413 0.393356 0.392836
0.332075 0.332935 0.331092
0.313061 0.314488 0.311902
0.365035 0.364172 0.364234
0.301249 0.301476 0.302151
0.448108 0.446151 0.442078
0.330901 0.331378 0.331093
0.340627 0.331501 0.331299
0.415639 0.411299 0.412258
0.347356 0.346347 0.346714
0.381624 0.383570 0.387064
0.503938 0.503530 0.495066
0.353634 0.350707 0.347777
0.319027 0.322319 0.322499
0.344918 0.345792 0.345541
0.387081 0.389995 0.390062
0.404966 0.405553 0.405450
0.362081 0.362286 0.364010
0.433617 0.436310 0.443855
0.267013 0.270704 0.283607
0.478352 0.478699 0.478601
0.320369 0.320654 0.320428
0.338890 0.340319 0.339568
0.299487 0.301731 0.305429
0.496268 0.501163 0.501556
0.384929 0.383836 0.377927
0.430210 0.428425 0.427912
0.535578 0.535300 0.532243
0.304226 0.302992 0.302898
0.412736 0.413702 0.414716
0.404294 0.414752 0.422840
0.412266 0.410636 0.410582
0.347030 0.347284 0.349160
0.378178 0.372614 0.371471
0.381414 0.382499 0.382037
0.429836 0.433970 0.431085
0.363961 0.363508 0.364183
0.330410 0.330007 0.328941
0.367432 0.366241 0.367446
0.352097 0.349678 0.350243
0.334642 0.334604 0.333884
0.357917 0.358776 0.351679
0.399801 0.396543 0.397143
0.360231 0.364726 0.368219
0.385148 0.385532 0.386849
0.327686 0.322007 0.323899
0.387129 0.383638 0.382749
0.328361 0.327041 0.328109
0.384767 0.380096 0.375824
0.372618 0.372370 0.364047
0.370951 0.373249 0.361745
0.342910 0.343153 0.342110
0.339491 0.338920 0.332228
0.274557 0.275336 0.274927
0.339573 0.339412 0.338063
0.437401 0.443832 0.440381
0.357536 0.359938 0.360434
0.348513 0.347830 0.348877
0.365962 0.366158 0.364036
0.286953 0.287071 0.286181
0.382165 0.381780 0.382856
0.343171 0.342471 0.343457
0.336982 0.335414 0.334596
0.309419 0.309461 0.311217
0.301311 0.304164 0.304339
0.373093 0.365556 0.354943
0.362274 0.360658 0.374050
0.306191 0.307941 0.311868
0.404965 0.403552 0.403413
0.327287 0.325350 0.326124
0.388687 0.391875 0.391420
0.384058 0.383862 0.389140
0.343193 0.344258 0.345830
0.303423 0.301916 0.292147
0.349658 0.349979 0.350114
0.344771 0.343568 0.343558
0.350134 0.347749 0.350157
0.380745 0.385347 0.385711
0.452513 0.452342 0.451350
0.385609 0.385589 0.377957
0.300047 0.304519 0.305419
0.327803 0.328057 0.326459
0.351431 0.353168 0.356392
0.528725 0.539105 0.539686
0.348038 0.347764 0.350172
0.540364 0.540148 0.543928
0.289202 0.290163 0.289379
0.361342 0.364518 0.365530
0.283077 0.282913 0.284588
0.462365 0.464863 0.463887
0.355318 0.354555 0.354095
0.443439 0.441193 0.442561
0.349471 0.349923 0.351893
0.359176 0.360234 0.365272
0.383515 0.386257 0.387060
0.381580 0.382108 0.381347
0.390116 0.390465 0.389117
0.314552 0.315160 0.316629
0.397930 0.399054 0.397845
0.360969 0.355469 0.355905
0.307681 0.305742 0.303400
0.380791 0.381975 0.384579
0.374107 0.377487 0.378538
0.379567 0.378343 0.379938
0.308807 0.310864 0.312439
0.386948 0.391729 0.391903
0.391560 0.391997 0.391606
0.319753 0.299873 0.311398
0.369551 0.369857 0.368223
0.401435 0.402090 0.402390
0.395425 0.394735 0.389132
0.324066 0.323152 0.334635
0.393789 0.394154 0.393688
0.340318 0.339166 0.338204
0.356912 0.368253 0.371981
0.280196 0.278634 0.285736
0.343824 0.344334 0.344010
0.344393 0.346204 0.345225
0.281417 0.279758 0.281519
0.383057 0.382354 0.382113
0.398202 0.396291 0.396079
0.360003 0.363641 0.365073
0.336839 0.335272 0.336340
0.502079 0.498922 0.499007
0.435201 0.434439 0.435110
0.340778 0.351359 0.351779
0.498093 0.498724 0.499222
0.308746 0.310259 0.310181
0.314065 0.315050 0.314556
0.426569 0.425605 0.425724
0.391965 0.387817 0.385220
0.371574 0.374619 0.374994
0.330201 0.328834 0.328402
0.518275 0.516460 0.519267
0.351691 0.351478 0.352370
0.373216 0.360457 0.361164
0.352005 0.354578 0.355079
0.365944 0.362733 0.354592
0.296661 0.299006 0.296321
0.351817 0.353130 0.354515
0.284966 0.281036 0.281831
0.312280 0.312301 0.314422
0.317726 0.316112 0.317011
0.344175 0.343084 0.345790
0.335202 0.334806 0.335368
0.353228 0.353733 0.358385
0.307608 0.307856 0.309342
0.544925 0.548047 0.547813
0.370967 0.370883 0.371810
0.356813 0.353970 0.352108
0.349655 0.348774 0.359916
0.338474 0.338786 0.338503
0.253892 0.252307 0.248165
0.296805 0.295767 0.299447
0.382524 0.383809 0.384580
0.381551 0.382771 0.384807
0.400272 0.401157 0.399122
0.296638 0.299058 0.291360
0.328407 0.324288 0.321504
0.449362 0.448212 0.445178
0.324980 0.326162 0.330468
0.285502 0.286068 0.287321
0.387008 0.385153 0.384285
0.274767 0.273388 0.273779
0.301263 0.302296 0.302422
0.439272 0.439542 0.440234
0.307438 0.308473 0.306327
0.309644 0.317423 0.319153
0.438461 0.437395 0.437629
0.294424 0.299530 0.300294
0.304661 0.303235 0.303392
0.311741 0.309652 0.309869
0.347961 0.349097 0.349083
0.291030 0.292926 0.292659
0.381220 0.387295 0.393251
0.382185 0.409770 0.409509
0.366023 0.363719 0.364001
0.447267 0.449329 0.448815
0.306088 0.305011 0.305763
0.380251 0.379770 0.379002
0.425476 0.424995 0.425639
0.425427 0.418770 0.418547
0.327019 0.323753 0.322257
0.370653 0.372964 0.374821
0.317469 0.317358 0.317862
0.388074 0.379552 0.377619
0.447891 0.447105 0.447289
0.346714 0.346236 0.347373
0.309046 0.309851 0.310056
0.365639 0.363084 0.352538
0.354573 0.355289 0.357705
0.448077 0.453053 0.454771
0.319451 0.317559 0.314158
0.410800 0.420624 0.422176
0.385543 0.383851 0.383765
0.355980 0.351610 0.349740
0.403273 0.403097 0.402407
0.294371 0.295930 0.297340
0.433715 0.435606 0.435240
0.462166 0.456182 0.448383
0.376987 0.390741 0.396985
0.351351 0.352858 0.351510
0.339373 0.339770 0.341688
0.340902 0.345328 0.346292
0.345758 0.345905 0.346263
0.345941 0.344445 0.342334
0.363454 0.362507 0.363044
0.290520 0.292072 0.294669
0.385896 0.389585 0.387777
0.520507 0.519013 0.518251
0.383238 0.384181 0.380670
0.523030 0.522531 0.519218
0.326527 0.326651 0.326336
0.416361 0.417049 0.422003
0.321167 0.320429 0.317765
0.474604 0.473538 0.472639
0.456830 0.455997 0.454583
0.422296 0.421632 0.422408
0.364274 0.361845 0.364712
0.320639 0.321942 0.321149
0.384307 0.387560 0.389457
0.443927 0.446657 0.447350
0.314883 0.315323 0.316403
0.358685 0.356293 0.356051
0.388987 0.394056 0.396883
0.367097 0.368438 0.362855
0.291046 0.291377 0.293274
0.391226 0.394726 0.396102
0.272927 0.269985 0.270152
0.431565 0.431751 0.425007
0.377005 0.374461 0.382678
0.375258 0.371711 0.363094
0.343836 0.346314 0.348464
0.294401 0.295049 0.296698
0.256911 0.254144 0.254166
0.363110 0.361812 0.360963
0.377302 0.374878 0.370993
0.439583 0.443857 0.444537
0.405642 0.408048 0.404176
0.290422 0.293550 0.293805
0.342414 0.342555 0.342919
0.367235 0.367800 0.368523
0.370788 0.367060 0.366507
0.475517 0.488653 0.491103
0.364299 0.364396 0.361360
0.311637 0.310468 0.310148
0.339656 0.336436 0.336256
0.518478 0.516215 0.518377
0.372731 0.373240 0.372887
0.385529 0.390373 0.389836
0.411774 0.413051 0.413749
0.337705 0.336306 0.333549
0.323480 0.316579 0.314300
0.313900 0.314641 0.314616
0.377650 0.383702 0.386465
0.350759 0.351481 0.354439
0.332388 0.332392 0.330702
0.364983 0.363523 0.363570
0.364623 0.366159 0.367719
0.352984 0.352020 0.344969
0.388202 0.388119 0.386799
0.389930 0.388647 0.387056
0.338959 0.335112 0.329082
0.327714 0.327145 0.326875
0.360213 0.356869 0.355530
0.387020 0.387479 0.387719
0.344029 0.343437 0.344402
0.381968 0.375384 0.372949
0.451734 0.452165 0.451823
0.339821 0.338709 0.336563
0.427196 0.426966 0.424517
0.342137 0.340305 0.339825
0.397161 0.397771 0.395127
0.381857 0.379697 0.380058
0.506176 0.497102 0.494055
0.339521 0.340867 0.336633
0.436207 0.439713 0.442473
0.370120 0.371133 0.374732
0.281693 0.280193 0.279052
0.376678 0.375401 0.377777
0.342614 0.342711 0.344442
0.406707 0.406323 0.412015
0.285881 0.291366 0.292708
0.348312 0.350399 0.350933
0.330315 0.329365 0.328804
0.329584 0.335288 0.337208
0.420123 0.420187 0.419817
0.374106 0.373745 0.374201
0.369219 0.371446 0.371114
0.280168 0.280698 0.280643
0.346753 0.356612 0.358384
0.371013 0.376644 0.375909
0.340117 0.343678 0.343334
0.361443 0.361342 0.374393
0.293185 0.290305 0.290782
0.375500 0.375953 0.375058
0.418584 0.424879 0.425589
0.394974 0.394809 0.394704
0.310604 0.312257 0.312845
0.349800 0.348169 0.349140
0.334708 0.335570 0.334953
0.377040 0.376142 0.373313
0.349011 0.349879 0.356057
0.328293 0.321700 0.319899
0.274998 0.273437 0.272674
0.419014 0.417453 0.414006
0.312284 0.316072 0.323153
0.362844 0.364748 0.363186
0.463682 0.468560 0.466404
0.417121 0.415240 0.404874
0.395520 0.403687 0.402739
0.371297 0.370767 0.369339
0.372458 0.371868 0.371561
0.366496 0.364813 0.364933
0.360942 0.357971 0.359088
0.398358 0.398092 0.398304
0.424968 0.428674 0.429063
0.325695 0.321362 0.320294
0.303202 0.304589 0.304582
0.511470 0.515265 0.518203
0.379379 0.378856 0.367738
0.336109 0.335544 0.335439
0.386890 0.388101 0.389146
0.368404 0.368230 0.369470
0.526538 0.531978 0.526165
0.379208 0.378101 0.382557
0.270345 0.268041 0.270335
0.329484 0.330066 0.328352
0.286637 0.287130 0.282658
0.320496 0.316189 0.317072
0.314092 0.312824 0.303276
0.372293 0.370986 0.368056
0.377786 0.377044 0.379044
0.338843 0.333473 0.333082
0.365408 0.365090 0.365999
0.319448 0.319726 0.320232
0.281906 0.284981 0.284354
0.361480 0.356738 0.356524
0.467872 0.466145 0.435440
0.331973 0.338953 0.338025
0.301512 0.301612 0.300590
0.325743 0.326988 0.319818
0.272282 0.279122 0.282262
0.393566 0.391495 0.388727
0.461569 0.462816 0.458562
0.352026 0.353254 0.354239
0.348169 0.349140 0.349544
0.568087 0.568377 0.568396
0.314693 0.315892 0.314674
0.382637 0.382593 0.382384
0.274442 0.270767 0.272374
0.362651 0.363585 0.363017
0.449766 0.448999 0.447493
0.353419 0.356739 0.357344
0.343892 0.343921 0.341386
0.306192 0.304722 0.310040
0.300294 0.298879 0.298539
0.429408 0.437309 0.437266
0.414651 0.413006 0.411317
0.396090 0.396575 0.398022
0.280310 0.278432 0.275903
0.284623 0.285576 0.286894
0.335526 0.336863 0.331392
0.269482 0.270323 0.266443
0.391572 0.387435 0.388073
0.311908 0.312822 0.312679
0.373495 0.373959 0.374139
0.380115 0.381570 0.382238
0.309350 0.308574 0.308522
0.352717 0.349643 0.330767
0.462825 0.463968 0.463152
0.397346 0.394135 0.381798
0.329949 0.329521 0.328159
0.285147 0.282958 0.284270
0.295385 0.295588 0.296257
0.440230 0.437401 0.443832
0.434566 0.432279 0.428953
0.265679 0.263260 0.262041
0.426079 0.426339 0.433958
0.368431 0.371400 0.371478
0.415871 0.415100 0.415287
0.348636 0.347173 0.346618
0.343386 0.343492 0.343358
0.325610 0.324459 0.323600
0.309201 0.311329 0.310153
0.297245 0.297464 0.295988
0.454929 0.457755 0.454350
0.326609 0.320681 0.317231
0.381334 0.380923 0.378925
0.350009 0.350533 0.352222
0.395677 0.396637 0.394989
0.282990 0.282592 0.283375
0.385573 0.385003 0.386277
0.305309 0.305789 0.306766
0.302189 0.302915 0.302116
0.306625 0.307941 0.306565
0.337886 0.337298 0.334373
0.385349 0.384118 0.384038
0.345572 0.344567 0.345782
0.357694 0.360524 0.362166
0.389958 0.388639 0.388575
0.361790 0.361314 0.360493
0.338775 0.334976 0.334257
0.326434 0.325377 0.322207
0.312311 0.316345 0.314392
0.352750 0.352276 0.350496
0.400521 0.394813 0.391852
0.368899 0.371055 0.371884
0.370275 0.372058 0.378728
0.365648 0.365870 0.365379
0.349967 0.346944 0.342281
0.415361 0.416955 0.420278
0.393507 0.392702 0.392956
0.349160 0.350286 0.351720
0.270991 0.270300 0.270038
0.349386 0.350811 0.348423
0.316920 0.318642 0.319041
0.349542 0.348015 0.350126
0.422859 0.426141 0.427459
0.293776 0.292207 0.292473
0.254405 0.252836 0.245616
0.385660 0.387791 0.389486
0.343959 0.345528 0.346018
0.326438 0.325717 0.325091
0.363007 0.363759 0.362274
0.336177 0.343321 0.337216
0.297364 0.296354 0.295773
0.409923 0.406705 0.406122
0.298161 0.298615 0.302112
0.331159 0.329791 0.322158
0.415573 0.411616 0.413494
0.267409 0.268290 0.268693
0.326881 0.326928 0.325611
0.459615 0.459866 0.459338
0.377993 0.377276 0.376788
0.406624 0.405031 0.405684
0.296924 0.297797 0.299509
0.332186 0.331470 0.339201
0.536319 0.537223 0.539774
0.426999 0.428130 0.430548
0.442165 0.442159 0.438251
0.367083 0.366780 0.366260
0.323646 0.327285 0.328877
0.372752 0.372454 0.368812
0.426159 0.425768 0.425283
0.306600 0.308517 0.308054
0.407531 0.407142 0.411786
0.287202 0.287241 0.285335
0.343437 0.344402 0.342089
0.338238 0.341122 0.344465
0.281262 0.280793 0.279924
0.313524 0.313589 0.312917
0.360928 0.362925 0.362701
0.407196 0.406673 0.405885
0.381531 0.380870 0.378443
0.327978 0.327436 0.318696
0.410825 0.410576 0.408684
0.347483 0.349999 0.351151
0.358017 0.362320 0.366987
0.275942 0.275173 0.275393
0.357132 0.358507 0.363282
0.310879 0.311662 0.310208
0.302072 0.302117 0.302114
0.380258 0.380254 0.380189
0.283916 0.283487 0.283718
0.393159 0.392692 0.394894
0.331985 0.326329 0.321330
0.362681 0.369926 0.375237
0.336853 0.343203 0.338679
0.318160 0.317944 0.315941
0.321504 0.321834 0.319610
0.353727 0.353303 0.362248
0.361327 0.360727 0.360792
0.377039 0.379056 0.380061
0.396895 0.397207 0.399485
0.276984 0.277936 0.277734
0.335577 0.335147 0.334852
0.389741 0.384919 0.385292
0.310119 0.308717 0.306054
0.401911 0.405147 0.404307
0.329124 0.328675 0.328781
0.415506 0.415926 0.415941
0.365865 0.366001 0.368151
0.334836 0.337674 0.339663
0.459687 0.458996 0.458920
0.552388 0.551309 0.551230
0.306434 0.304065 0.310907
0.332314 0.331765 0.332397
0.458638 0.459204 0.458329
0.359317 0.366275 0.363427
0.355810 0.356290 0.356160
0.460651 0.462182 0.464470
0.386037 0.382935 0.376473
0.378167 0.375396 0.375118
0.331202 0.330901 0.331378
0.350986 0.348379 0.344497
0.405122 0.406513 0.406467
0.448195 0.447144 0.448081
0.425394 0.427072 0.427967
0.363279 0.364422 0.364634
0.353739 0.354451 0.351730
0.275163 0.268676 0.267916
0.355295 0.356296 0.357160
0.287584 0.286486 0.283051
0.319719 0.320881 0.322790
0.400269 0.405615 0.404314
0.372319 0.369489 0.362689
0.377036 0.376946 0.378236
0.335855 0.336500 0.322593
0.344914 0.346709 0.352149
0.447114 0.444186 0.445936
0.339171 0.342211 0.339061
0.269598 0.270706 0.273182
0.348244 0.350839 0.344607
0.314147 0.313707 0.314412
0.308809 0.310638 0.311411
0.375984 0.376432 0.375282
0.413716 0.413671 0.413834
0.364380 0.363461 0.364806
0.329491 0.325158 0.325907
0.342846 0.343560 0.356105
0.364568 0.365174 0.365406
0.364460 0.356335 0.354061
0.341461 0.323301 0.320775
0.372351 0.374045 0.375252
0.304336 0.302803 0.303179
0.308697 0.309080 0.305932
0.355018 0.365145 0.361046
0.277671 0.278689 0.285101
0.308143 0.310288 0.311653
0.384297 0.384710 0.382828
0.267420 0.265823 0.267790
0.421863 0.412313 0.409715
0.474756 0.473678 0.492253
0.383820 0.385025 0.388417
0.381769 0.386014 0.385695
0.310148 0.305822 0.309086
0.317682 0.315653 0.312423
0.427902 0.426358 0.428195
0.355892 0.355084 0.352499
0.517301 0.513865 0.496244
0.374726 0.371931 0.370539
0.339383 0.340226 0.342839
0.366396 0.365050 0.366067
0.442078 0.430623 0.417753
0.339073 0.339650 0.339584
0.312725 0.312545 0.311848
0.382980 0.385887 0.387260
0.284543 0.284665 0.285339
0.346705 0.346196 0.341715
0.520658 0.516171 0.517039
0.499328 0.504726 0.504718
0.387490 0.389162 0.392904
0.420761 0.418886 0.417621
0.319118 0.321744 0.332625
0.460171 0.460563 0.459018
0.383854 0.381510 0.383649
0.372855 0.370662 0.376600
0.320256 0.319997 0.321247
0.302522 0.302126 0.302132
0.334692 0.333041 0.333999
0.500976 0.502560 0.502484
0.354081 0.356815 0.356576
0.503466 0.504665 0.502158
0.370972 0.372653 0.372836
0.370817 0.369432 0.367347
0.344102 0.346437 0.345154
0.331260 0.330114 0.329256
0.332081 0.347891 0.352879
0.355402 0.354670 0.354423
0.446551 0.445450 0.441167
0.266100 0.267901 0.269754
0.397426 0.397480 0.397277
0.359454 0.357673 0.355925
0.358323 0.360269 0.362444
0.393382 0.396466 0.397064
0.366070 0.368586 0.370879
0.364361 0.368627 0.371739
0.295444 0.294343 0.294879
0.348935 0.348723 0.347514
0.363744 0.365607 0.369553
0.367768 0.365001 0.365125
0.274393 0.271137 0.271520
0.360762 0.360798 0.361215
0.334221 0.337632 0.339183
0.441314 0.440641 0.438999
0.358467 0.355926 0.356273
0.469432 0.467872 0.466145
0.367575 0.364626 0.363131
0.358665 0.359011 0.359531
0.316253 0.315995 0.312896
0.429575 0.440509 0.443219
0.325740 0.325839 0.331209
0.345907 0.346538 0.347032
0.294396 0.292707 0.293120
0.349893 0.349008 0.348322
0.424829 0.422914 0.425875
0.423659 0.425008 0.425225
0.388394 0.386715 0.381124
0.398051 0.396365 0.395778
0.290200 0.290022 0.291652
0.465424 0.465601 0.465810
0.282690 0.281723 0.279604
0.373310 0.373064 0.382288
0.375311 0.376850 0.377298
0.445929 0.448881 0.447672
0.519046 0.518199 0.516145
0.306077 0.306438 0.305539
0.460833 0.461390 0.458378
0.350256 0.349756 0.348124
0.376194 0.378462 0.382134
0.293777 0.294443 0.295865
0.310974 0.311194 0.308877
0.440580 0.439640 0.436403
0.290777 0.291180 0.290461
0.429472 0.428905 0.428807
0.296826 0.294772 0.293456
0.309323 0.310079 0.309803
0.386385 0.388863 0.383268
0.356416 0.354322 0.351890
0.430750 0.440785 0.439809
0.463630 0.462361 0.465556
0.301086 0.302583 0.302788
0.336086 0.333295 0.332514
0.419190 0.431192 0.449922
0.428274 0.428865 0.431711
0.355473 0.355857 0.350035
0.291824 0.294688 0.296582
0.381941 0.380516 0.387161
0.332628 0.337246 0.338659
0.487058 0.485531 0.481952
0.392185 0.392797 0.392823
0.363556 0.360967 0.352376
0.277259 0.277765 0.279540
0.423740 0.425232 0.433593
0.354853 0.354558 0.353331
0.338517 0.340444 0.341713
0.396784 0.396912 0.395348
0.376551 0.374939 0.373963
0.352500 0.357102 0.361735
0.417753 0.423614 0.425085
0.454693 0.454074 0.452804
0.387295 0.393251 0.395301
0.452502 0.457456 0.459809
0.328159 0.328346 0.328093
0.456438 0.461727 0.458720
0.292082 0.292317 0.291617
0.363442 0.360433 0.361080
0.329535 0.329726 0.333266
0.394351 0.394173 0.391516
0.333364 0.334062 0.330825
0.323899 0.323203 0.322551
0.348296 0.347545 0.347256
0.276766 0.275158 0.273494
0.279771 0.278539 0.278391
0.415134 0.416054 0.420091
0.450294 0.449066 0.447836
0.376255 0.377522 0.381442
0.310920 0.312184 0.312092
0.373949 0.374401 0.373113
0.547087 0.549558 0.550683
0.290258 0.290445 0.290638
0.287536 0.288161 0.288274
0.385757 0.381931 0.379118
0.339337 0.338694 0.338869
0.363764 0.364611 0.369477
0.280194 0.279692 0.280264
0.479912 0.477865 0.476249
0.409586 0.399401 0.397332
0.355345 0.355283 0.357510
0.275139 0.274453 0.273361
0.284606 0.285474 0.286747
0.260732 0.261404 0.265413
0.330859 0.330802 0.330427
0.351472 0.349198 0.345784
0.316169 0.317517 0.317462
0.292506 0.291804 0.293920
0.287562 0.297699 0.299430
0.369852 0.369906 0.369626
0.398599 0.390946 0.387143
0.359677 0.359115 0.358583
0.310153 0.309754 0.309350
0.329259 0.326727 0.326448
0.328186 0.328069 0.327094
0.375784 0.376823 0.379024
0.313822 0.314933 0.314881
0.409921 0.409840 0.410392
0.311623 0.311174 0.308844
0.344074 0.337358 0.331870
0.364693 0.363190 0.362483
0.458977 0.455062 0.449837
0.416084 0.415721 0.415380
0.338466 0.339298 0.339317
0.502343 0.507558 0.509397
0.286639 0.288342 0.290785
0.317257 0.317683 0.318929
0.323814 0.337357 0.338674
0.328939 0.335202 0.336031
0.386999 0.386319 0.385493
0.316099 0.315347 0.315392
0.382145 0.385577 0.386008
0.416667 0.416981 0.423992
0.391742 0.393024 0.391750
0.333895 0.334600 0.334755
0.395688 0.389966 0.405055
0.430701 0.421345 0.424142
0.404176 0.401182 0.396864
0.416740 0.416588 0.413208
0.424097 0.445584 0.446727
0.328624 0.328249 0.328055
0.325899 0.324966 0.324495
0.432790 0.432436 0.429360
0.350137 0.350562 0.347590
0.447093 0.447730 0.445950
0.399053 0.399296 0.396800
0.369661 0.370555 0.373831
0.371786 0.374698 0.381746
0.364034 0.365101 0.365301
0.301100 0.301520 0.302174
0.396876 0.398877 0.399385
0.337714 0.336373 0.334117
0.382003 0.378107 0.375975
0.421386 0.423885 0.426986
0.332433 0.331357 0.331269
0.335186 0.338618 0.338234
0.437989 0.436129 0.435369
0.409645 0.409692 0.409829
0.400249 0.400542 0.402597
0.323817 0.323963 0.325002
0.372122 0.373009 0.380231
0.364028 0.372717 0.374914
0.350697 0.350186 0.350334
0.506252 0.507707 0.511310
0.470140 0.473216 0.474281
0.339250 0.337306 0.336745
0.485862 0.485244 0.483895
0.362847 0.361336 0.361512
0.392888 0.393561 0.397063
0.362277 0.363044 0.364109
0.418751 0.419160 0.419466
0.374355 0.378288 0.384251
0.251460 0.242785 0.242005
0.414771 0.414063 0.416862
0.314258 0.314825 0.313109
0.365475 0.364042 0.364762
0.270890 0.271511 0.272925
0.318380 0.320907 0.323792
0.288893 0.285955 0.284456
0.379118 0.377909 0.377930
0.294271 0.291820 0.291003
0.324433 0.334363 0.335788
0.502215 0.502958 0.499634
0.409474 0.409066 0.411944
0.411664 0.409825 0.409998
0.323257 0.317813 0.317797
0.333286 0.332992 0.339129
0.331855 0.334691 0.334953
0.341546 0.339671 0.338846
0.369291 0.373526 0.372953
0.384227 0.377071 0.378063
0.321576 0.320427 0.318970
0.283616 0.283491 0.283948
0.349883 0.350754 0.350522
0.386747 0.385445 0.389322
0.374993 0.374314 0.368591
0.328406 0.329151 0.328720
0.363214 0.358837 0.356678
0.392836 0.380213 0.380537
0.287814 0.286154 0.286840
0.368771 0.368331 0.365924
0.402427 0.398903 0.399347
0.484457 0.483475 0.485012
0.394108 0.394344 0.396125
0.512640 0.515570 0.515822
0.320421 0.318568 0.318431
0.447904 0.448283 0.449625
0.337569 0.338015 0.336928
0.552106 0.551329 0.551241
0.336272 0.336171 0.335649
0.343812 0.342987 0.343459
0.405668 0.399928 0.399202
0.277706 0.279161 0.279441
0.334310 0.334332 0.335868
0.367042 0.365639 0.363084
0.400061 0.393307 0.397065
0.310491 0.305679 0.305099
0.449295 0.451167 0.455284
0.436844 0.430396 0.431957
0.423527 0.424910 0.426470
0.422276 0.423083 0.424852
0.261567 0.266241 0.268061
0.360153 0.359569 0.346438
0.369141 0.364643 0.365289
0.329729 0.329048 0.327892
0.330495 0.335408 0.339819
0.348323 0.357856 0.357697
0.335001 0.335736 0.345419
0.335953 0.335400 0.338097
0.382660 0.388695 0.385680
0.304241 0.302340 0.290635
0.416146 0.415189 0.412823
0.365878 0.364479 0.364568
0.447108 0.441776 0.441556
0.328931 0.330013 0.331891
0.302600 0.302767 0.306272
0.398681 0.396961 0.397179
0.407762 0.392066 0.389720
0.338204 0.338227 0.340426
0.436573 0.438245 0.439382
0.362931 0.361812 0.365992
0.378963 0.377948 0.379977
0.375542 0.375277 0.378362
0.540571 0.539684 0.538737
0.277167 0.275488 0.274326
0.360249 0.357965 0.357341
0.378633 0.377407 0.375469
0.298718 0.297753 0.298430
0.501199 0.501013 0.500749
0.336785 0.338490 0.337034
0.328530 0.328462 0.327195
0.322411 0.322580 0.323632
0.445762 0.438572 0.439185
0.478485 0.479037 0.477229
0.379558 0.377438 0.375511
0.369595 0.369134 0.374465
0.413631 0.407729 0.407926
0.340351 0.347199 0.347597
0.322025 0.320800 0.319398
0.444801 0.440442 0.438008
0.346577 0.351282 0.351975
0.272310 0.272637 0.273719
0.341749 0.339092 0.338929
0.323771 0.324191 0.324184
0.369341 0.370238 0.369517
0.462309 0.474604 0.473538
0.396939 0.385298 0.382439
0.393507 0.395238 0.393499
0.379369 0.380975 0.383957
0.505645 0.508292 0.504701
0.421915 0.420269 0.420277
0.388462 0.389090 0.388032
0.388184 0.389606 0.388152
0.292680 0.291456 0.296916
0.364132 0.361694 0.354160
0.299836 0.299869 0.300937
0.329812 0.329734 0.332439
0.382696 0.383321 0.387760
0.329299 0.326802 0.326106
0.380427 0.380251 0.379770
0.363051 0.353836 0.349673
0.315867 0.309209 0.309566
0.288287 0.286936 0.285449
0.311590 0.312874 0.306661
0.443694 0.443967 0.444439
0.267037 0.267148 0.266647
0.345105 0.343298 0.345476
0.254939 0.257818 0.258812
0.367353 0.366850 0.366883
0.399803 0.397296 0.396860
0.353073 0.360225 0.363058
0.357662 0.357873 0.354031
0.335316 0.331537 0.331851
0.311593 0.314662 0.319116
0.324678 0.322436 0.323861
0.354106 0.351884 0.350069
0.381620 0.381248 0.382160
0.318557 0.319944 0.319722
0.394183 0.397657 0.383953
0.300253 0.297036 0.302164
0.333189 0.329550 0.321807
0.293163 0.292544 0.289798
0.448811 0.437117 0.438104
0.400128 0.400417 0.400277
0.333011 0.334322 0.335091
0.355096 0.346645 0.346164
0.283758 0.282913 0.282800
0.301400 0.304137 0.304354
0.420532 0.418879 0.420315
0.436310 0.443855 0.442206
0.317194 0.315465 0.313796
0.363559 0.370287 0.372326
0.363463 0.362709 0.362832
0.337568 0.339680 0.339419
0.333100 0.332345 0.332065
0.321387 0.322018 0.322795
0.445865 0.442322 0.441585
0.338985 0.339873 0.339548
0.293904 0.294539 0.296240
0.311698 0.312403 0.313041
0.372762 0.372458 0.371868
0.356244 0.353068 0.346974
0.401674 0.397574 0.393225
0.287593 0.313648 0.318077
0.296321 0.288320 0.285087
0.386697 0.386923 0.380526
0.346047 0.342941 0.341515
0.474456 0.473037 0.470873
0.330832 0.331736 0.337219
0.366219 0.365380 0.364638
0.285969 0.288328 0.289573
0.429732 0.432648 0.435304
0.493160 0.489903 0.485957
0.348569 0.352261 0.351014
0.354483 0.355833 0.353755
0.370216 0.370837 0.376902
0.277251 0.275882 0.274465
0.332202 0.330647 0.328406
0.391435 0.395876 0.397840
0.444023 0.446306 0.436925
0.441315 0.450589 0.458388
0.459325 0.460818 0.460812
0.348174 0.344602 0.344746
0.357062 0.356548 0.357570
0.266257 0.265119 0.264532
0.370595 0.366933 0.366363
0.320401 0.319404 0.315091
0.386969 0.386646 0.385521
0.384617 0.381717 0.382301
0.387745 0.386759 0.389197
0.555377 0.555670 0.554131
0.288161 0.288274 0.285976
0.314661 0.314473 0.315281
0.338002 0.337020 0.335206
0.419692 0.422180 0.423349
0.386647 0.386448 0.385585
0.303822 0.308634 0.308137
0.347263 0.350728 0.351631
0.330893 0.331280 0.329617
0.340067 0.336755 0.336231
0.341862 0.343733 0.338779
0.337633 0.335305 0.336263
