0.080976 0.080804 0.080961
0.094390 0.094508 0.094505
0.106956 0.107120 0.107217
0.078174 0.078027 0.077933
0.070809 0.070623 0.070073
0.045132 0.045313 0.044719
0.059433 0.059033 0.058854
0.079233 0.079525 0.079768
0.054368 0.054809 0.055433
0.094982 0.095123 0.095743
0.133294 0.133324 0.131976
0.089545 0.089963 0.090284
0.064517 0.064452 0.064171
0.046322 0.046455 0.046318
0.081152 0.081439 0.081960
0.081769 0.082019 0.081191
0.076298 0.075975 0.076017
0.098646 0.098923 0.098810
0.144481 0.144571 0.144532
0.043377 0.043182 0.043202
0.068167 0.068536 0.068466
0.082938 0.082885 0.082693
0.077933 0.078009 0.077830
0.059051 0.058837 0.058962
0.159901 0.160008 0.159529
0.091615 0.091536 0.091005
0.068300 0.068864 0.067426
0.087346 0.087916 0.088363
0.042874 0.042761 0.043205
0.085753 0.087538 0.089344
0.087534 0.087833 0.087842
0.115437 0.115611 0.115192
0.110455 0.110410 0.109754
0.077610 0.077946 0.078069
0.073762 0.074016 0.074339
0.091893 0.091893 0.090904
0.045166 0.044939 0.045247
0.127680 0.128345 0.127953
0.071129 0.070804 0.070191
0.214533 0.217554 0.214090
0.060598 0.060773 0.060103
0.073009 0.073592 0.073805
0.073167 0.072717 0.075964
0.087448 0.087225 0.087064
0.132620 0.133381 0.133141
0.090662 0.090834 0.090079
0.111557 0.111504 0.110627
0.068998 0.068997 0.069019
0.043609 0.044961 0.045163
0.114480 0.114218 0.113137
0.067401 0.064700 0.062876
0.092002 0.091752 0.091704
0.076209 0.076108 0.075810
0.052251 0.052033 0.052257
0.056027 0.056994 0.057408
0.048522 0.048722 0.048681
0.083144 0.085464 0.087460
0.080158 0.078713 0.078542
0.206018 0.206925 0.207031
0.067712 0.067680 0.066925
0.096221 0.095605 0.094154
0.074037 0.074022 0.073811
0.087561 0.087104 0.087009
0.205654 0.217644 0.236033
0.131584 0.130550 0.126940
0.048580 0.048350 0.048375
0.095488 0.092639 0.092292
0.172095 0.170532 0.169920
0.124148 0.125088 0.127301
0.096743 0.096999 0.097448
0.090350 0.090369 0.089501
0.055483 0.054835 0.054296
0.088233 0.088180 0.088078
0.080232 0.080142 0.080535
0.071033 0.071230 0.072678
0.046898 0.047168 0.046666
0.132629 0.126161 0.124704
0.067847 0.067601 0.066890
0.147529 0.147061 0.147248
0.122411 0.122524 0.123716
0.094287 0.094790 0.094945
0.107282 0.107244 0.107219
0.093094 0.092643 0.092539
0.065971 0.065933 0.065946
0.115829 0.114467 0.112901
0.083667 0.084820 0.086184
0.100360 0.100163 0.101684
0.057457 0.057117 0.057127
0.130897 0.130537 0.128990
0.062792 0.062664 0.062157
0.172870 0.172867 0.172471
0.089775 0.091043 0.091800
0.071284 0.071496 0.070452
0.073816 0.074148 0.075286
0.073666 0.072407 0.071693
0.044788 0.044120 0.044237
0.082419 0.083072 0.083030
0.047456 0.047351 0.047417
0.099137 0.097560 0.096670
0.195299 0.193991 0.192425
0.156466 0.156100 0.154876
0.088287 0.087452 0.086499
0.045904 0.045888 0.045576
0.068914 0.068913 0.068704
0.087550 0.087225 0.087126
0.065771 0.065812 0.065571
0.056348 0.055428 0.056249
0.094073 0.094079 0.093583
0.161717 0.159949 0.159490
0.085862 0.085880 0.085923
0.079458 0.072441 0.067919
0.069082 0.069790 0.070472
0.061046 0.060978 0.060882
0.045514 0.045265 0.044933
0.213558 0.214613 0.217090
0.060726 0.060393 0.060396
0.093542 0.094095 0.094103
0.126614 0.126807 0.127276
0.113525 0.113213 0.112508
0.067583 0.067777 0.068115
0.089264 0.088287 0.087452
0.079366 0.079213 0.079908
0.081858 0.081803 0.081966
0.074379 0.073705 0.073686
0.080320 0.079688 0.079714
0.070658 0.071367 0.072406
0.055067 0.055587 0.056058
0.066384 0.066157 0.065242
0.130537 0.128990 0.127053
0.129961 0.127936 0.128181
0.056309 0.056247 0.056254
0.075949 0.075956 0.076238
0.100427 0.099910 0.099650
0.070711 0.071112 0.071409
0.083598 0.083001 0.082773
0.066489 0.066250 0.065039
0.089559 0.087749 0.087255
0.097905 0.098024 0.098116
0.075879 0.075894 0.075845
0.047146 0.047393 0.048191
0.128010 0.128172 0.128540
0.095638 0.095239 0.096432
0.092033 0.091811 0.091838
0.077266 0.077357 0.077030
0.043136 0.042868 0.042370
0.090267 0.089858 0.087672
0.118547 0.118454 0.118743
0.088131 0.087712 0.087076
0.119034 0.119113 0.119655
0.066921 0.066246 0.066212
0.172094 0.171605 0.173300
0.048927 0.048516 0.048413
0.088833 0.088782 0.089166
0.081527 0.079604 0.079280
0.105800 0.105428 0.105371
0.046368 0.046279 0.045859
0.061032 0.062552 0.063442
0.107154 0.108584 0.105673
0.044224 0.044220 0.044080
0.105205 0.104164 0.104012
0.117773 0.117458 0.117577
0.092075 0.092080 0.092182
0.074643 0.072963 0.073459
0.087958 0.087622 0.087431
0.086021 0.085706 0.084846
0.127756 0.127637 0.128036
0.046388 0.045937 0.045908
0.102207 0.102686 0.102988
0.094608 0.093909 0.093289
0.099053 0.099299 0.099668
0.094152 0.094014 0.094293
0.087888 0.088095 0.088492
0.046090 0.045973 0.046114
0.112800 0.121129 0.121199
0.072101 0.071579 0.071566
0.059082 0.059418 0.060184
0.125644 0.126722 0.127923
0.160623 0.161447 0.161528
0.078292 0.078614 0.078818
0.081870 0.081685 0.081674
0.070236 0.070804 0.071446
0.062307 0.062762 0.061968
0.079669 0.079954 0.080201
0.068034 0.069386 0.072684
0.216806 0.216620 0.216740
0.093404 0.093237 0.093182
0.070166 0.069919 0.070200
0.109336 0.109289 0.109211
0.079367 0.078537 0.078007
0.046461 0.046898 0.047168
0.080854 0.080999 0.081626
0.092054 0.090873 0.090917
0.073176 0.073518 0.073956
0.081862 0.081328 0.081225
0.057672 0.057667 0.057735
0.072769 0.072734 0.072492
0.047036 0.047810 0.047571
0.088172 0.088083 0.087661
0.093829 0.093324 0.092954
0.064110 0.064416 0.064661
0.044349 0.043897 0.043808
0.089413 0.089174 0.089356
0.136506 0.138011 0.136920
0.058589 0.059309 0.059155
0.078620 0.079225 0.082318
0.092317 0.092035 0.091794
0.075803 0.075569 0.075075
0.128184 0.128010 0.128318
0.074864 0.075979 0.076232
0.086136 0.087379 0.088319
0.114398 0.115218 0.112976
0.058806 0.059061 0.059250
0.092354 0.090739 0.090421
0.105824 0.105060 0.105322
0.081390 0.082100 0.082407
0.078870 0.079942 0.080132
0.068533 0.068488 0.068845
0.044243 0.044335 0.044341
0.125811 0.123732 0.123525
0.046801 0.046726 0.046820
0.172844 0.173293 0.172372
0.075324 0.075655 0.074984
0.091149 0.091118 0.090929
0.155696 0.156572 0.158905
0.087283 0.087479 0.087625
0.152700 0.152638 0.151591
0.051119 0.051312 0.050926
0.115250 0.114865 0.114311
0.082813 0.082993 0.082784
0.087264 0.085647 0.084336
0.065867 0.066305 0.066462
0.117360 0.116704 0.116528
0.062421 0.062661 0.062277
0.084707 0.084806 0.084818
0.069977 0.070173 0.070411
0.046517 0.047125 0.046737
0.065571 0.065317 0.065403
0.113880 0.113238 0.111939
0.100454 0.100550 0.100488
0.090962 0.091213 0.092525
0.060634 0.060416 0.061171
0.116242 0.115647 0.116700
0.079371 0.079808 0.080337
0.088792 0.088874 0.088497
0.083471 0.085294 0.085333
0.074591 0.075977 0.076156
0.207617 0.208595 0.209535
0.080745 0.080505 0.080899
0.114528 0.113884 0.113881
0.083456 0.083061 0.082807
0.074458 0.074481 0.073114
0.058854 0.058470 0.057691
0.089500 0.088888 0.088802
0.078991 0.081254 0.082342
0.082301 0.082029 0.081744
0.132240 0.131591 0.131411
0.077665 0.078050 0.077424
0.079685 0.079701 0.079177
0.063585 0.063766 0.063788
0.093765 0.092444 0.091984
0.071723 0.073166 0.073253
0.073492 0.073553 0.073432
0.063992 0.063963 0.063915
0.057249 0.057142 0.057088
0.093210 0.093187 0.093606
0.081231 0.081363 0.081150
0.059250 0.059150 0.059257
0.071931 0.071642 0.071160
0.079677 0.078495 0.078638
0.090931 0.090381 0.087646
0.052012 0.050939 0.050923
0.129913 0.130168 0.133371
0.062400 0.062492 0.062310
0.128063 0.127521 0.127834
0.096489 0.098447 0.098712
0.088493 0.088182 0.087967
0.094581 0.094583 0.094328
0.081604 0.081516 0.081267
0.071027 0.070304 0.069873
0.091633 0.091358 0.090292
0.086629 0.086451 0.086712
0.092564 0.093170 0.093118
0.079864 0.079677 0.078907
0.102460 0.102588 0.102688
0.087618 0.087372 0.087123
0.041775 0.041233 0.040510
0.072563 0.072744 0.073340
0.042312 0.042695 0.042673
0.176904 0.178253 0.178733
0.094530 0.094724 0.094655
0.065413 0.065341 0.066455
0.094602 0.094824 0.094775
0.089333 0.089480 0.089478
0.046992 0.046607 0.046216
0.043763 0.043575 0.043574
0.126595 0.126682 0.127162
0.055489 0.055279 0.055685
0.065261 0.064512 0.064116
0.117711 0.117656 0.117572
0.048993 0.049178 0.049534
0.151328 0.151888 0.152388
0.116567 0.120113 0.119490
0.048828 0.048977 0.049035
0.066318 0.066094 0.066376
0.255247 0.255203 0.255132
0.066480 0.066417 0.066341
0.073672 0.072619 0.072513
0.040753 0.040911 0.040930
0.088879 0.090396 0.091484
0.158561 0.158278 0.158331
0.119110 0.119119 0.119713
0.129019 0.129173 0.129091
0.146874 0.146163 0.146247
0.064597 0.064477 0.064207
0.071881 0.072178 0.073008
0.045231 0.045559 0.045557
0.074330 0.074161 0.074235
0.085591 0.085822 0.087462
0.111507 0.110929 0.110281
0.077761 0.076956 0.076388
0.073302 0.072428 0.072402
0.059092 0.059991 0.060041
0.104314 0.104283 0.104191
0.045581 0.045977 0.046643
0.263092 0.259787 0.254160
0.074512 0.074220 0.074714
0.099637 0.098858 0.098901
0.082856 0.084651 0.086763
0.111728 0.112295 0.112079
0.057953 0.058023 0.059367
0.090263 0.089257 0.089702
0.079164 0.078466 0.077905
0.090982 0.089798 0.087212
0.052386 0.052049 0.052256
0.069270 0.069237 0.069291
0.096018 0.095946 0.095142
0.046359 0.046290 0.046440
0.076604 0.076564 0.072830
0.078562 0.078855 0.079192
0.080682 0.080704 0.080238
0.100500 0.100639 0.100345
0.043618 0.043729 0.043972
0.093210 0.093095 0.093046
0.057968 0.058098 0.058664
0.108808 0.108643 0.108462
0.061511 0.062096 0.062375
0.170368 0.168929 0.168105
0.072331 0.072667 0.072755
0.074993 0.075989 0.077167
0.056131 0.060305 0.060589
0.087172 0.087427 0.087533
0.067000 0.070401 0.069568
0.266929 0.266953 0.266260
0.079309 0.079195 0.079296
0.056235 0.055672 0.056553
0.068544 0.069557 0.068498
0.073737 0.073659 0.072769
0.104908 0.105538 0.105913
0.078994 0.079586 0.079863
0.058010 0.058727 0.059458
0.110627 0.110129 0.109952
0.089124 0.088781 0.088712
0.084301 0.083970 0.083228
0.101194 0.101638 0.102253
0.082856 0.082955 0.082771
0.143641 0.144269 0.144856
0.047984 0.047854 0.047646
0.088702 0.089847 0.090934
0.073009 0.073420 0.074071
0.121577 0.122103 0.122500
0.073567 0.073590 0.073934
0.204949 0.200811 0.198379
0.086309 0.086227 0.085904
0.123957 0.123606 0.123963
0.080929 0.080684 0.080737
0.090997 0.090954 0.091070
0.104432 0.106877 0.108312
0.089165 0.092582 0.093207
0.083157 0.083140 0.082925
0.078097 0.078097 0.077693
0.086679 0.086406 0.087005
0.247474 0.251529 0.253082
0.106739 0.106539 0.107562
0.080435 0.079614 0.079722
0.084538 0.084608 0.087652
0.055622 0.055279 0.055364
0.044206 0.044101 0.043634
0.061140 0.061140 0.061279
0.091163 0.091211 0.091191
0.121542 0.122432 0.122769
0.060235 0.060628 0.060682
0.155448 0.155177 0.152220
0.069128 0.067942 0.066558
0.228925 0.230293 0.230749
0.062089 0.061641 0.061469
0.122169 0.122367 0.124069
0.077751 0.078228 0.078340
0.063480 0.062530 0.062674
0.060727 0.061380 0.061532
0.088200 0.088105 0.086196
0.056211 0.056276 0.056058
0.047035 0.046855 0.046734
0.043005 0.042656 0.042639
0.055797 0.055227 0.055187
0.064919 0.065458 0.064811
0.062081 0.061877 0.061356
0.045982 0.046376 0.046345
0.061357 0.061523 0.061659
0.095794 0.099969 0.107455
0.081139 0.082004 0.082837
0.107443 0.107183 0.106919
0.178268 0.178440 0.177986
0.105108 0.105615 0.107934
0.099073 0.099261 0.099322
0.082710 0.082706 0.083085
0.101231 0.101226 0.100559
0.059094 0.059982 0.060079
0.221538 0.220281 0.218542
0.073852 0.073670 0.073384
0.089288 0.089331 0.090062
0.099724 0.099467 0.097961
0.070121 0.069649 0.069551
0.060782 0.051951 0.049414
0.079398 0.078701 0.078452
0.074465 0.075588 0.075971
0.074312 0.074141 0.074295
0.053646 0.054692 0.055971
0.094637 0.098272 0.098500
0.092022 0.091462 0.093544
0.091883 0.092400 0.091898
0.084994 0.085198 0.085186
0.069037 0.068886 0.068220
0.101291 0.101339 0.101007
0.082457 0.081769 0.080341
0.046129 0.046142 0.046084
0.045065 0.045033 0.045078
0.102188 0.102552 0.102890
0.076490 0.076367 0.075434
0.066281 0.066505 0.066670
0.068414 0.068400 0.068677
0.088601 0.087951 0.087352
0.066774 0.069463 0.070179
0.088245 0.089049 0.088760
0.144277 0.144069 0.143264
0.077978 0.077722 0.077703
0.045256 0.045109 0.045152
0.077055 0.077401 0.077748
0.092309 0.092024 0.091513
0.082058 0.081980 0.081827
0.108360 0.109194 0.109545
0.238620 0.236591 0.237964
0.089087 0.090078 0.091191
0.099194 0.099476 0.099086
0.086556 0.086916 0.086738
0.076461 0.077309 0.077520
0.052365 0.052724 0.053071
0.061860 0.061486 0.061468
0.087084 0.086876 0.086667
0.096432 0.096551 0.097144
0.074366 0.074175 0.073826
0.059106 0.059213 0.059107
0.090907 0.089393 0.087513
0.095128 0.097071 0.097403
0.076551 0.075312 0.074746
0.083207 0.082405 0.081923
0.168163 0.168314 0.168514
0.086797 0.086965 0.086988
0.108948 0.109029 0.109636
0.054628 0.054540 0.054605
0.109547 0.109027 0.107756
0.094271 0.094240 0.094000
0.092224 0.092782 0.094029
0.119855 0.119952 0.119619
0.147109 0.147146 0.146436
0.047981 0.048372 0.048484
0.045493 0.045231 0.045093
0.044996 0.044745 0.044567
0.086185 0.086669 0.086488
0.073637 0.073569 0.073995
0.061178 0.062762 0.065969
0.164831 0.165933 0.166706
0.042370 0.043020 0.043080
0.042626 0.042504 0.042447
0.092137 0.096033 0.096702
0.131976 0.122768 0.122649
0.072601 0.071409 0.071077
0.119384 0.117523 0.118206
0.053008 0.053235 0.052831
0.075249 0.074745 0.073254
0.189896 0.190693 0.191460
0.094570 0.094538 0.094676
0.123538 0.123305 0.117349
0.088419 0.087368 0.086489
0.172227 0.169793 0.168988
0.088712 0.089499 0.089246
0.071227 0.071106 0.070225
0.069470 0.070734 0.070952
0.075794 0.076086 0.075955
0.082078 0.081906 0.081214
0.094704 0.096322 0.096864
0.085651 0.085567 0.085113
0.170573 0.171019 0.171235
0.089766 0.089481 0.089463
0.130923 0.130501 0.130356
0.088370 0.088801 0.088879
0.122538 0.124684 0.124866
0.099703 0.100300 0.100891
0.081789 0.081563 0.081136
0.093948 0.094017 0.094090
0.074515 0.074529 0.073392
0.060710 0.059733 0.059762
0.101786 0.101934 0.101932
0.056172 0.056659 0.055540
0.072036 0.072141 0.071718
0.067941 0.065624 0.064127
0.086195 0.085599 0.085009
0.125788 0.126129 0.126019
0.073110 0.072053 0.068731
0.064881 0.065848 0.065321
0.078234 0.077781 0.077530
0.139007 0.137960 0.136289
0.051605 0.051995 0.052156
0.099164 0.099012 0.099081
0.072826 0.072933 0.073145
0.093579 0.093288 0.093207
0.086813 0.086429 0.088203
0.087391 0.087132 0.087555
0.073752 0.073284 0.073201
0.086698 0.086759 0.087317
0.071040 0.069351 0.068833
0.091073 0.091247 0.091310
0.056730 0.056642 0.057089
0.052216 0.052205 0.052386
0.102602 0.102788 0.101561
0.043616 0.043499 0.043173
0.074196 0.073591 0.073595
0.094398 0.094700 0.095537
0.094226 0.094331 0.094242
0.044935 0.045004 0.044754
0.101375 0.098832 0.095132
0.089450 0.088855 0.088679
0.092241 0.093792 0.094138
0.049949 0.050058 0.050363
0.098145 0.096120 0.096210
0.078232 0.078347 0.078119
0.045538 0.045211 0.044996
0.158505 0.158388 0.158254
0.099841 0.099703 0.100300
0.079651 0.079665 0.078967
0.098960 0.099160 0.099337
0.121750 0.120423 0.120313
0.094844 0.095801 0.095820
0.077726 0.077869 0.077950
0.078687 0.080445 0.081478
0.098975 0.098785 0.097807
0.121576 0.121065 0.121259
0.096232 0.096674 0.094466
0.130739 0.131664 0.131446
0.100839 0.100881 0.100871
0.112876 0.112359 0.112306
0.076733 0.075505 0.074931
0.076777 0.077311 0.077457
0.117520 0.118831 0.118906
0.152692 0.153911 0.157306
0.047689 0.047958 0.048203
0.045073 0.045113 0.045405
0.105493 0.105593 0.105653
0.055732 0.056387 0.056603
0.171610 0.172687 0.172937
0.076222 0.075807 0.075455
0.087685 0.086143 0.086088
0.084777 0.084314 0.083734
0.077308 0.076777 0.077247
0.096536 0.094470 0.094803
0.075240 0.075103 0.074403
0.132478 0.123393 0.124124
0.071749 0.071763 0.071955
0.069694 0.069977 0.070173
0.077968 0.079373 0.079799
0.173114 0.172528 0.173543
0.089177 0.088542 0.088710
0.050234 0.050073 0.049994
0.102462 0.102089 0.099470
0.065519 0.065515 0.065383
0.088488 0.088612 0.088561
0.056111 0.055780 0.056939
0.131163 0.131426 0.131580
0.074079 0.074151 0.074351
0.047638 0.047794 0.049353
0.117572 0.116990 0.115455
0.066995 0.067225 0.068274
0.070637 0.070787 0.070963
0.042247 0.042367 0.042151
0.076944 0.076924 0.076303
0.085713 0.085168 0.085219
0.054950 0.053935 0.053814
0.042936 0.042831 0.043074
0.085961 0.085887 0.086057
0.085425 0.084535 0.084406
0.078104 0.078253 0.078773
0.078591 0.077988 0.078075
0.086669 0.086763 0.086004
0.118710 0.119068 0.118851
0.121728 0.121178 0.120011
0.084338 0.084373 0.084593
0.061986 0.061999 0.062071
0.059541 0.058855 0.058647
0.077369 0.076388 0.075694
0.080172 0.081027 0.080954
0.042825 0.043127 0.042947
0.086447 0.085779 0.085924
0.086092 0.086212 0.086478
0.178992 0.178280 0.178417
0.079651 0.079496 0.079741
0.087609 0.087838 0.087845
0.161521 0.161497 0.161166
0.081885 0.081884 0.082458
0.090891 0.090968 0.091291
0.050936 0.051114 0.051258
0.075391 0.076971 0.077115
0.078676 0.078686 0.078245
0.063528 0.065055 0.064730
0.126119 0.125862 0.124417
0.044804 0.045070 0.045301
0.078853 0.078683 0.076644
0.046110 0.045736 0.045536
0.069351 0.068833 0.066866
0.045506 0.045896 0.046577
0.088895 0.092171 0.092976
0.127446 0.126461 0.127749
0.129230 0.129236 0.128959
0.145644 0.145697 0.146031
0.076058 0.076523 0.076961
0.082685 0.085857 0.086205
0.086445 0.086384 0.085489
0.091093 0.092310 0.092499
0.091439 0.090943 0.090973
0.088890 0.088628 0.088439
0.051370 0.051123 0.051155
0.076965 0.077286 0.078156
0.046210 0.046124 0.045924
0.072792 0.071597 0.071029
0.084336 0.084196 0.084231
0.120998 0.120841 0.121542
0.072086 0.071828 0.071566
0.062052 0.061579 0.061613
0.086945 0.087239 0.087814
0.095896 0.094148 0.089975
0.159261 0.160887 0.161521
0.146816 0.147385 0.148084
0.066077 0.066171 0.066984
0.082443 0.082095 0.081789
0.056027 0.056295 0.057122
0.056916 0.056288 0.056247
0.086652 0.087182 0.085035
0.061245 0.061242 0.061178
0.099053 0.098042 0.099271
0.065403 0.065529 0.065346
0.065675 0.066032 0.066122
0.067389 0.067275 0.066836
0.096721 0.096149 0.091892
0.086787 0.086798 0.086945
0.105615 0.107934 0.111412
0.078535 0.078880 0.079277
0.050131 0.049959 0.050070
0.079210 0.078945 0.079127
0.081008 0.081104 0.080998
0.112131 0.111098 0.110639
0.089844 0.089512 0.089511
0.093879 0.093752 0.093828
0.097416 0.097387 0.097124
0.086095 0.086352 0.087337
0.041709 0.041792 0.043116
0.043538 0.043437 0.043243
0.171425 0.170600 0.169798
0.054293 0.054570 0.054546
0.080418 0.079355 0.078991
0.146750 0.146216 0.144489
0.103422 0.098476 0.089548
0.091559 0.092776 0.092867
0.109312 0.109991 0.111047
0.179149 0.179099 0.177251
0.133058 0.132629 0.126161
0.106335 0.106978 0.107142
0.068335 0.068646 0.068600
0.065731 0.065355 0.064886
0.063463 0.063679 0.063669
0.066710 0.066715 0.066315
0.066547 0.067626 0.068089
0.107798 0.107974 0.107865
0.164293 0.163796 0.163031
0.041304 0.041342 0.041759
0.058659 0.058701 0.058683
0.073545 0.072972 0.072183
0.057779 0.058427 0.059607
0.041970 0.041819 0.040560
0.109552 0.110529 0.111627
0.087730 0.087663 0.087519
0.091922 0.091911 0.092182
0.088619 0.086506 0.083839
0.081165 0.081061 0.082010
0.066953 0.066824 0.067177
0.084703 0.084748 0.085482
0.069885 0.069867 0.069866
0.045590 0.045644 0.045639
0.082220 0.082186 0.082481
0.095084 0.095682 0.096255
0.094207 0.094467 0.094756
0.072606 0.074891 0.077266
0.076696 0.074900 0.074709
0.043113 0.043370 0.044156
0.168751 0.168438 0.167532
0.082771 0.083092 0.083874
0.044020 0.043621 0.043461
0.058327 0.058417 0.058444
0.075491 0.076015 0.076407
0.119844 0.120319 0.120870
0.044481 0.044114 0.044458
0.039242 0.039280 0.039343
0.068030 0.067985 0.068532
0.084470 0.084730 0.083070
0.089024 0.088786 0.088889
0.059441 0.059496 0.059128
0.266518 0.265213 0.261197
0.057059 0.056730 0.056642
0.085164 0.085116 0.084850
0.159680 0.160096 0.159918
0.096021 0.096141 0.096307
0.120061 0.120722 0.120949
0.076131 0.075942 0.076431
0.039977 0.040234 0.040041
0.085923 0.085953 0.086023
0.131319 0.131148 0.131496
0.043833 0.043815 0.044212
0.046491 0.046694 0.046959
0.100809 0.101250 0.102282
0.063165 0.063000 0.062958
0.080357 0.080513 0.080583
0.081598 0.082173 0.080732
0.117532 0.117851 0.117797
0.079615 0.079304 0.077923
0.078507 0.078184 0.077643
0.091607 0.092146 0.092068
0.078130 0.078430 0.078386
0.129032 0.128993 0.128678
0.092102 0.092085 0.092226
0.093179 0.093483 0.093384
0.088266 0.088183 0.088142
0.059391 0.059180 0.059364
0.060773 0.059734 0.059092
0.077546 0.077625 0.077315
0.046855 0.046145 0.046390
0.086505 0.086938 0.088920
0.228610 0.230732 0.230297
0.188271 0.194083 0.194744
0.100119 0.099855 0.099967
0.048394 0.048371 0.048345
0.087115 0.086997 0.087487
0.068142 0.070306 0.072051
0.048426 0.048909 0.048603
0.105571 0.104921 0.104173
0.101406 0.101473 0.100948
0.067518 0.067575 0.067821
0.099335 0.099072 0.098858
0.068697 0.068843 0.068346
0.073112 0.072164 0.071356
0.129924 0.130363 0.133391
0.067761 0.067488 0.067503
0.080032 0.080216 0.080594
0.175316 0.175768 0.176365
0.057144 0.056778 0.056484
0.046328 0.046196 0.046244
0.055278 0.055765 0.055736
0.095859 0.096182 0.095856
0.154034 0.148711 0.147220
0.072574 0.072241 0.071351
0.090883 0.091276 0.091919
0.068395 0.068663 0.069342
0.245994 0.244353 0.244282
0.069261 0.069263 0.069274
0.075590 0.075116 0.075380
0.056247 0.056254 0.056185
0.066968 0.066982 0.066487
0.061201 0.061226 0.061232
0.063548 0.063000 0.060860
0.261479 0.265240 0.267679
0.061197 0.062617 0.063602
0.049915 0.048562 0.048435
0.206853 0.206986 0.207848
0.087712 0.087076 0.087098
0.056030 0.056075 0.056353
0.067056 0.066136 0.065826
0.088072 0.088184 0.088940
0.079222 0.079368 0.079983
0.062668 0.062544 0.062234
0.090441 0.089764 0.086258
0.045987 0.045975 0.046007
0.086668 0.086254 0.081942
0.058820 0.058518 0.058100
0.088881 0.088949 0.088632
0.067549 0.068020 0.068677
0.048738 0.048207 0.048758
0.103963 0.101752 0.102215
0.046302 0.046435 0.046541
0.092790 0.092359 0.092391
0.104173 0.104392 0.104647
0.064065 0.063677 0.063675
0.094176 0.095012 0.094941
0.148874 0.147755 0.147178
0.067033 0.067471 0.067575
0.135697 0.135675 0.135313
0.098525 0.098130 0.098765
0.086489 0.086655 0.086681
0.103405 0.103604 0.103474
0.051816 0.051659 0.051405
0.061078 0.059866 0.059194
0.081504 0.081533 0.081620
0.081472 0.081387 0.081270
0.091026 0.092382 0.092210
0.077045 0.077252 0.078472
0.044795 0.045021 0.044855
0.052252 0.052290 0.052083
0.065515 0.065383 0.066028
0.096749 0.097354 0.097426
0.049075 0.048664 0.048463
0.056128 0.056180 0.055909
0.073468 0.073089 0.072833
0.108522 0.103236 0.103195
0.070191 0.070449 0.070120
0.173950 0.174228 0.173348
0.147290 0.147164 0.146941
0.119138 0.119871 0.121333
0.043998 0.043651 0.043478
0.043986 0.043605 0.042792
0.045720 0.045609 0.045620
0.088194 0.088276 0.088013
0.089935 0.089631 0.089311
0.076305 0.075700 0.074683
0.041833 0.041702 0.041766
0.044574 0.044443 0.043777
0.084159 0.082237 0.080587
0.083299 0.086070 0.088810
0.062107 0.062255 0.062360
0.049297 0.049325 0.048658
0.046062 0.045788 0.045716
0.257479 0.257827 0.257664
0.078866 0.079277 0.079770
0.098440 0.098487 0.098419
0.073210 0.073210 0.072527
0.066444 0.066068 0.064518
0.076166 0.077328 0.077917
0.080469 0.081951 0.081790
0.083304 0.083312 0.083243
0.107016 0.109418 0.113635
0.055206 0.055217 0.054900
0.083340 0.083776 0.083264
0.084714 0.084133 0.084543
0.077128 0.078188 0.081811
0.087667 0.087383 0.087360
0.046166 0.046022 0.046191
0.118998 0.118585 0.118413
0.089386 0.089397 0.089553
0.053967 0.053572 0.053507
0.082318 0.081646 0.081030
0.048741 0.048706 0.048329
0.135405 0.133887 0.133044
0.144969 0.145117 0.145563
0.096742 0.096767 0.096486
0.084662 0.083938 0.083360
0.126618 0.127065 0.127288
0.119344 0.118892 0.118782
0.058439 0.058507 0.058212
0.061605 0.061595 0.061534
0.074485 0.074431 0.074233
0.079032 0.078897 0.078640
0.092352 0.091989 0.092048
0.065324 0.064816 0.065248
0.074455 0.080973 0.081982
0.058312 0.057511 0.057253
0.074295 0.072476 0.072523
0.056893 0.056354 0.055758
0.053869 0.053354 0.053452
0.091266 0.090149 0.089175
0.091191 0.092666 0.092790
0.090981 0.091515 0.091380
0.088239 0.088250 0.088054
0.103912 0.103637 0.103174
0.043576 0.043893 0.043716
0.044229 0.044156 0.044030
0.056659 0.056587 0.056981
0.092237 0.091764 0.091756
0.070120 0.069040 0.069316
0.049623 0.049572 0.049756
0.083473 0.081925 0.081307
0.117553 0.116702 0.116437
0.170913 0.170823 0.171433
0.206410 0.206515 0.206937
0.059867 0.059446 0.059240
0.086021 0.084061 0.081194
0.043614 0.044891 0.045156
0.056232 0.056404 0.056165
0.076215 0.075963 0.075459
0.099634 0.100080 0.100448
0.219387 0.214498 0.210385
0.072991 0.072759 0.072358
0.086162 0.086870 0.087066
0.066205 0.065589 0.065237
0.091952 0.091922 0.091911
0.131674 0.130830 0.127049
0.133086 0.133524 0.134103
0.080042 0.082334 0.082810
0.102911 0.103065 0.102730
0.194438 0.194085 0.193966
0.042244 0.041775 0.041233
0.083842 0.082650 0.082422
0.091425 0.092760 0.093301
0.089839 0.090270 0.090255
0.045094 0.045194 0.045197
0.129231 0.129027 0.128969
0.089025 0.088734 0.087975
0.103159 0.103087 0.103097
0.105189 0.104293 0.106030
0.087606 0.087861 0.088238
0.106932 0.105155 0.104179
0.044774 0.044741 0.044819
0.233124 0.231483 0.229227
0.100485 0.099352 0.099256
0.053011 0.053276 0.053116
0.057112 0.057155 0.057782
0.043867 0.043337 0.043616
0.046700 0.046346 0.046001
0.111038 0.109096 0.108323
0.088674 0.088775 0.089729
0.075250 0.075324 0.075240
0.255912 0.257157 0.256705
0.154980 0.155696 0.156572
0.093394 0.094244 0.094968
0.085839 0.085443 0.085448
0.090961 0.090659 0.090659
0.117951 0.119810 0.120133
0.060753 0.059584 0.059037
0.044404 0.044703 0.044751
0.082987 0.082382 0.082256
0.096420 0.097052 0.097250
0.072752 0.074387 0.074205
0.099860 0.099436 0.100308
0.089447 0.091908 0.092770
0.076334 0.076491 0.076469
0.096438 0.096658 0.096209
0.049162 0.045803 0.045969
0.115611 0.115192 0.115829
0.107060 0.108213 0.108477
0.047791 0.047742 0.047818
0.108599 0.108316 0.108215
0.068422 0.068424 0.068162
0.237506 0.238620 0.236591
0.095977 0.096091 0.096379
0.106291 0.105556 0.105791
0.081774 0.080445 0.079920
0.098770 0.098075 0.097757
0.053394 0.054182 0.054832
0.092828 0.093929 0.094590
0.093052 0.093129 0.093484
0.090420 0.088865 0.088625
0.079221 0.079370 0.079370
0.086728 0.086352 0.086144
0.176482 0.178106 0.178553
0.089539 0.089451 0.088902
0.116424 0.119217 0.118967
0.088177 0.088521 0.089672
0.043908 0.043860 0.043711
0.077693 0.077060 0.077470
0.072620 0.072621 0.072443
0.115686 0.115241 0.115274
0.046033 0.046217 0.046170
0.088469 0.088512 0.089004
0.122636 0.117239 0.111111
0.089747 0.088487 0.087910
0.082869 0.082495 0.082968
0.122336 0.122456 0.124764
0.207705 0.208083 0.207568
0.064896 0.065223 0.065234
0.113167 0.113425 0.113703
0.091416 0.090937 0.090827
0.103389 0.111128 0.112402
0.053281 0.053502 0.053383
0.064125 0.064024 0.063971
0.083446 0.084724 0.084415
0.092832 0.089857 0.090836
0.094062 0.093774 0.093302
0.069065 0.068383 0.068464
0.125667 0.125949 0.126289
0.078619 0.082006 0.082878
0.047609 0.047197 0.047182
0.123626 0.123763 0.123763
0.065956 0.065916 0.065843
0.090370 0.089544 0.089861
0.083729 0.083179 0.083319
0.094617 0.094858 0.094849
0.044196 0.044249 0.044228
