0.065237 0.065795 0.065818
0.078325 0.078209 0.077028
0.043010 0.042821 0.043049
0.087255 0.086971 0.087960
0.080077 0.080085 0.081501
0.043380 0.043391 0.043676
0.078077 0.077307 0.076991
0.102308 0.102686 0.102809
0.095415 0.095266 0.095205
0.099789 0.100006 0.100234
0.064819 0.064251 0.064347
0.092592 0.092328 0.092456
0.078557 0.077677 0.077115
0.073873 0.074105 0.075001
0.089180 0.088657 0.088901
0.081339 0.080932 0.081714
0.096358 0.098132 0.098439
0.096118 0.095232 0.097004
0.103195 0.103024 0.102531
0.079425 0.079098 0.079005
0.068689 0.068653 0.068743
0.060212 0.059859 0.059409
0.069294 0.069188 0.068852
0.103047 0.103379 0.103714
0.056206 0.056730 0.057392
0.065453 0.064717 0.064805
0.087031 0.086070 0.085874
0.086643 0.087143 0.087232
0.092394 0.091823 0.092302
0.087642 0.086972 0.087279
0.079853 0.082619 0.081721
0.071807 0.071957 0.072321
0.067430 0.067476 0.067010
0.081844 0.081884 0.082693
0.059877 0.059077 0.058293
0.066022 0.066153 0.066143
0.077754 0.077707 0.077779
0.066806 0.067179 0.067346
0.072726 0.072712 0.072804
0.084666 0.087747 0.087642
0.081390 0.080998 0.080432
0.075141 0.074663 0.075182
0.078791 0.078962 0.079206
0.066345 0.067929 0.068164
0.096357 0.097326 0.097290
0.093712 0.093474 0.093377
0.111491 0.111284 0.110989
0.079303 0.079661 0.080888
0.065767 0.065913 0.066189
0.079094 0.079384 0.079334
0.074551 0.071903 0.071339
0.094234 0.094126 0.093520
0.076483 0.076891 0.085117
0.081039 0.080937 0.080350
0.085495 0.085395 0.085313
0.100787 0.101315 0.101652
0.081537 0.081642 0.081560
0.091651 0.092278 0.092514
0.092092 0.093169 0.093671
0.088833 0.088874 0.088582
0.079320 0.078931 0.078756
0.095337 0.095994 0.096237
0.077945 0.077428 0.077516
0.092516 0.092286 0.092275
0.072846 0.072661 0.072249
0.076011 0.076825 0.076724
0.049742 0.049669 0.050056
0.086869 0.086849 0.086050
0.104153 0.103980 0.106353
0.056347 0.055887 0.055933
0.074785 0.073179 0.072697
0.066759 0.065898 0.065530
0.098289 0.097824 0.097393
0.094620 0.093966 0.093712
0.072222 0.070881 0.070769
0.076400 0.075635 0.075282
0.077043 0.077111 0.077061
0.095251 0.095400 0.094743
0.099359 0.099593 0.099046
0.046893 0.046759 0.046950
0.109187 0.109182 0.109114
0.070696 0.070478 0.070153
0.159713 0.160401 0.161147
0.075748 0.075766 0.075777
0.088477 0.088137 0.087265
0.097086 0.097112 0.097601
0.050292 0.050216 0.050281
0.104873 0.105687 0.105604
0.096276 0.096180 0.096078
0.062018 0.061754 0.061204
0.054266 0.054479 0.054453
0.055551 0.055422 0.055247
0.078130 0.078155 0.078741
0.098537 0.099318 0.098637
0.093301 0.093363 0.093526
0.049930 0.049713 0.048967
0.096535 0.096395 0.096593
0.093586 0.092907 0.092525
0.067956 0.067921 0.067716
0.090025 0.088891 0.089131
0.091947 0.091622 0.091389
0.101205 0.100916 0.100879
0.092498 0.092330 0.092424
0.079512 0.079530 0.079913
0.074924 0.074943 0.075403
0.074161 0.073977 0.074176
0.079631 0.079604 0.079667
0.086949 0.086989 0.087117
0.090601 0.090969 0.094719
0.062605 0.063112 0.063720
0.083495 0.084654 0.085080
0.097961 0.097730 0.098030
0.089008 0.089153 0.089277
0.097236 0.098088 0.098048
0.064436 0.064601 0.064837
0.079638 0.079687 0.080055
0.047057 0.047065 0.047256
0.096296 0.096507 0.097050
0.102561 0.100688 0.100432
0.087159 0.087334 0.088428
0.056899 0.056940 0.056832
0.090075 0.090288 0.092657
0.070880 0.070938 0.070810
0.067645 0.067419 0.067645
0.094244 0.094156 0.094176
0.092315 0.092662 0.092691
0.083524 0.083485 0.087767
0.091098 0.090129 0.089906
0.082589 0.079878 0.079392
0.059208 0.059002 0.058624
0.089406 0.089262 0.088558
0.077037 0.077008 0.077941
0.083941 0.083677 0.084892
0.086404 0.086684 0.086534
0.095769 0.095413 0.095227
0.098941 0.099539 0.098532
0.102664 0.102328 0.102356
0.078851 0.077832 0.077046
0.042217 0.042540 0.042370
0.085200 0.085168 0.084959
0.089571 0.089329 0.089437
0.078392 0.079065 0.079954
0.085825 0.082109 0.081231
0.082901 0.082878 0.083126
0.094662 0.094636 0.094623
0.082761 0.082620 0.082612
0.105654 0.105521 0.105250
0.059635 0.059722 0.059640
0.051364 0.051877 0.051437
0.064135 0.063709 0.064272
0.083627 0.082139 0.082424
0.099365 0.099245 0.099396
0.049860 0.049462 0.049359
0.086342 0.087041 0.087311
0.102225 0.105261 0.105831
0.078367 0.078624 0.078548
0.085586 0.084223 0.084039
0.088575 0.088296 0.087228
0.075916 0.075842 0.075979
0.058378 0.058343 0.057736
0.041544 0.041353 0.041780
0.058675 0.057788 0.054989
0.094181 0.094580 0.094534
0.063466 0.063353 0.063729
0.080711 0.080536 0.079625
0.061325 0.061340 0.061646
0.073001 0.072881 0.073012
0.086124 0.086186 0.085708
0.080193 0.078271 0.078194
0.104508 0.104571 0.104499
0.105610 0.105718 0.105140
0.098860 0.097856 0.097765
0.102084 0.101636 0.101117
0.088581 0.087696 0.090004
0.093839 0.092881 0.092100
0.055738 0.056665 0.056736
0.077181 0.077109 0.077645
0.076616 0.076028 0.075965
0.080482 0.080216 0.080111
0.072902 0.072760 0.072830
0.098350 0.098145 0.097086
0.100520 0.100932 0.101043
0.101225 0.101122 0.101258
0.069640 0.069085 0.068949
0.069628 0.069871 0.069979
0.072406 0.072592 0.072667
0.070602 0.070149 0.070040
0.093685 0.093660 0.093594
0.095540 0.095845 0.094712
0.088498 0.088348 0.088442
0.049669 0.050056 0.049992
0.076438 0.076356 0.075980
0.046282 0.045996 0.046083
0.090044 0.089476 0.089496
0.063380 0.063682 0.064329
0.093095 0.094796 0.095673
0.070367 0.070606 0.070921
0.095376 0.093387 0.092898
0.059471 0.059489 0.059407
0.077039 0.076238 0.075680
0.091663 0.091151 0.091162
0.101541 0.101410 0.102585
0.045896 0.045980 0.048758
0.087379 0.087010 0.086420
0.087795 0.088086 0.088796
0.064796 0.064669 0.064577
0.090854 0.091080 0.091234
0.047882 0.048379 0.048725
0.090840 0.089041 0.088042
0.096977 0.096834 0.096403
0.048098 0.049070 0.049717
0.104404 0.104580 0.105550
0.070469 0.070891 0.070782
0.095160 0.096031 0.095450
0.094879 0.095041 0.094940
0.084216 0.084287 0.084278
0.092128 0.092394 0.091823
0.162065 0.161339 0.160928
0.055152 0.055129 0.055090
0.078025 0.077086 0.078298
0.093567 0.093578 0.093990
0.070838 0.070496 0.070172
0.086658 0.086724 0.086795
0.046591 0.046680 0.046723
0.097141 0.097117 0.096471
0.074826 0.072676 0.073839
0.074371 0.073433 0.073270
0.072991 0.073384 0.073032
0.056890 0.056847 0.056690
0.046642 0.046136 0.045551
0.062838 0.062717 0.062621
0.078596 0.079489 0.079686
0.093536 0.092802 0.094724
0.083467 0.083495 0.084654
0.069823 0.068448 0.068808
0.106608 0.106374 0.106190
0.091007 0.090630 0.090415
0.065963 0.064827 0.065058
0.104449 0.104450 0.104197
0.062656 0.064273 0.064504
0.094872 0.094815 0.092520
0.069121 0.069144 0.069096
0.091104 0.091789 0.092612
0.092367 0.093433 0.095790
0.076370 0.076732 0.079017
0.101540 0.101425 0.100463
0.421797 0.421901 0.421932
0.073131 0.072807 0.072856
0.056002 0.055681 0.055401
0.075513 0.075546 0.074846
0.072715 0.073050 0.072982
0.069760 0.069113 0.068815
0.108818 0.108794 0.108797
0.046343 0.046606 0.046472
0.098120 0.098159 0.098188
0.048764 0.048730 0.048672
0.081883 0.082219 0.082860
0.059862 0.059909 0.060010
0.068566 0.068361 0.072690
0.082142 0.083248 0.083509
0.087190 0.087715 0.089763
0.072744 0.072745 0.072493
0.072661 0.072249 0.072391
0.082957 0.082718 0.082843
0.084589 0.084405 0.084745
0.067579 0.067589 0.071545
0.085724 0.084355 0.084216
0.053863 0.053534 0.053237
0.080416 0.080615 0.080023
0.091663 0.093121 0.093226
0.087367 0.086142 0.085645
0.045142 0.045064 0.045388
0.082625 0.082524 0.082521
0.082873 0.082812 0.082896
0.057197 0.056951 0.056991
0.064710 0.064701 0.064938
0.070919 0.071600 0.071772
0.066888 0.067878 0.068060
0.078293 0.078561 0.078387
0.071135 0.071116 0.071211
0.066748 0.066733 0.065150
0.065862 0.068060 0.068245
0.089340 0.089032 0.088859
0.100475 0.100706 0.100602
0.160749 0.160756 0.160444
0.103732 0.104163 0.103801
0.063438 0.063313 0.063327
0.064292 0.064495 0.064530
0.056727 0.057363 0.057403
0.079772 0.079073 0.079284
0.080790 0.080840 0.080855
0.045440 0.045361 0.045440
0.080959 0.079679 0.079590
0.090554 0.090582 0.088379
0.067965 0.068195 0.068035
0.102383 0.102199 0.102593
0.085011 0.085116 0.084609
0.102825 0.102951 0.103360
0.071714 0.072439 0.072621
0.067324 0.067441 0.066371
0.079275 0.079130 0.079111
0.086185 0.086338 0.086329
0.075816 0.076064 0.074803
0.048836 0.048776 0.048965
0.089188 0.090501 0.091211
0.089879 0.090009 0.091123
0.081722 0.081698 0.081968
0.107546 0.107402 0.106846
0.061329 0.061685 0.061715
0.104780 0.104740 0.105546
0.064107 0.064910 0.064899
0.059298 0.058938 0.059339
0.081256 0.080351 0.080014
0.062861 0.061043 0.060305
0.085968 0.085839 0.085733
0.092994 0.093172 0.093282
0.078881 0.078582 0.078126
0.075282 0.075375 0.075279
0.062877 0.062685 0.062602
0.077388 0.078008 0.077828
0.080274 0.080356 0.080137
0.040523 0.040742 0.040743
0.082560 0.082171 0.081173
0.078806 0.079239 0.079446
0.067591 0.070258 0.070385
0.085980 0.085880 0.085817
0.045508 0.044897 0.044413
0.084925 0.085315 0.085369
0.053400 0.053292 0.053417
0.047576 0.047858 0.046426
0.085514 0.085588 0.085435
0.089467 0.089848 0.089425
0.087163 0.087260 0.086713
0.080970 0.081750 0.081976
0.103195 0.103268 0.103173
0.080463 0.078453 0.078438
0.107414 0.107352 0.107334
0.093301 0.093485 0.093055
0.101177 0.100708 0.101154
0.065307 0.065056 0.065155
0.077137 0.077832 0.077849
0.084382 0.084561 0.083405
0.090066 0.091138 0.090600
0.072716 0.072311 0.072377
0.080353 0.080227 0.080373
0.097153 0.097824 0.097828
0.066028 0.066091 0.065760
0.067602 0.070404 0.072211
0.053089 0.052376 0.052319
0.076011 0.076239 0.076247
0.054225 0.054300 0.055066
0.419496 0.419633 0.419698
0.072428 0.072238 0.072037
0.091560 0.091725 0.091257
0.065915 0.065979 0.065986
0.078315 0.077923 0.078005
0.077621 0.077506 0.077447
0.088580 0.088620 0.089046
0.089738 0.089222 0.088826
0.059229 0.059627 0.059744
0.098095 0.098120 0.098297
0.073576 0.073077 0.073051
0.088408 0.088826 0.088647
0.051847 0.051877 0.051824
0.105866 0.105797 0.105207
0.070210 0.069908 0.068744
0.071830 0.073490 0.079857
0.072346 0.072221 0.072098
0.089495 0.088536 0.088688
0.102962 0.102646 0.103526
0.048236 0.048171 0.047516
0.087817 0.088049 0.088735
0.088924 0.088413 0.087816
0.101472 0.101372 0.100748
0.072326 0.070839 0.070777
0.104033 0.102978 0.103372
0.061078 0.061393 0.061702
0.053730 0.053687 0.053868
0.094842 0.094687 0.094754
0.085399 0.087269 0.087353
0.045514 0.045492 0.045370
0.093878 0.093760 0.093521
0.103628 0.103126 0.103167
0.095124 0.094638 0.095791
0.095127 0.093987 0.093941
0.049655 0.049234 0.049126
0.049204 0.049083 0.051253
0.084249 0.084238 0.084955
0.093284 0.092595 0.092654
0.086716 0.086983 0.086780
0.072068 0.072230 0.073388
0.054546 0.054184 0.054211
0.050416 0.050048 0.050173
0.095737 0.096039 0.096628
0.050298 0.050165 0.051464
0.105639 0.105514 0.106084
0.089552 0.089749 0.089643
0.062180 0.061526 0.061557
0.092511 0.092982 0.093462
0.050348 0.049902 0.050028
0.075627 0.075860 0.076095
0.043559 0.043377 0.043288
0.081847 0.080719 0.079229
0.051465 0.051814 0.050358
0.084108 0.078801 0.078175
0.078449 0.078924 0.079831
0.060179 0.060221 0.059910
0.106071 0.106257 0.106984
0.101069 0.100800 0.101057
0.103208 0.103291 0.103217
0.078009 0.077846 0.078147
0.046831 0.047157 0.047180
0.056864 0.056666 0.056780
0.054123 0.054069 0.053915
0.076768 0.076933 0.076891
0.085344 0.085686 0.085749
0.103397 0.103486 0.103856
0.073118 0.073141 0.072726
0.088473 0.089416 0.091160
0.055970 0.056080 0.056142
0.082232 0.082217 0.081321
0.094685 0.094855 0.094734
0.068879 0.068533 0.068353
0.080262 0.078931 0.078644
0.093145 0.093992 0.093844
0.057594 0.057815 0.057781
0.091463 0.094981 0.094936
0.072970 0.072879 0.072239
0.086466 0.086068 0.085183
0.104166 0.104075 0.103734
0.103579 0.103628 0.105049
0.076895 0.077021 0.077423
0.051833 0.052117 0.052630
0.054542 0.053951 0.054302
0.078880 0.079360 0.079425
0.077408 0.077358 0.077202
0.067248 0.067879 0.067955
0.079859 0.080249 0.079723
0.091838 0.091501 0.091423
0.099184 0.099284 0.100206
0.079315 0.079522 0.078670
0.072631 0.072752 0.072378
0.048399 0.048413 0.047604
0.093138 0.093345 0.095468
0.071694 0.071399 0.071226
0.077947 0.078109 0.078134
0.077305 0.076472 0.076512
0.090655 0.091376 0.091774
0.057700 0.057736 0.057748
0.093500 0.093200 0.092168
0.094350 0.095599 0.095278
0.049378 0.050333 0.050365
0.101097 0.101214 0.101205
0.108495 0.110149 0.109987
0.105528 0.105094 0.104898
0.091798 0.091859 0.092046
0.085910 0.085993 0.085857
0.103231 0.103497 0.104660
0.093473 0.092731 0.092084
0.087867 0.088605 0.088904
0.079046 0.078217 0.078030
0.064228 0.064210 0.064257
0.050207 0.050252 0.050105
0.108882 0.110126 0.110454
0.092657 0.095295 0.095538
0.076400 0.076175 0.075700
0.083920 0.083898 0.083680
0.076516 0.077463 0.077768
0.051506 0.051646 0.051595
0.092179 0.092907 0.093231
0.074860 0.075357 0.075636
0.082187 0.081297 0.080405
0.106650 0.106600 0.106848
0.086200 0.086512 0.087769
0.082607 0.082547 0.082451
0.077830 0.077814 0.077476
0.102182 0.102617 0.102375
0.054588 0.054649 0.054520
0.054623 0.054565 0.054585
0.062456 0.061759 0.061155
0.061019 0.063337 0.063579
0.059316 0.059798 0.060626
0.044249 0.044096 0.044245
0.082235 0.081986 0.081133
0.078031 0.077125 0.077314
0.097373 0.097081 0.097635
0.083902 0.084235 0.084242
0.090367 0.089780 0.089444
0.072377 0.072270 0.073475
0.061112 0.061374 0.061524
0.064684 0.063841 0.063463
0.070860 0.070762 0.070669
0.105003 0.105946 0.105797
0.090046 0.089279 0.089384
0.061748 0.061347 0.061019
0.085928 0.085550 0.085581
0.066819 0.066912 0.066856
0.061466 0.061021 0.063985
0.071398 0.071813 0.072150
0.091398 0.091411 0.085645
0.084953 0.085265 0.085305
0.092074 0.092098 0.091558
0.079683 0.079734 0.080006
0.099623 0.099452 0.099544
0.047396 0.047358 0.047407
0.078405 0.078098 0.078007
0.085192 0.085399 0.085606
0.092932 0.093180 0.091898
0.096604 0.096723 0.096964
0.079097 0.078111 0.077502
0.100179 0.100381 0.099961
0.104354 0.104779 0.104349
0.091292 0.091236 0.090880
0.090816 0.091009 0.090504
0.106642 0.106499 0.106535
0.088530 0.088455 0.088579
0.090863 0.090891 0.090549
0.086258 0.085348 0.084889
0.079239 0.079485 0.079365
0.094649 0.094652 0.095222
0.064542 0.064467 0.064437
0.071326 0.071354 0.073053
0.080796 0.081629 0.081456
0.103652 0.103763 0.103879
0.059560 0.059403 0.059171
0.075038 0.075154 0.075178
0.083139 0.083398 0.083024
0.060374 0.059516 0.059862
0.055855 0.055903 0.055978
0.082777 0.082877 0.082806
0.050724 0.049953 0.049585
0.073473 0.073516 0.073922
0.062160 0.062119 0.062057
0.086512 0.086310 0.086539
0.096750 0.096282 0.093557
0.057452 0.056531 0.056028
0.094850 0.094788 0.094650
0.085868 0.086108 0.085966
0.092936 0.093155 0.093243
0.082401 0.083068 0.085062
0.085456 0.085420 0.085288
0.079631 0.079689 0.079864
0.088566 0.088493 0.088172
0.090239 0.090436 0.091507
0.064350 0.064480 0.064370
0.092473 0.091971 0.091369
0.080364 0.080263 0.079375
0.102414 0.103048 0.102367
0.093724 0.093085 0.092662
0.088622 0.088737 0.089034
0.082350 0.082261 0.082322
0.071397 0.071361 0.070398
0.087102 0.086926 0.085266
0.080099 0.080822 0.080575
0.062077 0.061814 0.062015
0.090985 0.091063 0.091320
0.081282 0.080805 0.080891
0.085009 0.083377 0.083563
0.085048 0.085213 0.085052
0.047288 0.047699 0.047452
0.047191 0.047242 0.047135
0.077434 0.077948 0.077371
0.086026 0.086396 0.087405
0.081017 0.080745 0.080469
0.096288 0.096522 0.099170
0.101208 0.101613 0.095305
0.095164 0.094833 0.094893
0.074935 0.076481 0.075898
0.043074 0.043014 0.042423
0.095341 0.094899 0.092709
0.071794 0.071376 0.071048
0.071286 0.071205 0.071251
0.054621 0.054408 0.054094
0.071121 0.070077 0.069713
0.090317 0.090870 0.091268
0.078365 0.078206 0.078931
0.086710 0.086836 0.086147
0.548156 0.548185 0.548149
0.060295 0.060191 0.060088
0.090560 0.089711 0.089196
0.095121 0.095788 0.096232
0.046402 0.046217 0.045962
0.076090 0.076180 0.076331
0.082594 0.082495 0.082425
0.056543 0.056441 0.056394
0.091969 0.092437 0.092934
0.095854 0.095476 0.094867
0.061185 0.061313 0.061400
0.069729 0.069722 0.070206
0.087523 0.087480 0.087583
0.151444 0.151795 0.149912
0.068651 0.069039 0.069316
0.098411 0.098093 0.098186
0.052119 0.051873 0.050979
0.042437 0.044160 0.044754
0.045294 0.045646 0.045798
0.084084 0.083898 0.083890
0.082979 0.082767 0.082787
0.421842 0.421852 0.421882
0.065518 0.065190 0.065095
0.091073 0.090918 0.090604
0.102998 0.103330 0.103830
0.085803 0.085539 0.085388
0.090726 0.089063 0.086386
0.091363 0.091478 0.091269
0.085293 0.086830 0.087154
0.091620 0.091456 0.091176
0.306749 0.356153 0.381368
0.083556 0.084327 0.083941
0.059461 0.059329 0.059538
0.082446 0.081630 0.081812
0.093036 0.093614 0.093848
0.078175 0.077695 0.076039
0.076788 0.076807 0.076823
0.088138 0.089340 0.089032
0.092282 0.091976 0.090918
0.087775 0.088159 0.088278
0.095367 0.095375 0.095283
0.076293 0.076810 0.076906
0.050775 0.052002 0.052106
0.076461 0.077754 0.077707
0.100262 0.100290 0.099367
0.087023 0.087497 0.088775
0.085944 0.086171 0.085975
0.051906 0.050217 0.049969
0.087074 0.087217 0.086713
0.103616 0.104308 0.104124
0.095599 0.095278 0.094627
0.044651 0.044656 0.045056
0.077992 0.077302 0.077020
0.066130 0.066182 0.066334
0.090149 0.090189 0.090239
0.090410 0.090558 0.091064
0.080757 0.081518 0.080692
0.066045 0.065524 0.065455
0.070683 0.070611 0.070643
0.081663 0.082107 0.082426
0.090976 0.090750 0.097134
0.080437 0.079743 0.080092
0.068360 0.068336 0.068985
0.065296 0.065426 0.064483
0.086569 0.085351 0.085047
0.054109 0.053994 0.053985
0.104656 0.104705 0.104851
0.045388 0.044608 0.044386
0.049734 0.049765 0.049719
0.088557 0.089502 0.089892
0.048114 0.048126 0.048455
0.099182 0.099188 0.098897
0.072013 0.071993 0.072179
0.060173 0.059159 0.059149
0.081250 0.081804 0.081906
0.043170 0.043270 0.043354
0.094910 0.095164 0.094833
0.085480 0.085086 0.080912
0.052096 0.052287 0.052578
0.102964 0.103431 0.102231
0.107040 0.107150 0.107339
0.068815 0.069244 0.071020
0.095686 0.095785 0.094657
0.098742 0.099404 0.099495
0.042946 0.043071 0.043026
0.073041 0.072962 0.072733
0.092823 0.092936 0.093155
0.042933 0.042932 0.043110
0.066079 0.066131 0.065703
0.067978 0.067743 0.067582
0.091261 0.091241 0.091143
0.085751 0.085768 0.085260
0.102726 0.102713 0.102498
0.101130 0.106869 0.107408
0.056709 0.056107 0.056176
0.089931 0.091063 0.090824
0.080520 0.080515 0.080574
0.078582 0.078775 0.078654
0.068645 0.069034 0.069536
0.101483 0.100699 0.100510
0.079616 0.079737 0.079853
0.085823 0.085241 0.085644
0.088843 0.088392 0.088349
0.093844 0.092251 0.090976
0.082351 0.083164 0.083503
0.079594 0.079678 0.079442
0.093826 0.093875 0.093752
0.042906 0.042789 0.043086
0.052320 0.052274 0.053278
0.084405 0.084278 0.084116
0.096486 0.094923 0.094138
0.061696 0.062227 0.062675
0.047970 0.045281 0.045617
0.048654 0.051877 0.052077
0.090780 0.089137 0.089684
0.089046 0.090754 0.091435
0.050742 0.050429 0.050269
0.066183 0.066387 0.066339
0.063985 0.063884 0.064215
0.048419 0.047714 0.047947
0.066881 0.067494 0.067856
0.083607 0.084373 0.084398
0.075025 0.072892 0.072862
0.083909 0.083279 0.081758
0.072113 0.072143 0.072923
0.104015 0.103313 0.104031
0.046158 0.046173 0.046140
0.103317 0.102909 0.103027
0.078324 0.078216 0.077270
0.109671 0.110199 0.110718
0.069441 0.068813 0.068763
0.085399 0.085894 0.086658
0.097477 0.098443 0.098406
0.061295 0.061179 0.060967
0.080937 0.080350 0.082659
0.070258 0.070383 0.070608
0.074442 0.073364 0.073765
0.102979 0.102742 0.100771
0.108501 0.107720 0.106022
0.095160 0.095107 0.095357
0.071830 0.071661 0.071667
0.089440 0.089895 0.089738
0.101063 0.101436 0.097028
0.057870 0.057547 0.057775
0.061651 0.061393 0.061088
0.075887 0.078119 0.078703
0.077640 0.077404 0.077625
0.082366 0.083187 0.086767
0.096595 0.095864 0.095664
0.088093 0.089975 0.092177
0.085095 0.085242 0.085439
0.087144 0.087155 0.087507
0.074810 0.074982 0.074849
0.046147 0.046135 0.046103
0.079021 0.077333 0.077411
0.049213 0.050342 0.050801
0.551323 0.551864 0.561386
0.083128 0.083514 0.086754
0.081355 0.080997 0.080966
0.051126 0.051209 0.051558
0.045155 0.045249 0.045557
0.100203 0.100056 0.098399
0.093594 0.092798 0.092818
0.067125 0.067010 0.066666
0.086950 0.086927 0.088348
0.075254 0.075394 0.076110
0.086466 0.091823 0.092054
0.079109 0.079331 0.079660
0.100042 0.098118 0.098494
0.109855 0.109932 0.110064
0.072679 0.073213 0.073446
0.071947 0.071934 0.071156
0.066766 0.067274 0.067258
0.099022 0.099251 0.099367
0.091166 0.090995 0.091031
0.059743 0.059846 0.059880
0.072277 0.072351 0.072184
0.065548 0.065657 0.065177
0.052311 0.050896 0.049037
0.047677 0.047386 0.047230
0.083779 0.083522 0.084174
0.076774 0.076842 0.076810
0.079588 0.078206 0.078079
0.077228 0.077234 0.077352
0.092072 0.092429 0.092905
0.051478 0.051670 0.051322
0.089525 0.089268 0.089436
0.091109 0.091235 0.091416
0.071934 0.071156 0.071009
0.073224 0.072783 0.073313
0.088264 0.092491 0.094889
0.077469 0.077170 0.076906
0.083183 0.083616 0.083582
0.048894 0.048810 0.048852
0.078249 0.078175 0.077695
0.056486 0.056205 0.054501
0.052074 0.051307 0.051176
0.109241 0.109886 0.107805
0.046738 0.046213 0.046059
0.080011 0.079775 0.080175
0.060981 0.060086 0.059856
0.080219 0.079636 0.079564
0.092050 0.091882 0.092191
0.092907 0.093231 0.091903
0.090484 0.090526 0.090483
0.055854 0.056023 0.055864
0.078935 0.079317 0.075936
0.087723 0.087954 0.089252
0.092364 0.093351 0.093474
0.092727 0.092935 0.093026
0.067937 0.068301 0.068293
0.089815 0.088355 0.087888
0.062315 0.062297 0.062235
0.046729 0.046349 0.046238
0.074930 0.074915 0.074987
0.075125 0.074053 0.074386
0.043376 0.043745 0.043744
0.047137 0.047495 0.047922
0.100837 0.101276 0.101761
0.046156 0.046164 0.046160
0.091225 0.091479 0.091571
0.054197 0.054362 0.054436
0.074216 0.074516 0.074682
0.054801 0.055511 0.055439
0.064712 0.064693 0.064894
0.076409 0.076605 0.076565
0.069602 0.070195 0.070764
0.076662 0.076384 0.076206
0.052258 0.051504 0.050746
0.093201 0.094638 0.095236
0.088214 0.088302 0.087651
0.075617 0.076651 0.076810
0.062296 0.063207 0.063053
0.111333 0.111380 0.110177
0.090259 0.090362 0.090391
0.077219 0.077195 0.077421
0.085837 0.085761 0.084296
0.065192 0.064872 0.065039
0.084133 0.084177 0.084111
0.088271 0.088855 0.087763
0.074956 0.074192 0.074219
0.081000 0.080980 0.080506
0.062570 0.063057 0.062659
0.095098 0.096241 0.096137
0.094527 0.094073 0.093070
0.100444 0.099675 0.099775
0.087528 0.087342 0.086975
0.083138 0.083353 0.083186
0.087579 0.087101 0.087285
0.043725 0.043963 0.044066
0.079732 0.082317 0.082432
0.046233 0.046086 0.045954
0.086867 0.087592 0.087626
0.108329 0.108553 0.106729
0.058952 0.058962 0.058818
0.093376 0.093420 0.093452
0.052719 0.052216 0.051858
0.079974 0.079786 0.078654
0.088336 0.087980 0.087387
0.061286 0.061347 0.061508
0.072134 0.071754 0.071703
0.075273 0.075185 0.075422
0.062308 0.062225 0.062216
0.060420 0.059723 0.059245
0.077536 0.079630 0.082272
0.091337 0.091201 0.089878
0.063477 0.062347 0.062441
0.067052 0.066691 0.066963
0.106758 0.109954 0.110397
0.078794 0.078565 0.077797
0.100789 0.098885 0.098174
0.082543 0.082370 0.082371
0.064738 0.064829 0.064834
0.073364 0.073115 0.073693
0.086872 0.087119 0.087219
0.054832 0.055077 0.054877
0.083306 0.083233 0.083297
0.072344 0.072716 0.072748
0.077685 0.077234 0.077313
0.082883 0.082995 0.082901
0.093069 0.092917 0.093043
0.056871 0.056852 0.056954
0.086202 0.086552 0.087077
0.092649 0.091847 0.090920
0.045826 0.045981 0.046080
0.054585 0.054311 0.054493
0.061192 0.061314 0.061294
0.073331 0.074914 0.074696
0.095970 0.095412 0.095329
0.093994 0.093606 0.092651
0.093712 0.092907 0.092746
0.048098 0.049617 0.049494
0.102841 0.102955 0.103516
0.109168 0.110121 0.109999
0.071144 0.070783 0.068844
0.087594 0.088786 0.084828
0.066762 0.066941 0.067281
0.081721 0.081883 0.082219
0.070046 0.069935 0.069317
0.082437 0.082499 0.081639
0.560548 0.549897 0.497151
0.074012 0.074058 0.074188
0.071526 0.071295 0.070748
0.080160 0.079754 0.079264
0.093955 0.094208 0.094153
0.562047 0.562190 0.562295
0.094736 0.094637 0.094682
0.165158 0.163497 0.162741
0.048998 0.049186 0.048935
0.096997 0.096751 0.096688
0.098406 0.098173 0.098074
0.080255 0.080193 0.078271
0.046945 0.045879 0.045968
0.084204 0.083915 0.083548
0.050806 0.050587 0.050436
0.105521 0.105625 0.105571
0.068613 0.069065 0.069504
0.083715 0.084357 0.084431
0.070181 0.070262 0.070086
0.093486 0.093131 0.093073
0.082499 0.081639 0.084296
0.071274 0.071715 0.071297
0.093883 0.093517 0.093487
0.080848 0.080687 0.080698
0.075460 0.075887 0.078119
0.101872 0.101615 0.101480
0.060073 0.060622 0.061760
0.042853 0.043338 0.042851
0.087383 0.087924 0.087052
0.079465 0.079331 0.079329
0.147456 0.105273 0.103884
0.088821 0.087547 0.087679
0.066123 0.066330 0.066872
0.087404 0.087618 0.087233
0.046723 0.046715 0.046700
0.064680 0.065167 0.067251
0.100510 0.097332 0.095801
0.088352 0.088465 0.087780
0.100451 0.100099 0.099879
0.044127 0.044109 0.044084
0.095766 0.096239 0.096397
0.076906 0.076824 0.076749
0.562415 0.562227 0.562221
0.049397 0.049273 0.049283
0.065596 0.065418 0.065512
0.086788 0.086906 0.087055
0.106807 0.106526 0.107118
0.045595 0.045607 0.045603
0.098882 0.098372 0.098607
0.107664 0.107723 0.107010
0.078986 0.079135 0.079202
0.056107 0.056176 0.055860
0.092503 0.092223 0.092412
0.100989 0.100785 0.098634
0.092699 0.092311 0.092991
0.076414 0.074754 0.074468
0.094398 0.094531 0.092907
0.077928 0.079762 0.079920
0.046211 0.045631 0.045635
0.092485 0.091818 0.092195
0.088884 0.090080 0.090379
0.075866 0.075889 0.075930
0.084696 0.084275 0.084145
0.086728 0.087313 0.086799
0.078857 0.080600 0.079918
0.099003 0.098994 0.099035
0.050372 0.050407 0.050320
0.079445 0.079742 0.079817
0.073839 0.074300 0.074369
0.074003 0.075187 0.075261
0.048575 0.048976 0.048935
0.068517 0.068284 0.067226
0.057179 0.057423 0.059886
0.098258 0.098124 0.098109
0.069312 0.069602 0.069394
0.075689 0.076733 0.076852
0.072311 0.072004 0.071780
0.090569 0.090516 0.090627
0.079554 0.079472 0.079601
0.091099 0.091261 0.091137
0.073688 0.074568 0.074744
0.087244 0.087523 0.087480
0.066183 0.065967 0.066360
0.074848 0.074663 0.074639
0.078005 0.081525 0.082306
0.083717 0.081587 0.081482
0.089481 0.090039 0.089914
0.078589 0.074505 0.074602
0.084143 0.084727 0.085294
0.049512 0.049584 0.050128
0.067330 0.067612 0.067956
0.068672 0.067864 0.067648
0.418486 0.413015 0.377873
0.085034 0.087153 0.086435
0.096863 0.096192 0.095735
0.049125 0.049452 0.049512
0.092251 0.090976 0.090750
0.068175 0.068356 0.070832
0.096447 0.096202 0.096024
0.075803 0.075151 0.074569
0.076729 0.076839 0.076888
0.073890 0.073806 0.073104
0.075053 0.074971 0.074216
0.093093 0.092907 0.093047
0.082082 0.081528 0.081828
0.076791 0.077749 0.077799
0.101690 0.101296 0.103558
0.069319 0.069635 0.069149
0.098067 0.098111 0.098316
0.082808 0.082127 0.080097
0.058969 0.058675 0.057788
0.086081 0.087804 0.088687
0.069859 0.070043 0.070289
0.088672 0.090333 0.090155
0.056002 0.055861 0.056004
0.076808 0.076970 0.078571
0.087374 0.087355 0.085966
0.082171 0.081173 0.080179
0.081731 0.082182 0.082687
0.088194 0.088249 0.087634
0.054264 0.053558 0.052854
0.077006 0.076237 0.076671
0.076825 0.076724 0.077270
