0.063475 0.063481 0.064055
0.091160 0.090842 0.090934
0.101285 0.102766 0.102480
0.083264 0.084156 0.084146
0.121216 0.121152 0.120992
0.097380 0.096839 0.096959
0.054915 0.055092 0.055603
0.085937 0.086145 0.086095
0.078288 0.078082 0.077640
0.092815 0.092980 0.093094
0.050584 0.050930 0.051883
0.085248 0.085515 0.087271
0.064988 0.065128 0.063800
0.047227 0.048460 0.048783
0.092997 0.093011 0.092981
0.069455 0.069430 0.069743
0.043079 0.043848 0.045374
0.082469 0.082222 0.082199
0.051186 0.050877 0.050876
0.063119 0.062559 0.062571
0.101295 0.101547 0.101565
0.095472 0.078343 0.076786
0.070145 0.068802 0.068292
0.101628 0.101614 0.100514
0.109524 0.109553 0.107018
0.088689 0.088086 0.088431
0.063796 0.064403 0.063675
0.075880 0.075975 0.076211
0.082920 0.081352 0.080275
0.066578 0.067434 0.067788
0.069343 0.069417 0.069212
0.106210 0.105010 0.105201
0.062225 0.062261 0.062331
0.090784 0.090783 0.090461
0.396785 0.396966 0.397062
0.055291 0.056321 0.056695
0.098832 0.098828 0.098919
0.102746 0.102764 0.102684
0.095222 0.096092 0.096250
0.043795 0.044258 0.044283
0.081800 0.081680 0.081748
0.085053 0.084913 0.084471
0.060062 0.060706 0.060900
0.074550 0.075638 0.075689
0.062093 0.061583 0.060313
0.090049 0.089981 0.089898
0.057599 0.057826 0.058393
0.093154 0.089885 0.090976
0.060777 0.060453 0.060708
0.091322 0.091376 0.090923
0.066259 0.066144 0.066013
0.091779 0.091982 0.092266
0.659429 0.595702 0.531060
0.089466 0.089435 0.089562
0.100684 0.100922 0.100936
0.101009 0.101142 0.101397
0.086833 0.086191 0.086596
0.057948 0.057687 0.055672
0.066613 0.066738 0.070441
0.059258 0.059962 0.059964
0.107215 0.108382 0.108569
0.106416 0.106016 0.104921
0.070073 0.069774 0.067268
0.076731 0.076592 0.076395
0.113185 0.112968 0.112731
0.076792 0.075726 0.075625
0.092606 0.092179 0.089689
0.091552 0.093273 0.094146
0.095678 0.095387 0.095082
0.054107 0.054363 0.054396
0.107898 0.107651 0.108895
0.105594 0.104287 0.103278
0.079285 0.079458 0.079595
0.066672 0.065253 0.064993
0.092902 0.092080 0.091654
0.087779 0.088084 0.087907
0.999243 0.998994 0.998924
0.099472 0.100010 0.100320
0.070023 0.069784 0.069914
0.073926 0.078089 0.079298
0.045994 0.045853 0.045794
0.107742 0.103448 0.103537
0.063245 0.063484 0.063496
0.074882 0.076031 0.076077
0.103245 0.103376 0.103510
0.095486 0.095078 0.094800
0.092287 0.091841 0.090926
0.081097 0.080481 0.080938
0.078738 0.078963 0.079046
0.076222 0.076050 0.075892
0.110784 0.110169 0.110159
0.068897 0.069063 0.070051
0.050144 0.050405 0.050463
0.102095 0.101050 0.099738
0.064113 0.063955 0.063864
0.101140 0.102014 0.102542
0.069842 0.070049 0.070211
0.083791 0.083106 0.081335
0.092053 0.091577 0.091724
0.075876 0.077010 0.075402
0.088321 0.088209 0.088221
0.998359 0.998779 0.999231
0.088410 0.088799 0.088211
0.081611 0.081908 0.081857
0.088270 0.088523 0.088606
0.087607 0.087787 0.087771
0.057224 0.058230 0.058522
0.096923 0.097273 0.099448
0.081889 0.082078 0.081986
0.080711 0.081067 0.080987
0.079373 0.079104 0.078661
0.135325 0.136177 0.137029
0.080392 0.079649 0.080322
0.082083 0.082448 0.079673
0.060069 0.060430 0.060735
0.091136 0.090639 0.091138
0.334190 0.334228 0.334589
0.090958 0.091668 0.092489
0.091412 0.091499 0.091858
0.072313 0.071662 0.071874
0.096373 0.096901 0.096494
0.061735 0.061620 0.065309
0.097031 0.097147 0.096976
0.084712 0.084295 0.084255
0.072520 0.073046 0.073831
0.071573 0.071014 0.070370
0.045415 0.046671 0.047306
0.067819 0.066809 0.066847
0.073743 0.073224 0.072926
0.094756 0.094619 0.094629
0.075838 0.075858 0.075841
0.104067 0.104224 0.104235
0.107384 0.107218 0.106015
0.095567 0.086561 0.085787
0.073854 0.073729 0.073676
0.077966 0.078011 0.077943
0.069566 0.069510 0.069299
0.083158 0.083168 0.082804
0.088764 0.088421 0.087811
0.104443 0.104324 0.103931
0.069219 0.069966 0.070411
0.092472 0.092668 0.092606
0.099702 0.099611 0.099898
0.398375 0.398350 0.397964
0.097479 0.097124 0.095620
0.080926 0.081065 0.081738
0.062858 0.063072 0.062318
0.096963 0.091783 0.089411
0.089795 0.089689 0.091645
0.080900 0.080824 0.080698
0.069857 0.072071 0.071705
0.050972 0.050973 0.051026
0.085248 0.085323 0.085162
0.081383 0.083940 0.084533
0.088068 0.088111 0.088609
0.092394 0.091629 0.091959
0.078511 0.078289 0.077873
0.086053 0.086140 0.087270
0.108536 0.108411 0.108389
0.112613 0.112367 0.112152
0.091118 0.091257 0.091934
0.094326 0.094115 0.094276
0.073878 0.074395 0.074672
0.046135 0.046101 0.045757
0.079313 0.079403 0.079683
0.066640 0.066766 0.066529
0.080465 0.080403 0.079836
0.102709 0.102196 0.101696
0.104122 0.103418 0.102841
0.081340 0.080645 0.079871
0.075495 0.075403 0.075336
0.089598 0.084436 0.079432
0.086146 0.086489 0.085404
0.053200 0.052898 0.046809
0.064360 0.064426 0.064586
0.059164 0.060187 0.060232
0.084642 0.084162 0.083901
0.081508 0.081723 0.081763
0.056591 0.057324 0.058272
0.087865 0.085890 0.086284
0.111635 0.111667 0.109750
0.093877 0.093914 0.094170
0.624376 0.629956 0.676737
0.068284 0.068494 0.068471
0.089765 0.088627 0.087399
0.085956 0.085808 0.085369
0.106815 0.106916 0.107262
0.067762 0.067653 0.067252
0.063766 0.063960 0.063867
0.076549 0.076578 0.076447
0.089425 0.087581 0.087617
0.045187 0.045284 0.045469
0.069071 0.069057 0.068576
0.065463 0.067758 0.068181
0.716180 0.714829 0.714886
0.069758 0.070042 0.070391
0.086630 0.086518 0.087082
0.079166 0.079057 0.078896
0.105947 0.106139 0.106478
0.080208 0.080027 0.080851
0.083384 0.083017 0.083199
0.084888 0.085118 0.084591
0.105720 0.106526 0.106610
0.134031 0.135105 0.135417
0.066651 0.066391 0.065611
0.090334 0.089930 0.089689
0.067312 0.067404 0.065520
0.070869 0.070655 0.070456
0.080263 0.080190 0.079975
0.062883 0.063137 0.063278
0.079033 0.078865 0.078199
0.082218 0.082585 0.082948
0.075919 0.075391 0.075119
0.076373 0.076462 0.077986
0.102775 0.101930 0.101847
0.077747 0.077575 0.077626
0.092763 0.092901 0.093239
0.101561 0.101984 0.102087
0.052631 0.053409 0.053744
0.084537 0.084460 0.084687
0.060769 0.060699 0.060847
0.059263 0.058301 0.058392
0.071658 0.071334 0.072070
0.059323 0.059235 0.059151
0.058688 0.060008 0.060417
0.105457 0.105792 0.104439
0.085270 0.084975 0.084926
0.096395 0.096733 0.097355
0.076145 0.076230 0.076252
0.077441 0.077862 0.079035
0.094299 0.096211 0.096397
0.080667 0.080963 0.081550
0.062025 0.061390 0.060707
0.334639 0.334734 0.334731
0.078058 0.078874 0.079112
0.069115 0.068179 0.067732
0.057077 0.055994 0.056483
0.073896 0.073833 0.073926
0.097479 0.098063 0.098258
0.099699 0.102311 0.102488
0.088515 0.088505 0.088604
0.074376 0.074257 0.073481
0.092777 0.092977 0.092882
0.077961 0.077200 0.076891
0.059600 0.059580 0.059578
0.069722 0.069432 0.068366
0.100778 0.101656 0.101897
0.068462 0.069018 0.068975
0.105198 0.105937 0.106337
0.073076 0.071413 0.070739
0.104360 0.104534 0.107062
0.088094 0.087646 0.087267
0.088228 0.088494 0.088409
0.096741 0.096359 0.096127
0.055435 0.055359 0.054952
0.093879 0.093916 0.093415
0.064734 0.064364 0.063509
0.097280 0.097339 0.096046
0.074307 0.074426 0.074483
0.069506 0.069893 0.069478
0.103706 0.102327 0.098101
0.064367 0.063155 0.063291
0.090852 0.090673 0.090937
0.095614 0.095741 0.095539
0.079484 0.078535 0.077687
0.108414 0.106743 0.107909
0.099700 0.099068 0.098163
0.080529 0.080457 0.080400
0.090557 0.090748 0.090883
0.094971 0.094915 0.095147
0.131350 0.131741 0.131706
0.091848 0.092218 0.091813
0.108488 0.108280 0.107466
0.125891 0.125941 0.128471
0.107739 0.108074 0.107041
0.071931 0.071758 0.070499
0.086010 0.086021 0.085956
0.112892 0.112324 0.112656
0.060089 0.056882 0.057330
0.066058 0.066235 0.066512
0.089046 0.088280 0.088213
0.068861 0.068757 0.068667
0.047260 0.047202 0.047099
0.082822 0.082791 0.082354
0.067268 0.066726 0.066235
0.074667 0.075779 0.076519
0.092355 0.092143 0.092563
0.069729 0.069241 0.069760
0.082649 0.082410 0.083344
0.075910 0.074021 0.072672
0.069985 0.068452 0.067938
0.092116 0.092243 0.092837
0.063786 0.063378 0.064534
0.078350 0.077866 0.078005
0.060494 0.060504 0.060677
0.108044 0.108170 0.107427
0.056354 0.056493 0.056457
0.067425 0.067331 0.067355
0.061840 0.061086 0.059573
0.063496 0.063786 0.063499
0.091292 0.092026 0.093598
0.083890 0.084092 0.083763
0.059573 0.056998 0.046133
0.086282 0.086856 0.090121
0.100970 0.101325 0.102289
0.109462 0.111179 0.110994
0.088405 0.088754 0.088881
0.105907 0.105642 0.105681
0.105873 0.106712 0.106758
0.108603 0.108499 0.108375
0.088284 0.087902 0.089171
0.086851 0.086768 0.086586
0.064931 0.064737 0.064708
0.069567 0.069695 0.069155
0.091680 0.091589 0.090731
0.107290 0.107572 0.107223
0.054714 0.055881 0.056403
0.091967 0.092784 0.093348
0.073317 0.073754 0.074426
0.105019 0.106237 0.106159
0.063704 0.063692 0.063470
0.136405 0.136009 0.135887
0.093378 0.092659 0.092290
0.066659 0.068709 0.068941
0.060573 0.060107 0.060148
0.062767 0.063410 0.063631
0.079787 0.079691 0.079671
0.074495 0.074759 0.074847
0.064416 0.064319 0.064231
0.088306 0.088032 0.087865
0.088994 0.088618 0.088542
0.064673 0.064750 0.064801
0.082604 0.083251 0.082977
0.051805 0.052036 0.052061
0.102100 0.102479 0.103014
0.097376 0.097625 0.098084
0.057301 0.057813 0.059913
0.076190 0.076368 0.076533
0.080867 0.080841 0.080813
0.063379 0.063480 0.063594
0.064957 0.063580 0.063389
0.331201 0.331842 0.333366
0.044343 0.044427 0.044391
0.088960 0.089606 0.089944
0.079677 0.078692 0.078505
0.088287 0.088154 0.088576
0.075689 0.074486 0.073713
0.076128 0.075971 0.075984
0.098579 0.097507 0.098579
0.077940 0.078094 0.077991
0.092484 0.092193 0.091159
0.069129 0.069156 0.068625
0.073507 0.073560 0.073182
0.091040 0.092053 0.092302
0.091251 0.090771 0.090575
0.048708 0.048369 0.044307
0.088659 0.088606 0.087893
0.063306 0.063230 0.063978
0.090482 0.091168 0.091295
0.096365 0.096596 0.096441
0.048550 0.048449 0.047802
0.080896 0.080774 0.080886
0.064978 0.064926 0.064779
0.067558 0.067591 0.067697
0.063311 0.063170 0.063036
0.080350 0.080337 0.076053
0.095780 0.093401 0.093228
0.076533 0.076561 0.076948
0.334731 0.334738 0.334750
0.095384 0.095661 0.095942
0.086462 0.086421 0.087834
0.078461 0.079157 0.079258
0.060900 0.060969 0.062102
0.092194 0.091963 0.091947
0.062010 0.062065 0.062570
0.090266 0.090457 0.090750
0.093598 0.094219 0.095001
0.089969 0.089796 0.089391
0.060319 0.060251 0.060125
0.090234 0.090817 0.091077
0.078298 0.078183 0.078313
0.091485 0.091020 0.091643
0.092278 0.092289 0.092575
0.062344 0.061044 0.061116
0.102761 0.102535 0.102810
0.081876 0.081988 0.082438
0.080978 0.080383 0.077300
0.076183 0.076662 0.078111
0.058648 0.057801 0.058641
0.065124 0.065880 0.066042
0.080565 0.080450 0.080778
0.050193 0.050370 0.050444
0.106290 0.106397 0.106550
0.089195 0.088302 0.088652
0.094674 0.094299 0.094020
0.071888 0.071771 0.072131
0.084812 0.084544 0.085134
0.050326 0.050167 0.049733
0.138904 0.138245 0.135848
0.090334 0.090427 0.090515
0.061809 0.061639 0.061510
0.106570 0.106689 0.106799
0.088463 0.088718 0.089069
0.046886 0.046870 0.046886
0.071153 0.072942 0.072887
0.108436 0.108599 0.109241
0.062263 0.061975 0.062322
0.089844 0.089880 0.089868
0.067407 0.067133 0.068599
0.086832 0.087177 0.088624
0.059564 0.059517 0.059098
0.115231 0.114844 0.114607
0.092180 0.092233 0.092071
0.078275 0.078206 0.078179
0.088505 0.088824 0.089239
0.092497 0.092734 0.092603
0.060728 0.060099 0.060176
0.091151 0.090980 0.090218
0.081328 0.082008 0.081893
0.060919 0.060897 0.060585
0.070190 0.070175 0.070386
0.067579 0.068594 0.069009
0.062492 0.063523 0.063683
0.081039 0.081030 0.081176
0.087961 0.091193 0.093167
0.073333 0.072847 0.072451
0.104299 0.106311 0.106312
0.108462 0.107883 0.107464
0.053775 0.053573 0.053719
0.051082 0.050967 0.050989
0.121415 0.120579 0.120007
0.085941 0.086012 0.086648
0.089789 0.089654 0.089407
0.085188 0.085622 0.085747
0.090136 0.090430 0.089282
0.095629 0.094966 0.095202
0.067099 0.068573 0.068481
0.093679 0.093857 0.094467
0.071702 0.072975 0.073076
0.333123 0.332696 0.332653
0.085029 0.084811 0.084279
0.068562 0.068052 0.068179
0.085169 0.084943 0.084979
0.056797 0.056803 0.056916
0.084757 0.084155 0.084110
0.087084 0.087684 0.088947
0.081933 0.082596 0.082745
0.101779 0.101929 0.102395
0.095610 0.095272 0.094704
0.082167 0.082283 0.082233
0.050220 0.050241 0.050347
0.086186 0.085672 0.085818
0.076591 0.076950 0.078467
0.066272 0.066229 0.065841
0.070257 0.070084 0.069783
0.063743 0.063533 0.061376
0.048726 0.048578 0.047889
0.089780 0.089670 0.089489
0.099869 0.096586 0.096464
0.100206 0.099945 0.100463
0.080745 0.080642 0.080329
0.093364 0.093425 0.093197
0.061765 0.061921 0.062117
0.091552 0.091305 0.090815
0.067371 0.067374 0.067602
0.047269 0.047410 0.048019
0.129189 0.130297 0.131052
0.064525 0.065262 0.065735
0.060008 0.060417 0.060592
0.082798 0.082007 0.081517
0.100753 0.100589 0.100558
0.047488 0.047391 0.047057
0.080125 0.080567 0.080940
0.120427 0.120630 0.120661
0.083526 0.083519 0.083334
0.333631 0.333622 0.333674
0.064794 0.065613 0.066419
0.085051 0.085283 0.087236
0.088262 0.088237 0.088573
0.061907 0.061852 0.061850
0.063148 0.062407 0.062451
0.074416 0.074555 0.074345
0.079480 0.080062 0.080189
0.046859 0.047109 0.046784
0.062585 0.062608 0.062466
0.078026 0.075863 0.075498
0.060410 0.059053 0.056540
0.062411 0.062646 0.062724
0.075298 0.075396 0.076120
0.078580 0.078663 0.078056
0.066720 0.066650 0.066324
0.114499 0.115567 0.115502
0.109750 0.110059 0.109907
0.083149 0.082801 0.082793
0.108208 0.107736 0.108683
0.078146 0.078308 0.081414
0.073397 0.073632 0.073709
0.061673 0.061735 0.061620
0.065681 0.065329 0.065305
0.068886 0.068848 0.068834
0.046002 0.045959 0.045876
0.099111 0.099356 0.099248
0.058650 0.058958 0.058543
0.060072 0.060130 0.060169
0.076150 0.076206 0.076162
0.109847 0.109984 0.111726
0.057983 0.057756 0.057198
0.073870 0.073755 0.073759
0.053269 0.053172 0.053287
0.059963 0.060381 0.060547
0.102329 0.102109 0.101550
0.072524 0.070969 0.072125
0.081553 0.082340 0.082657
0.043767 0.044653 0.045082
0.081235 0.080915 0.080813
0.051305 0.051620 0.051676
0.090261 0.089927 0.089480
0.085134 0.085953 0.087266
0.069742 0.069716 0.069562
0.085861 0.085084 0.081633
0.092103 0.092361 0.092478
0.073046 0.072582 0.072897
0.084976 0.085637 0.085269
0.077513 0.078487 0.079743
0.063810 0.063618 0.063830
0.088705 0.089170 0.091840
0.078748 0.078007 0.078156
0.070752 0.070699 0.070606
0.100624 0.100566 0.101035
0.073802 0.067786 0.067208
0.066474 0.066536 0.065820
0.073424 0.073630 0.073979
0.096904 0.096984 0.096785
0.085272 0.085223 0.085740
0.072099 0.072573 0.073444
0.103090 0.101669 0.101644
0.109849 0.108899 0.108458
0.091170 0.091215 0.089005
0.100863 0.100960 0.101022
0.100345 0.100362 0.100948
0.113663 0.113171 0.113098
0.069227 0.069207 0.068670
0.092401 0.092267 0.091253
0.076274 0.076128 0.075971
0.070634 0.070258 0.070040
0.071652 0.071271 0.067602
0.074063 0.074196 0.073996
0.073004 0.072608 0.071265
0.091508 0.091934 0.092019
0.062674 0.062832 0.062589
0.057932 0.057938 0.058178
0.084238 0.085831 0.085852
0.082248 0.082668 0.082524
0.077358 0.076091 0.074512
0.091441 0.091544 0.091575
0.075779 0.076519 0.077879
0.071944 0.071771 0.071620
0.082203 0.081402 0.080249
0.055719 0.055618 0.055347
0.334752 0.334928 0.335356
0.064835 0.064876 0.065350
0.056403 0.056730 0.057134
0.064981 0.064878 0.064832
0.077987 0.077869 0.077068
0.084247 0.083336 0.083090
0.091839 0.092062 0.090829
0.070941 0.070880 0.070835
0.105067 0.104727 0.105454
0.083505 0.083793 0.083962
0.058819 0.059133 0.059507
0.071075 0.071216 0.072269
0.077154 0.076736 0.076517
0.079310 0.079616 0.079586
0.073647 0.073399 0.072973
0.044511 0.044692 0.044729
0.108518 0.108625 0.108486
0.046479 0.045807 0.049828
0.105989 0.105637 0.106029
0.095273 0.095583 0.095089
0.100651 0.100642 0.100422
0.061159 0.061448 0.061991
0.069703 0.069793 0.069503
0.105572 0.106019 0.106160
0.067313 0.067196 0.066982
0.061513 0.061655 0.061701
0.091485 0.091327 0.090713
0.055642 0.055489 0.055356
0.099079 0.098731 0.097194
0.088933 0.088126 0.083584
0.111240 0.110931 0.110310
0.061595 0.061405 0.061182
0.082304 0.082222 0.081441
0.084358 0.083974 0.083605
0.064202 0.064220 0.064195
0.105344 0.106568 0.107305
0.087566 0.087930 0.088400
0.064920 0.064832 0.064745
0.060759 0.060663 0.060548
0.103185 0.101902 0.101917
0.097309 0.097598 0.100770
0.072277 0.072364 0.072569
0.051301 0.051604 0.051613
0.101204 0.101118 0.100587
0.063624 0.064302 0.064305
0.097442 0.097405 0.097276
0.069957 0.070139 0.069985
0.059053 0.056540 0.056547
0.070180 0.070216 0.070038
0.044956 0.044829 0.044415
0.088217 0.090951 0.090610
0.064962 0.064906 0.064775
0.073735 0.073852 0.073789
0.082911 0.085756 0.086148
0.091160 0.091096 0.090824
0.101354 0.101904 0.102102
0.085091 0.085865 0.086166
0.070158 0.070156 0.070179
0.102067 0.102409 0.101721
0.084424 0.084166 0.083492
0.091723 0.091616 0.091632
0.072375 0.072821 0.073329
0.065457 0.065294 0.064857
0.062451 0.062774 0.062529
0.066600 0.066607 0.066381
0.104882 0.104762 0.104891
0.103208 0.102768 0.100610
0.089930 0.089689 0.090411
0.081214 0.084807 0.084940
0.100903 0.100874 0.100510
0.084036 0.084097 0.084155
0.101421 0.101952 0.101903
0.100825 0.100019 0.098683
0.068810 0.068805 0.067863
0.072914 0.072627 0.071314
0.055756 0.055671 0.054783
0.068420 0.068415 0.067533
0.091448 0.090810 0.090795
0.103623 0.103725 0.104105
0.050081 0.049975 0.049695
0.082629 0.082684 0.082640
0.058784 0.058980 0.059312
0.091388 0.091968 0.091608
0.999337 0.999322 0.999306
0.066857 0.066610 0.065426
0.072737 0.072826 0.072412
0.333341 0.333418 0.333477
0.053287 0.053217 0.053211
0.066774 0.066936 0.066943
0.057577 0.057571 0.057445
0.088799 0.088211 0.082979
0.416648 0.423467 0.425386
0.086799 0.086705 0.086519
0.096503 0.096392 0.095884
0.091043 0.090778 0.089352
0.104529 0.104261 0.102497
0.079418 0.079114 0.079122
0.106249 0.106138 0.105382
0.097116 0.096983 0.097043
0.093805 0.094184 0.093881
0.063671 0.063125 0.061354
0.068451 0.068569 0.068260
0.111123 0.111200 0.112036
0.072656 0.073237 0.073230
0.106624 0.106608 0.106843
0.053775 0.053804 0.053727
0.124754 0.125531 0.127072
0.077209 0.076917 0.077038
0.082727 0.081894 0.082407
0.074506 0.073371 0.073347
0.105862 0.105859 0.105378
0.087451 0.087289 0.087260
0.088661 0.088326 0.087674
0.101347 0.100269 0.101030
0.068430 0.068429 0.068290
0.074229 0.073449 0.073660
0.071336 0.070735 0.070766
0.047035 0.046084 0.045463
0.080406 0.081661 0.081861
0.071606 0.070879 0.071053
0.081834 0.082054 0.082118
0.075103 0.075285 0.075499
0.062769 0.063506 0.063602
0.072210 0.073669 0.074414
0.063175 0.062916 0.062934
0.099894 0.100072 0.100087
0.053991 0.053844 0.053987
0.059544 0.059438 0.059558
0.104307 0.104681 0.104544
0.089031 0.089053 0.088807
0.075332 0.074783 0.074775
0.061592 0.061733 0.060701
0.062087 0.061984 0.061494
0.052491 0.052502 0.051826
0.069118 0.069143 0.069048
0.077747 0.077594 0.078167
0.089154 0.088703 0.088909
0.113345 0.114732 0.113611
0.099310 0.099449 0.099352
0.096574 0.096868 0.097260
0.088583 0.088715 0.088613
0.050560 0.051540 0.051450
0.053147 0.052324 0.052315
0.071974 0.074163 0.074458
0.069894 0.069892 0.069861
0.061691 0.061648 0.061482
0.081358 0.080790 0.080304
0.080872 0.081082 0.081170
0.112220 0.112225 0.111139
0.089757 0.089440 0.089288
0.114654 0.114265 0.114788
0.115766 0.116317 0.116173
0.094963 0.153281 0.350019
0.077947 0.078161 0.078461
0.106392 0.106302 0.107083
0.057131 0.055825 0.056554
0.069701 0.068827 0.068007
0.052499 0.052695 0.053198
0.055018 0.055854 0.055776
0.101691 0.102341 0.103570
0.101859 0.101938 0.101798
0.087295 0.087215 0.086966
0.088933 0.088940 0.089390
0.086699 0.086984 0.086648
0.080858 0.081529 0.081358
0.079761 0.080556 0.084713
0.087375 0.086784 0.083427
0.092959 0.093330 0.093552
0.099778 0.099916 0.100072
0.064782 0.064312 0.064139
0.092790 0.094047 0.109435
0.090771 0.090470 0.090209
0.070416 0.070387 0.071300
0.068454 0.068145 0.067802
0.089272 0.089134 0.087490
0.093448 0.092933 0.092962
0.099916 0.100072 0.100085
0.072622 0.072200 0.071783
0.073774 0.074057 0.074557
0.105797 0.105085 0.104839
0.061300 0.061304 0.060875
0.073481 0.073400 0.073465
0.102289 0.102482 0.102345
0.089476 0.089998 0.089726
0.093683 0.093783 0.092737
0.062802 0.062656 0.062682
0.106988 0.107354 0.108293
0.084037 0.084435 0.084134
0.044040 0.044140 0.044162
0.062698 0.062588 0.062574
0.045830 0.045786 0.045959
0.077533 0.077714 0.078394
0.057570 0.058177 0.057304
0.048924 0.047720 0.047439
0.075092 0.074894 0.076020
0.066346 0.066600 0.066607
0.095100 0.094953 0.094446
0.063812 0.064176 0.064204
0.060544 0.060409 0.061384
0.115231 0.115173 0.115149
0.118941 0.118900 0.118342
0.106370 0.104729 0.104606
0.998882 0.998848 0.998891
0.084256 0.086865 0.094577
0.091694 0.091639 0.090739
0.103963 0.104212 0.104345
0.397216 0.397246 0.397281
0.091191 0.090754 0.090809
0.072359 0.072554 0.071523
0.135731 0.135123 0.131438
0.075837 0.074787 0.074600
0.073119 0.073879 0.074673
0.077091 0.076677 0.076637
0.092186 0.093270 0.092904
0.081064 0.081492 0.080593
0.074132 0.075633 0.076570
0.096324 0.096074 0.097314
0.052254 0.052977 0.053520
0.089967 0.089751 0.093749
0.085518 0.086548 0.089855
0.077115 0.076869 0.076558
0.080486 0.080086 0.079440
0.108082 0.107504 0.107897
0.201098 0.207666 0.227942
0.082514 0.082633 0.082566
0.066917 0.068072 0.068404
0.070112 0.069854 0.069152
0.100193 0.099872 0.101419
0.084003 0.083375 0.083489
0.062771 0.062813 0.063452
0.086596 0.087224 0.088598
0.088611 0.087761 0.087463
0.064444 0.064424 0.065422
0.072599 0.075748 0.075990
0.105771 0.106205 0.110926
0.090383 0.089523 0.089078
0.045213 0.045034 0.044978
0.074406 0.074262 0.073527
0.079560 0.078117 0.077987
0.074403 0.074250 0.074319
0.096348 0.095527 0.095396
0.045314 0.045215 0.045337
0.398920 0.399098 0.399117
0.053441 0.053340 0.053228
0.131344 0.131542 0.132384
0.070931 0.069935 0.069965
0.104360 0.104738 0.109117
0.098262 0.098070 0.097855
0.108521 0.108679 0.110008
0.057600 0.057583 0.057574
0.092350 0.091321 0.091397
0.080851 0.080886 0.080698
0.058489 0.058723 0.058468
0.057163 0.058020 0.058846
0.059177 0.061257 0.060797
0.074949 0.076292 0.076636
0.075116 0.075046 0.075992
0.066054 0.065649 0.063684
0.061673 0.061745 0.061864
0.073353 0.073186 0.073212
0.055147 0.054714 0.055881
0.080072 0.081651 0.082004
0.103473 0.103370 0.102244
0.074364 0.074446 0.073811
0.059316 0.059374 0.059458
0.051126 0.051330 0.051366
0.099861 0.101374 0.101349
0.053939 0.053790 0.054326
0.071683 0.072371 0.072676
0.091262 0.091317 0.091372
0.071306 0.068753 0.067297
0.067035 0.066500 0.066345
0.085588 0.086262 0.087098
0.334386 0.332874 0.332709
0.071379 0.071341 0.070597
0.088917 0.088855 0.089729
0.082234 0.081773 0.080573
0.106436 0.106226 0.104616
0.073636 0.073337 0.073436
0.074535 0.074773 0.074819
0.090195 0.090594 0.091368
0.060314 0.060319 0.060251
0.077397 0.076392 0.077400
0.101555 0.101339 0.101116
0.102537 0.102226 0.103562
0.335749 0.335485 0.335470
0.332597 0.332598 0.332910
0.080978 0.080904 0.080544
0.069359 0.069415 0.069523
0.074351 0.074362 0.074428
0.092934 0.092622 0.092667
0.102539 0.099890 0.099796
0.051716 0.052430 0.052259
0.076271 0.076530 0.076648
0.071065 0.073088 0.072394
0.084067 0.083637 0.085191
0.071597 0.070848 0.070723
0.081980 0.082034 0.080326
0.079549 0.080068 0.079543
0.073304 0.076414 0.077946
0.072771 0.072867 0.073505
0.070496 0.071961 0.071678
0.052369 0.052627 0.053142
0.084641 0.084265 0.083523
0.091605 0.091592 0.091697
0.071140 0.071540 0.072632
0.061239 0.061427 0.061511
0.104030 0.104052 0.104271
0.062970 0.062459 0.061942
0.080555 0.079933 0.080403
0.094030 0.090955 0.090697
0.092620 0.092685 0.092838
0.093698 0.093813 0.093633
0.086951 0.086813 0.085905
0.106985 0.106999 0.106953
0.069883 0.070091 0.070305
0.134424 0.138516 0.138954
0.073674 0.073673 0.073211
0.091961 0.091399 0.091566
0.108895 0.105112 0.105909
0.127072 0.128524 0.129382
0.079219 0.081338 0.081687
0.050739 0.050940 0.050842
0.093047 0.092890 0.092805
0.051204 0.051252 0.051288
0.063609 0.064763 0.065338
0.072996 0.072870 0.072997
0.212467 0.212612 0.210254
0.092305 0.091373 0.089893
0.083647 0.083492 0.083840
0.053777 0.053859 0.053838
0.068553 0.068085 0.068756
0.051190 0.051407 0.051277
0.074137 0.075571 0.076001
0.087641 0.087138 0.086995
0.079506 0.083176 0.082957
0.099317 0.100481 0.101478
0.086380 0.085713 0.085301
0.081822 0.080289 0.080865
0.104585 0.104488 0.104618
0.068280 0.070157 0.070503
0.101908 0.102364 0.102993
0.063380 0.063327 0.063082
0.085036 0.084963 0.084751
0.050629 0.051716 0.052430
0.070467 0.070047 0.070278
0.071844 0.071010 0.071381
0.047403 0.047346 0.047165
0.074013 0.073886 0.074084
0.079195 0.079093 0.078248
0.066838 0.066543 0.066529
0.058603 0.058953 0.059052
0.067273 0.067124 0.067942
0.072549 0.072907 0.073048
0.831464 0.829372 0.811348
0.088521 0.088811 0.089518
0.102191 0.101330 0.099775
0.069301 0.069425 0.070613
0.076341 0.076162 0.076190
0.059115 0.057536 0.057803
0.082721 0.082130 0.082009
0.077591 0.077533 0.076987
0.073589 0.073829 0.073139
0.090426 0.088721 0.087349
0.110591 0.110411 0.109849
0.083300 0.086431 0.086904
0.115316 0.115271 0.114843
0.090779 0.090926 0.090919
0.087891 0.086794 0.086187
0.089842 0.089895 0.089902
0.088725 0.088819 0.090814
0.069736 0.070190 0.070223
0.071413 0.071303 0.071589
0.092639 0.092766 0.092579
0.085428 0.084707 0.084480
0.076643 0.076658 0.076702
0.066812 0.066714 0.066743
0.090801 0.090437 0.091049
0.097759 0.097776 0.098258
0.094344 0.093579 0.093316
0.084576 0.084749 0.085428
0.064966 0.064623 0.064772
0.093210 0.093054 0.092930
0.066885 0.066857 0.066818
0.081899 0.085417 0.083969
0.110816 0.111143 0.110351
0.102630 0.102167 0.102264
0.077354 0.079128 0.079665
0.068088 0.067404 0.066514
0.084699 0.084434 0.084522
0.110151 0.110143 0.107575
0.071402 0.071406 0.071936
0.088152 0.089929 0.090989
0.130434 0.131060 0.130994
0.066672 0.066550 0.067430
0.070972 0.071758 0.072493
0.075155 0.075421 0.076252
0.091700 0.092376 0.092770
0.062280 0.061300 0.062054
0.089520 0.089506 0.089507
0.082036 0.081301 0.081268
0.079650 0.080237 0.081049
0.065808 0.065698 0.065477
0.068246 0.069663 0.069315
0.087490 0.090481 0.090396
0.097306 0.097332 0.097339
0.072131 0.071790 0.069275
0.103413 0.103579 0.103349
0.116185 0.116484 0.116441
0.995513 0.998539 0.998954
0.087210 0.088217 0.090951
0.071558 0.070961 0.070712
0.099013 0.098109 0.097679
0.054477 0.056546 0.057046
0.094302 0.093640 0.091142
0.068032 0.068906 0.066939
0.084962 0.083478 0.084159
0.070295 0.070084 0.069958
0.053032 0.052682 0.052875
0.060619 0.060032 0.060971
0.397618 0.397693 0.397731
0.093345 0.094197 0.094130
0.063775 0.063709 0.063548
0.051660 0.051776 0.051716
0.068108 0.068451 0.068569
0.067089 0.067256 0.066881
0.083002 0.082383 0.080879
0.082924 0.083343 0.084929
0.095299 0.095398 0.095411
0.102367 0.102181 0.103880
0.063371 0.063253 0.062671
0.089186 0.089910 0.090055
0.074183 0.073955 0.072591
0.090484 0.090235 0.090702
0.077989 0.078749 0.079723
0.092403 0.091033 0.090398
0.104512 0.104487 0.104182
0.082391 0.084040 0.084301
0.089667 0.089110 0.088830
0.094539 0.094646 0.092438
0.080507 0.080506 0.080372
