0.149319 0.148286 0.148311
0.214457 0.209308 0.213992
0.258413 0.259353 0.259145
0.220209 0.216032 0.216595
0.186250 0.185908 0.185876
0.229492 0.229521 0.230219
0.475944 0.489255 0.497103
0.153013 0.152771 0.152967
0.396406 0.389313 0.386489
0.152876 0.152506 0.152522
0.162387 0.162186 0.161145
0.232520 0.232654 0.234474
0.158408 0.157742 0.160507
0.156600 0.159646 0.163936
0.122175 0.122278 0.121981
0.146071 0.146038 0.146840
0.151228 0.151897 0.148893
0.266247 0.267667 0.267824
0.320903 0.320293 0.321097
0.154008 0.154577 0.153963
0.522684 0.531416 0.533264
0.155805 0.155798 0.155530
0.180560 0.179138 0.177977
0.293055 0.292889 0.291472
0.397504 0.397998 0.397658
0.158156 0.158464 0.158814
0.390068 0.388510 0.388113
0.398299 0.399601 0.400231
0.137740 0.137138 0.137189
0.186522 0.186440 0.188838
0.142890 0.143243 0.143263
0.151695 0.151226 0.150677
0.381546 0.376271 0.375654
0.149686 0.149241 0.149306
0.238478 0.234438 0.233008
0.122383 0.122065 0.121947
0.376898 0.377140 0.375707
0.408731 0.408976 0.409700
0.118602 0.117929 0.117935
0.211753 0.211990 0.210019
0.222278 0.222223 0.220870
0.436744 0.437392 0.436069
0.436379 0.440259 0.445707
0.302779 0.302889 0.303884
0.192026 0.191791 0.191812
0.236849 0.236348 0.236414
0.339948 0.341855 0.341946
0.395246 0.394555 0.393936
0.228161 0.226677 0.227872
0.164777 0.165471 0.166405
0.458224 0.458155 0.460090
0.243862 0.248061 0.252230
0.153021 0.154110 0.152566
0.117386 0.117487 0.117245
0.128079 0.128120 0.127980
0.149400 0.148785 0.148289
0.361255 0.361768 0.360384
0.118156 0.116804 0.115828
0.426153 0.429038 0.427742
0.403177 0.405669 0.408052
0.152305 0.153216 0.151563
0.335121 0.332133 0.336603
0.182062 0.181376 0.178879
0.318993 0.318748 0.318139
0.154284 0.153688 0.153303
0.323903 0.329705 0.329870
0.380960 0.386440 0.387290
0.472519 0.472412 0.469810
0.326754 0.325430 0.325396
0.155668 0.156333 0.156541
0.385549 0.384225 0.383438
0.316655 0.323458 0.325381
0.159023 0.159173 0.159069
0.127881 0.132859 0.139470
0.369500 0.350758 0.341451
0.183054 0.181683 0.181523
0.219713 0.217981 0.215486
0.179905 0.187638 0.190558
0.161165 0.159892 0.162288
0.147054 0.147008 0.147608
0.149923 0.153820 0.154705
0.550499 0.551855 0.551963
0.237690 0.236333 0.236456
0.215398 0.215158 0.214798
0.200411 0.195803 0.195822
0.163752 0.167622 0.167454
0.167239 0.163011 0.160995
0.192006 0.191452 0.193110
0.453288 0.456192 0.461967
0.114241 0.112796 0.112755
0.144022 0.144608 0.149459
0.379743 0.378986 0.378933
0.113229 0.113402 0.114733
0.159501 0.160160 0.159364
0.196943 0.196835 0.196978
0.193576 0.193578 0.194660
0.404263 0.396111 0.394246
0.371659 0.372064 0.371860
0.167399 0.164704 0.163559
0.193057 0.194387 0.193018
0.368834 0.379236 0.381075
0.400470 0.398200 0.395679
0.362717 0.362124 0.361726
0.362016 0.360614 0.358170
0.224548 0.225616 0.229954
0.195738 0.194626 0.194863
0.167065 0.167193 0.167295
0.134399 0.133730 0.133857
0.390373 0.387274 0.387391
0.437358 0.438009 0.441195
0.561596 0.558732 0.560049
0.364414 0.364280 0.364221
0.443206 0.449493 0.460063
0.158949 0.158591 0.158448
0.328904 0.328063 0.327548
0.197884 0.195669 0.194650
0.457121 0.458168 0.457886
0.262583 0.262539 0.261617
0.319510 0.312107 0.311258
0.229319 0.226317 0.227253
0.222279 0.222380 0.224592
0.226939 0.225866 0.227242
0.147726 0.147473 0.147382
0.145128 0.151738 0.153146
0.282211 0.279572 0.277840
0.212574 0.212889 0.209242
0.132123 0.132186 0.131684
0.399976 0.398325 0.392156
0.385000 0.386210 0.387691
0.412950 0.413043 0.414689
0.223289 0.228465 0.228728
0.269719 0.268761 0.264511
0.394987 0.393904 0.391110
0.461322 0.461587 0.465757
0.324028 0.322963 0.322061
0.311318 0.310136 0.306852
0.217226 0.216629 0.216773
0.391479 0.392715 0.393438
0.379266 0.375355 0.375466
0.189715 0.191043 0.191960
0.310476 0.319539 0.319517
0.237317 0.236994 0.242710
0.140649 0.139772 0.140092
0.173672 0.173507 0.174483
0.173035 0.176102 0.177278
0.250092 0.314847 0.322179
0.187285 0.187571 0.186483
0.134193 0.131047 0.116682
0.387059 0.384843 0.385524
0.303131 0.311724 0.312267
0.421939 0.421947 0.422359
0.192342 0.192118 0.192413
0.384189 0.386008 0.384212
0.337948 0.339336 0.340451
0.212411 0.212118 0.209775
0.193109 0.194050 0.194258
0.232629 0.232562 0.230646
0.214393 0.216375 0.214199
0.342568 0.345163 0.347831
0.447581 0.447776 0.448241
0.147210 0.146808 0.140800
0.527027 0.523968 0.522381
0.197090 0.197310 0.198385
0.230646 0.233896 0.234945
0.308279 0.306432 0.304844
0.143138 0.146145 0.145864
0.160362 0.160446 0.158832
0.157687 0.157657 0.154780
0.258214 0.263386 0.266235
0.446511 0.452566 0.453762
0.241959 0.241763 0.240488
0.250238 0.250416 0.250416
0.204397 0.204578 0.203842
0.434924 0.437291 0.439073
0.549433 0.547569 0.546667
0.188763 0.189424 0.189547
0.232016 0.239509 0.240067
0.222417 0.227425 0.230307
0.349155 0.331858 0.329073
0.145054 0.145332 0.145272
0.193507 0.180481 0.179246
0.191473 0.188336 0.185688
0.413907 0.415977 0.417738
0.212047 0.209089 0.208120
0.148166 0.147838 0.145997
0.218941 0.217952 0.215490
0.154230 0.154416 0.154519
0.380057 0.382319 0.388012
0.389641 0.391668 0.390162
0.208417 0.208540 0.207169
0.374354 0.364506 0.363137
0.391113 0.389837 0.389457
0.148221 0.148181 0.146968
0.347339 0.343148 0.338721
0.199647 0.201288 0.201821
0.487765 0.492039 0.491388
0.210408 0.208453 0.205917
0.561057 0.552731 0.544056
0.177398 0.181064 0.181334
0.133751 0.133669 0.133789
0.157312 0.157799 0.157694
0.242438 0.243288 0.240397
0.246634 0.249846 0.256763
0.154646 0.154246 0.155981
0.243098 0.240111 0.239789
0.386254 0.392301 0.391670
0.134348 0.133830 0.132610
0.402463 0.404767 0.405541
0.157979 0.158508 0.158269
0.191686 0.190036 0.198103
0.226256 0.227531 0.228108
0.137610 0.142863 0.142603
0.230193 0.231282 0.232058
0.218824 0.219059 0.219303
0.152768 0.152783 0.152275
0.270726 0.270162 0.270820
0.380125 0.382063 0.384747
0.154787 0.154058 0.154364
0.239580 0.241834 0.241513
0.186438 0.186775 0.186793
0.396729 0.385470 0.385457
0.119457 0.119896 0.120061
0.155016 0.155677 0.159471
0.208835 0.208150 0.207275
0.236357 0.236936 0.237520
0.217409 0.216349 0.215990
0.152143 0.152130 0.153102
0.209021 0.208122 0.212166
0.554753 0.550799 0.542150
0.338680 0.339269 0.340427
0.223673 0.228231 0.228880
0.203841 0.204641 0.205214
0.116954 0.117559 0.117577
0.274409 0.274384 0.274711
0.133049 0.133043 0.133179
0.557635 0.555576 0.555362
0.205401 0.205285 0.205053
0.152456 0.151743 0.152100
0.229517 0.230271 0.233678
0.230247 0.231331 0.230707
0.195292 0.199563 0.203655
0.154230 0.153163 0.150775
0.540904 0.526361 0.524416
0.359395 0.362858 0.364943
0.289862 0.288441 0.291097
0.462309 0.463541 0.470962
0.189638 0.190741 0.191502
0.467862 0.456832 0.453832
0.335012 0.335027 0.334717
0.170910 0.166948 0.167049
0.405128 0.417523 0.419513
0.358546 0.356872 0.356886
0.224110 0.224047 0.224006
0.186805 0.186592 0.186294
0.191198 0.191406 0.186833
0.107242 0.109619 0.107949
0.196291 0.196853 0.196899
0.134548 0.134115 0.132214
0.152081 0.154098 0.153967
0.502594 0.504141 0.514256
0.398160 0.398009 0.398278
0.194422 0.195358 0.195923
0.221812 0.222056 0.222279
0.285554 0.281305 0.277899
0.196699 0.197151 0.196485
0.378520 0.380467 0.381642
0.315748 0.316352 0.318125
0.260551 0.269625 0.270102
0.193112 0.187636 0.186913
0.202143 0.203179 0.204109
0.287522 0.291923 0.295152
0.209101 0.209856 0.210605
0.147272 0.147628 0.147774
0.409974 0.409876 0.409859
0.168681 0.170176 0.170357
0.329298 0.317597 0.312309
0.415556 0.418265 0.416558
0.257590 0.258218 0.258646
0.145245 0.144933 0.144751
0.153722 0.153718 0.154027
0.164363 0.158517 0.157963
0.210251 0.211921 0.212773
0.225880 0.226256 0.226562
0.206747 0.207601 0.207542
0.141564 0.143353 0.142951
0.154910 0.152456 0.150018
0.209106 0.208840 0.208080
0.144149 0.144005 0.143304
0.423338 0.424253 0.425554
0.151199 0.151213 0.151363
0.319659 0.319704 0.321656
0.297286 0.293528 0.293497
0.349267 0.352926 0.359545
0.452248 0.451761 0.452910
0.418049 0.418265 0.422944
0.418390 0.417267 0.417853
0.151051 0.151029 0.151176
0.409866 0.409371 0.409581
0.492263 0.497293 0.511281
0.150189 0.152304 0.152443
0.204156 0.203405 0.201962
0.144852 0.142722 0.141932
0.112796 0.112755 0.111995
0.366391 0.364597 0.361041
0.131090 0.131842 0.131618
0.245756 0.246878 0.247333
0.429604 0.430607 0.432409
0.201190 0.200868 0.198089
0.153173 0.150103 0.149836
0.290899 0.289271 0.287251
0.257230 0.256270 0.257479
0.196744 0.197378 0.196738
0.449702 0.448371 0.449647
0.207542 0.209930 0.211103
0.113764 0.114055 0.113693
0.524870 0.524358 0.521546
0.352885 0.352935 0.353848
0.292702 0.293378 0.294467
0.238336 0.286249 0.317191
0.145312 0.145141 0.143815
0.541280 0.539299 0.538792
0.153731 0.154094 0.154011
0.466597 0.466706 0.464424
0.177837 0.176874 0.176053
0.210539 0.211087 0.210707
0.454931 0.456183 0.457694
0.239381 0.239885 0.242183
0.310947 0.311813 0.311919
0.179958 0.179905 0.179224
0.277314 0.279732 0.282889
0.137172 0.137456 0.138376
0.372698 0.372614 0.368775
0.235371 0.235059 0.234556
0.143373 0.142251 0.133525
0.241054 0.237876 0.239070
0.315286 0.317663 0.318371
0.164181 0.164820 0.164922
0.389946 0.375204 0.371862
0.468802 0.469660 0.472055
0.478627 0.478790 0.478241
0.230658 0.232628 0.233311
0.333017 0.333993 0.333493
0.276414 0.277627 0.278096
0.631943 0.631784 0.630575
0.320565 0.322076 0.329393
0.213595 0.213095 0.212724
0.151633 0.151756 0.152977
0.146311 0.146556 0.146754
0.150276 0.150239 0.149742
0.266479 0.264752 0.264168
0.210571 0.212314 0.212015
0.267855 0.269690 0.269672
0.402606 0.406631 0.401945
0.228762 0.229035 0.228684
0.145122 0.153195 0.153644
0.108303 0.107841 0.107274
0.125304 0.127228 0.127623
0.162858 0.162627 0.162107
0.393662 0.385549 0.384225
0.211114 0.205891 0.205595
0.231141 0.232397 0.229349
0.121370 0.121496 0.121659
0.197057 0.198205 0.203427
0.179733 0.180700 0.184088
0.549655 0.551900 0.550524
0.152300 0.153149 0.151624
0.238228 0.238251 0.237906
0.382771 0.382641 0.383008
0.583292 0.576092 0.570783
0.317288 0.327367 0.331226
0.458168 0.457886 0.459022
0.146046 0.147166 0.146095
0.215046 0.214627 0.214904
0.412679 0.414740 0.413862
0.362980 0.363234 0.364414
0.147154 0.146344 0.146691
0.401264 0.405770 0.405713
0.160783 0.159658 0.159062
0.187260 0.187555 0.189602
0.320265 0.320332 0.320434
0.163713 0.162298 0.158591
0.239373 0.238974 0.239539
0.302490 0.302234 0.299888
0.483373 0.483401 0.484098
0.304849 0.302515 0.304292
0.424186 0.425592 0.424196
0.190737 0.197924 0.198088
0.394594 0.397613 0.399653
0.385128 0.385098 0.385073
0.397474 0.399908 0.398388
0.236643 0.235817 0.235113
0.387074 0.387201 0.380720
0.390066 0.390000 0.388084
0.146938 0.146885 0.147900
0.124689 0.125665 0.125663
0.156751 0.156925 0.156641
0.492331 0.490356 0.493197
0.350205 0.343749 0.366980
0.415411 0.415871 0.424035
0.136299 0.136357 0.135794
0.509485 0.507672 0.519640
0.145791 0.147709 0.149020
0.439006 0.439796 0.443957
0.320008 0.331950 0.333213
0.359545 0.369797 0.368374
0.242077 0.241937 0.242129
0.150732 0.148074 0.147854
0.235371 0.235907 0.234838
0.128105 0.127966 0.127507
0.217872 0.221171 0.221016
0.199138 0.197686 0.193108
0.147944 0.148039 0.147533
0.157975 0.157876 0.157324
0.160633 0.161948 0.161875
0.324312 0.321152 0.322672
0.391238 0.391015 0.392969
0.208400 0.219188 0.218835
0.186327 0.185756 0.185752
0.393064 0.389768 0.389764
0.159540 0.159558 0.160327
0.124637 0.118509 0.118146
0.424287 0.423879 0.418237
0.384161 0.385479 0.385711
0.356495 0.356301 0.355637
0.151485 0.150504 0.148386
0.256260 0.253399 0.255073
0.164163 0.165807 0.166387
0.352301 0.352582 0.351992
0.437441 0.436815 0.438914
0.115712 0.112509 0.111560
0.516496 0.511814 0.509816
0.252167 0.251312 0.250466
0.196144 0.193446 0.190520
0.256236 0.256212 0.254801
0.302465 0.302048 0.302490
0.205598 0.206822 0.207679
0.231424 0.229170 0.220340
0.202683 0.202665 0.201088
0.143973 0.145050 0.145099
0.133194 0.134201 0.133871
0.221530 0.220971 0.221527
0.186226 0.186291 0.186849
0.160058 0.160323 0.160951
0.349389 0.348598 0.347644
0.349590 0.350294 0.351722
0.399601 0.400231 0.400168
0.387784 0.387868 0.378297
0.206614 0.208554 0.210987
0.402804 0.403217 0.403111
0.154873 0.151662 0.147071
0.214145 0.213647 0.213447
0.533613 0.530547 0.528618
0.218594 0.218085 0.217336
0.405722 0.406216 0.406453
0.324241 0.321512 0.321934
0.393016 0.393527 0.407111
0.408259 0.420490 0.425469
0.219120 0.218823 0.219713
0.116156 0.116060 0.115070
0.240769 0.245841 0.246611
0.203772 0.204473 0.205544
0.168888 0.170241 0.170106
0.147531 0.144760 0.144722
0.288391 0.286392 0.285705
0.155307 0.153070 0.152395
0.229388 0.225014 0.224310
0.322025 0.321954 0.322626
0.181378 0.181587 0.181920
0.190796 0.192314 0.195976
0.360908 0.361859 0.363044
0.153603 0.156154 0.155998
0.153900 0.153399 0.151244
0.216110 0.217883 0.221169
0.180936 0.180685 0.180605
0.362224 0.362835 0.363853
0.194310 0.193515 0.193501
0.444429 0.444680 0.446577
0.421582 0.428678 0.428139
0.239185 0.238822 0.218801
0.193104 0.192923 0.192806
0.415271 0.414771 0.413003
0.212022 0.215121 0.223695
0.149956 0.149653 0.151989
0.225730 0.224869 0.224910
0.349686 0.349143 0.348106
0.122157 0.122263 0.122022
0.345946 0.344791 0.344422
0.466590 0.465382 0.464587
0.155527 0.153553 0.154763
0.390142 0.390028 0.388544
0.377987 0.378324 0.380180
0.338877 0.336335 0.336724
0.155906 0.155613 0.156537
0.394316 0.394265 0.394882
0.149981 0.149432 0.149274
0.569319 0.564788 0.560957
0.214832 0.220002 0.220201
0.372623 0.376504 0.376692
0.251177 0.263078 0.266831
0.374746 0.376125 0.383308
0.397278 0.397740 0.400401
0.195614 0.195863 0.183841
0.308956 0.311872 0.307254
0.348348 0.346621 0.344500
0.420964 0.421688 0.423770
0.144049 0.142855 0.143101
0.159235 0.159388 0.159773
0.223829 0.224019 0.224124
0.403401 0.405974 0.411526
0.149671 0.149634 0.151980
0.517008 0.516496 0.511814
0.157705 0.157691 0.154719
0.183526 0.177575 0.176795
0.161967 0.163623 0.164673
0.375449 0.382689 0.381251
0.487210 0.485515 0.487120
0.217731 0.218393 0.218200
0.164825 0.164625 0.164930
0.360686 0.361428 0.361410
0.441479 0.443012 0.460003
0.203696 0.204042 0.204435
0.208010 0.208631 0.208677
0.201326 0.197697 0.197736
0.221559 0.221857 0.222225
0.243498 0.247814 0.250473
0.282559 0.280704 0.279029
0.258486 0.258310 0.253414
0.331463 0.331670 0.337392
0.418790 0.417836 0.415690
0.339986 0.336038 0.335065
0.155439 0.154526 0.152312
0.222951 0.227098 0.231361
0.408048 0.407943 0.408197
0.509263 0.508672 0.507962
0.276166 0.279600 0.280338
0.423863 0.421185 0.414761
0.568143 0.570417 0.570226
0.229862 0.229172 0.229743
0.409413 0.409355 0.409268
0.382653 0.382536 0.381032
0.462302 0.459504 0.457044
0.137480 0.137084 0.138084
0.150975 0.151271 0.151196
0.218851 0.220317 0.220264
0.373025 0.371666 0.371537
0.438669 0.450897 0.489678
0.194896 0.194606 0.194763
0.160233 0.159273 0.156175
0.156416 0.156344 0.156594
0.143854 0.143554 0.143680
0.126523 0.126584 0.126734
0.316176 0.315454 0.315718
0.554186 0.557078 0.572179
0.344645 0.342581 0.343109
0.353941 0.348871 0.348063
0.247086 0.247803 0.248410
0.383825 0.397296 0.397506
0.128691 0.128894 0.129188
0.204363 0.203722 0.203219
0.438914 0.441323 0.446804
0.380453 0.383143 0.383072
0.516976 0.520611 0.510527
0.127043 0.126797 0.126860
0.508908 0.509238 0.509195
0.407834 0.411777 0.410451
0.344726 0.346512 0.346525
0.208116 0.208681 0.207732
0.205789 0.205362 0.205192
0.168445 0.168550 0.167612
0.150761 0.150808 0.151545
0.343750 0.343639 0.344043
0.223859 0.223590 0.216906
0.343881 0.345992 0.347693
0.611572 0.612983 0.619324
0.318992 0.308152 0.302865
0.403955 0.402673 0.397410
0.186703 0.188823 0.190013
0.327989 0.326332 0.324609
0.369294 0.364151 0.363909
0.126754 0.126859 0.126816
0.237499 0.237465 0.234756
0.217424 0.217444 0.218797
0.155638 0.155116 0.154801
0.221707 0.221693 0.221543
0.232893 0.233723 0.236681
0.202220 0.201861 0.203378
0.259734 0.261350 0.261340
0.446232 0.445583 0.445488
0.508243 0.507459 0.500306
0.218044 0.218526 0.229448
0.359886 0.360672 0.362840
0.323429 0.323386 0.322203
0.421683 0.422436 0.424388
0.210647 0.209035 0.209017
0.505408 0.504211 0.501364
0.214466 0.215532 0.215776
0.232679 0.232651 0.230390
0.523725 0.509196 0.505118
0.358170 0.352602 0.351203
0.115098 0.115112 0.115825
0.550226 0.552008 0.551923
0.184958 0.181559 0.181009
0.141311 0.140675 0.130492
0.405109 0.404340 0.404263
0.157478 0.156856 0.158132
0.359147 0.363266 0.364452
0.433148 0.437667 0.442500
0.440286 0.439497 0.440139
0.343639 0.344043 0.345024
0.142882 0.143427 0.143818
0.213550 0.210048 0.211949
0.160341 0.160194 0.159945
0.128439 0.128155 0.126700
0.549743 0.538455 0.536662
0.328650 0.329418 0.348836
0.418144 0.418179 0.417260
0.414689 0.414906 0.406552
0.309666 0.312869 0.312141
0.197772 0.197650 0.197650
0.355642 0.367504 0.370560
0.371979 0.372198 0.372245
0.350187 0.350326 0.350361
0.253213 0.241609 0.241386
0.278070 0.277289 0.272853
0.364705 0.363200 0.362693
0.456796 0.457481 0.458345
0.476008 0.483018 0.484674
0.207469 0.208167 0.210564
0.294466 0.336908 0.339640
0.584922 0.588679 0.579418
0.345095 0.345016 0.343260
0.584340 0.584072 0.584258
0.413840 0.413516 0.412850
0.387565 0.387995 0.389713
0.423458 0.421969 0.411567
0.135763 0.132070 0.131108
0.112698 0.112869 0.112967
0.322204 0.331589 0.332997
0.320561 0.323550 0.329530
0.175776 0.176098 0.176209
0.249140 0.248383 0.248312
0.168108 0.165570 0.165171
0.310194 0.310431 0.310944
0.123010 0.122555 0.123092
0.175497 0.172838 0.170521
0.274726 0.274334 0.274517
0.141207 0.141663 0.138510
0.163808 0.162746 0.166082
0.200912 0.198677 0.200790
0.181463 0.182136 0.182393
0.325742 0.326081 0.326229
0.266012 0.265777 0.267855
0.271151 0.269844 0.261386
0.325967 0.326695 0.326492
0.207042 0.210457 0.214553
0.344086 0.341637 0.341847
0.153148 0.153524 0.156865
0.253245 0.252841 0.254125
0.244180 0.246451 0.243388
0.194199 0.192750 0.196031
0.212804 0.212440 0.211737
0.176330 0.176012 0.176239
0.216876 0.215645 0.215166
0.326566 0.328457 0.329738
0.151733 0.152636 0.152096
0.126006 0.125733 0.125630
0.156366 0.155352 0.154909
0.349443 0.349635 0.349845
0.192761 0.180206 0.178262
0.210231 0.210074 0.212009
0.160243 0.162150 0.163505
0.408316 0.409127 0.409203
0.161292 0.162890 0.162776
0.261348 0.259318 0.256691
0.150125 0.149248 0.149291
0.428419 0.428011 0.422069
0.351666 0.351384 0.348596
0.214826 0.216010 0.215771
0.296168 0.296904 0.297709
0.148951 0.158805 0.159676
0.519378 0.516540 0.504365
0.244794 0.247109 0.260175
0.247772 0.245494 0.246114
0.238788 0.237963 0.236293
0.290310 0.290116 0.292502
0.443236 0.440746 0.438839
0.193129 0.191613 0.191998
0.181252 0.181967 0.182534
0.496007 0.495765 0.495422
0.257309 0.257337 0.257134
0.158412 0.158355 0.158640
0.156328 0.156521 0.156728
0.452370 0.447419 0.446208
0.203331 0.203104 0.202972
0.401070 0.410180 0.403419
0.251121 0.240513 0.242016
0.621757 0.620629 0.619791
0.191455 0.193273 0.196634
0.390793 0.388397 0.388730
0.444833 0.444771 0.445186
0.196472 0.197351 0.197764
0.120069 0.120920 0.120889
0.141918 0.140022 0.139970
0.157597 0.157109 0.157070
0.304095 0.303954 0.303838
0.329720 0.326026 0.326477
0.269285 0.269604 0.269808
0.241977 0.243052 0.243366
0.376616 0.376092 0.377607
0.165085 0.164658 0.165409
0.476622 0.472619 0.463767
0.144958 0.146343 0.146430
0.226345 0.227966 0.227828
0.403432 0.412602 0.413421
0.559579 0.560355 0.555827
0.161665 0.161954 0.161244
0.453362 0.464877 0.468774
0.402956 0.401162 0.402279
0.194982 0.191777 0.192451
0.348022 0.347989 0.348066
0.573542 0.574878 0.574251
0.149574 0.150590 0.150386
0.262913 0.262963 0.263310
0.370996 0.370895 0.370730
0.214084 0.214003 0.213391
0.119158 0.120174 0.117277
0.267967 0.268545 0.268602
0.519640 0.520551 0.521666
0.149344 0.149003 0.149734
0.134774 0.135248 0.135382
0.523796 0.531068 0.533638
0.351037 0.352475 0.353847
0.448222 0.449273 0.455611
0.400418 0.400463 0.399348
0.232201 0.230865 0.225235
0.266757 0.267051 0.267742
0.404670 0.406286 0.406499
0.381280 0.382691 0.385511
0.337762 0.340549 0.340423
0.213871 0.215236 0.215270
0.247454 0.249024 0.241945
0.119684 0.119799 0.118533
0.293498 0.294398 0.297911
0.629801 0.632364 0.631529
0.416477 0.415422 0.412907
0.226764 0.226090 0.225388
0.174115 0.170616 0.169775
0.202378 0.201829 0.200303
0.185980 0.185201 0.185538
0.461033 0.461173 0.460033
0.233430 0.232953 0.232518
0.210509 0.205187 0.207034
0.255619 0.255485 0.253157
0.197647 0.198297 0.196750
0.296385 0.297313 0.296377
0.153416 0.155794 0.155448
0.124916 0.123667 0.125289
0.447937 0.446644 0.445646
0.133972 0.130870 0.132169
0.326608 0.327046 0.326306
0.134936 0.132477 0.133117
0.367881 0.379235 0.379979
0.281762 0.284259 0.282160
0.157877 0.158653 0.158150
0.207744 0.208118 0.208139
0.250956 0.250999 0.251046
0.357043 0.359563 0.362164
0.416261 0.417404 0.420964
0.156759 0.156849 0.156866
0.521729 0.521862 0.521135
0.363043 0.362645 0.355987
0.474089 0.485189 0.487577
0.387162 0.387078 0.387972
0.231972 0.229297 0.230027
0.282044 0.282321 0.282009
0.242100 0.236474 0.234746
0.254767 0.254745 0.254562
0.263033 0.262924 0.265466
0.416964 0.415972 0.401544
0.322934 0.320479 0.320639
0.402429 0.403236 0.403294
0.364052 0.362416 0.362841
0.268495 0.268663 0.269092
0.245313 0.246139 0.243291
0.204311 0.203157 0.196691
0.215771 0.214256 0.214221
0.466213 0.467667 0.471020
0.139722 0.139761 0.143027
0.244764 0.245026 0.245856
0.144975 0.143174 0.143233
0.256301 0.254430 0.252512
0.445098 0.445127 0.442496
0.126263 0.126212 0.126017
0.201786 0.202901 0.203353
0.349147 0.348009 0.346730
0.226477 0.230247 0.231331
0.159080 0.158944 0.159351
0.153535 0.156678 0.155954
0.447212 0.451417 0.453444
0.133847 0.133751 0.133836
0.445658 0.439473 0.445251
0.346572 0.343950 0.340517
0.234127 0.234594 0.235454
0.214077 0.213107 0.212574
0.229955 0.229211 0.229537
0.259353 0.259145 0.261173
0.130689 0.132209 0.132930
0.415361 0.412241 0.410573
0.220412 0.220840 0.221217
0.368224 0.367543 0.368793
0.388949 0.389778 0.391738
0.199331 0.191082 0.190219
0.146025 0.145319 0.145186
0.632425 0.631383 0.630384
0.217392 0.217577 0.218257
0.149424 0.149573 0.149596
0.333550 0.330800 0.323418
0.279814 0.279470 0.279285
0.385828 0.385933 0.386015
0.554239 0.555954 0.556074
0.153859 0.154211 0.154570
0.320054 0.320939 0.322434
0.331867 0.334051 0.335746
0.203908 0.197752 0.203658
0.419227 0.421191 0.420950
0.215798 0.215810 0.213831
0.340749 0.343051 0.341823
0.534650 0.530279 0.525962
0.439473 0.445251 0.446232
0.337585 0.316057 0.312461
0.549857 0.554034 0.556110
0.420237 0.420935 0.414418
0.510747 0.510019 0.510999
0.117186 0.117250 0.120535
0.278344 0.276815 0.274433
0.197577 0.197844 0.197022
0.235194 0.231566 0.238683
0.129966 0.130741 0.132123
0.226690 0.226366 0.221023
0.621067 0.619775 0.620045
0.191750 0.190505 0.190132
0.279625 0.279470 0.278673
0.228454 0.225478 0.227005
0.222181 0.224801 0.224716
0.446922 0.449340 0.448770
0.350364 0.350085 0.349456
0.256286 0.254637 0.254319
0.295470 0.296151 0.303391
0.467667 0.471020 0.472577
0.156559 0.157975 0.157876
0.304885 0.303218 0.294955
0.459009 0.472973 0.470035
0.181532 0.181032 0.181540
0.567706 0.568596 0.568737
0.112381 0.119939 0.120677
0.311078 0.309810 0.300486
0.223300 0.222316 0.223127
0.122876 0.124155 0.124668
0.211875 0.211662 0.206508
0.242499 0.242532 0.243600
0.280858 0.275064 0.269460
0.376575 0.376114 0.378190
0.132234 0.132122 0.131701
0.236239 0.235138 0.233983
0.164695 0.162164 0.161838
0.153987 0.153566 0.153571
0.185439 0.185362 0.184835
0.146016 0.145793 0.144894
0.403439 0.405455 0.408730
0.323568 0.324217 0.323854
0.456741 0.455149 0.454089
0.149150 0.140753 0.139740
0.161150 0.162311 0.162775
0.171480 0.169950 0.168019
0.326852 0.334786 0.337741
0.225347 0.226576 0.226426
0.195157 0.194054 0.202120
0.234180 0.233955 0.237449
0.177506 0.181227 0.180432
0.457082 0.455379 0.454262
0.158686 0.159680 0.159557
0.208489 0.210609 0.211333
0.180577 0.181955 0.182024
0.445081 0.448219 0.447581
0.172622 0.173193 0.173196
0.385693 0.383946 0.390403
0.120737 0.120350 0.120486
0.155483 0.155760 0.154904
0.148702 0.148365 0.147847
0.389713 0.390580 0.397048
0.167347 0.167235 0.166450
0.157013 0.155167 0.155470
0.540696 0.541137 0.541784
0.167010 0.167118 0.167357
0.246558 0.246131 0.245754
0.153627 0.152784 0.152249
0.169614 0.170491 0.171238
0.329815 0.329619 0.329518
0.326500 0.334796 0.335812
0.471659 0.475944 0.489255
0.375819 0.375292 0.373022
0.346040 0.340796 0.339668
0.274810 0.272091 0.271310
0.299346 0.306917 0.344016
0.358312 0.361245 0.362549
0.165256 0.166583 0.166232
0.271321 0.271114 0.270524
0.555307 0.555397 0.554745
0.202613 0.202711 0.202616
0.543273 0.543037 0.542429
0.409266 0.403560 0.401989
0.339344 0.339378 0.335145
0.357543 0.360071 0.369643
0.356008 0.356584 0.356685
0.125459 0.124627 0.124794
0.207184 0.207448 0.205422
0.252983 0.253674 0.256425
0.121987 0.122296 0.123106
0.193812 0.195282 0.195297
0.132760 0.132235 0.132906
0.223578 0.225363 0.225409
0.243397 0.244982 0.253396
0.195028 0.195112 0.196623
0.124047 0.124209 0.123322
0.148692 0.148679 0.150230
0.247880 0.246998 0.246505
0.173328 0.173687 0.178561
0.148055 0.143209 0.140303
0.476851 0.488981 0.492149
0.136486 0.136082 0.135146
0.517058 0.521025 0.510665
0.152325 0.152588 0.152684
0.366225 0.364705 0.363200
0.553919 0.553391 0.560971
0.149878 0.150037 0.149134
0.263119 0.262953 0.263717
0.376171 0.386022 0.389599
0.126251 0.128222 0.127359
0.453930 0.452502 0.449426
0.272188 0.271739 0.271851
0.322478 0.321586 0.321135
0.170221 0.171080 0.170327
0.147890 0.147854 0.147949
0.322992 0.321622 0.321113
0.187281 0.187127 0.184978
0.181616 0.180710 0.180379
0.107174 0.108225 0.108640
0.368115 0.367523 0.362683
0.222327 0.214077 0.213107
0.128222 0.127359 0.127477
0.162303 0.162455 0.162555
0.220896 0.220453 0.219790
0.159666 0.155107 0.154527
0.182695 0.173970 0.172874
0.340440 0.344084 0.348957
0.199113 0.200095 0.200773
0.236936 0.237520 0.236354
0.246387 0.246063 0.244078
0.317972 0.317290 0.316798
0.132516 0.130752 0.126101
0.123754 0.122646 0.121927
0.143148 0.142659 0.142943
0.229064 0.226789 0.226382
0.409511 0.409377 0.417131
0.207403 0.208489 0.210609
0.371159 0.374827 0.376468
0.264126 0.260585 0.258243
0.151535 0.151166 0.150613
0.151213 0.151363 0.151387
0.115149 0.128234 0.130731
0.335303 0.333239 0.331047
0.147587 0.146394 0.143555
0.343410 0.342917 0.341790
0.152527 0.148892 0.148554
0.386008 0.384212 0.384161
0.195265 0.195525 0.196118
0.456260 0.456719 0.457843
0.420351 0.422695 0.421998
0.217777 0.217778 0.216848
0.206552 0.205981 0.205476
0.380566 0.380803 0.381367
0.381251 0.380601 0.380218
0.559980 0.550550 0.548552
0.427094 0.427511 0.428099
0.426729 0.425421 0.419073
0.220329 0.217929 0.216935
0.262241 0.262768 0.262804
0.357810 0.357441 0.355801
0.239459 0.239782 0.241333
0.203463 0.203134 0.202449
0.112626 0.113437 0.114049
0.240178 0.238336 0.226794
0.438005 0.433927 0.434703
0.434318 0.438975 0.442922
0.227492 0.227875 0.229467
0.428203 0.429761 0.432837
0.374805 0.376606 0.374087
0.333445 0.323753 0.322808
0.158345 0.157309 0.156889
0.212299 0.213081 0.214827
