0.557536 0.555821 0.555358
0.296491 0.296243 0.293244
0.377033 0.382805 0.392448
0.551111 0.552047 0.548516
0.342639 0.342623 0.341981
0.411772 0.411826 0.412008
0.215141 0.215491 0.215852
0.185242 0.183704 0.183260
0.385546 0.386761 0.388572
0.386640 0.386652 0.389284
0.337022 0.334094 0.332803
0.192360 0.194017 0.193893
0.291716 0.294353 0.311033
0.183755 0.184582 0.184874
0.206442 0.204679 0.202680
0.493002 0.493365 0.493920
0.201631 0.200807 0.201904
0.584912 0.583092 0.581116
0.436048 0.436086 0.438660
0.203619 0.202911 0.202801
0.184747 0.185539 0.189314
0.263036 0.254211 0.253233
0.332057 0.331271 0.315355
0.164476 0.160682 0.160473
0.313241 0.313952 0.313398
0.193569 0.193399 0.194114
0.183790 0.182848 0.183393
0.763332 0.765387 0.766216
0.359944 0.359912 0.358574
0.317759 0.322821 0.324594
0.318660 0.318874 0.319162
0.341601 0.353544 0.358736
0.296846 0.297353 0.296829
0.304600 0.303804 0.303068
0.433339 0.433502 0.432185
0.577023 0.572851 0.564904
0.201762 0.201496 0.201767
0.309221 0.309664 0.309904
0.714131 0.720369 0.721991
0.314033 0.307154 0.310823
0.679334 0.680579 0.678201
0.224601 0.215637 0.211256
0.611450 0.609820 0.607963
0.267696 0.267393 0.267068
0.409752 0.411524 0.421571
0.619022 0.621681 0.627077
0.212056 0.212286 0.212768
0.283649 0.281917 0.281555
0.375867 0.369076 0.366812
0.307354 0.306833 0.307298
0.213422 0.214448 0.227984
0.265270 0.266987 0.268022
0.588712 0.558116 0.556951
0.740168 0.735899 0.738981
0.623628 0.622351 0.633663
0.411654 0.413041 0.412969
0.698350 0.732679 0.736281
0.265987 0.265840 0.265590
0.272232 0.270083 0.265843
0.194254 0.194755 0.195529
0.319666 0.319737 0.319636
0.209738 0.211501 0.212136
0.210892 0.211952 0.214609
0.314417 0.314544 0.314601
0.314500 0.316504 0.317083
0.381668 0.378714 0.379135
0.245823 0.244480 0.244043
0.155414 0.155702 0.156009
0.290120 0.289175 0.289031
0.241974 0.241733 0.240579
0.271268 0.271855 0.273131
0.366714 0.364149 0.371707
0.192283 0.192513 0.193601
0.188875 0.186328 0.187168
0.394514 0.396498 0.395608
0.193084 0.192732 0.193324
0.185028 0.177843 0.175039
0.419735 0.421923 0.423517
0.358209 0.357529 0.357041
0.462622 0.459007 0.462781
0.554411 0.551567 0.548248
0.236453 0.237006 0.236322
0.352674 0.352039 0.351623
0.574831 0.570814 0.574802
0.573693 0.562147 0.560855
0.566517 0.555679 0.552001
0.823817 0.814281 0.807389
0.736281 0.736915 0.736260
0.174851 0.175068 0.175588
0.214087 0.207896 0.171881
0.235002 0.239047 0.239167
0.207190 0.207333 0.205163
0.198307 0.201026 0.202123
0.572474 0.575208 0.571073
0.409099 0.409094 0.409874
0.609736 0.624115 0.608031
0.558078 0.557827 0.558258
0.823307 0.821591 0.824812
0.374040 0.368276 0.365229
0.202431 0.202246 0.211387
0.300415 0.299908 0.299500
0.281646 0.282027 0.281783
0.277776 0.279858 0.282697
0.217976 0.210034 0.183586
0.256293 0.257612 0.259925
0.533982 0.533704 0.535230
0.162155 0.162056 0.162172
0.610822 0.609087 0.606323
0.223728 0.224043 0.224864
0.203572 0.198384 0.197335
0.475692 0.473819 0.472296
0.452683 0.451215 0.454812
0.258388 0.258180 0.258401
0.489236 0.490162 0.491141
0.203071 0.217606 0.220743
0.458912 0.456442 0.446613
0.325345 0.325011 0.323104
0.282733 0.283367 0.283325
0.317030 0.315756 0.315551
0.223090 0.219401 0.213137
0.357956 0.356745 0.351927
0.622146 0.624608 0.622411
0.563335 0.570170 0.576441
0.657739 0.659606 0.674542
0.263543 0.262212 0.263025
0.708161 0.710049 0.727523
0.381588 0.375632 0.374735
0.803353 0.801165 0.796360
0.244537 0.244409 0.244004
0.246249 0.245088 0.243389
0.672571 0.673004 0.680387
0.197798 0.196104 0.194902
0.594988 0.584627 0.583569
0.577700 0.575723 0.583429
0.187545 0.188143 0.188704
0.174091 0.173799 0.173553
0.515249 0.514417 0.514313
0.551219 0.547587 0.548444
0.416428 0.416684 0.414157
0.585787 0.587874 0.588427
0.218017 0.212460 0.212079
0.231936 0.231752 0.231718
0.170030 0.169786 0.168416
0.209197 0.207371 0.203676
0.298560 0.296881 0.296306
0.380168 0.384393 0.386524
0.738731 0.740597 0.760546
0.667925 0.663583 0.664127
0.321440 0.325195 0.318430
0.247659 0.247764 0.245743
0.300745 0.298870 0.300426
0.635752 0.640065 0.638404
0.163441 0.163959 0.163764
0.764879 0.766480 0.765995
0.193451 0.192387 0.195379
0.467155 0.465688 0.463713
0.190104 0.191193 0.191562
0.614392 0.612653 0.597551
0.173032 0.175530 0.175442
0.451957 0.462510 0.464003
0.336351 0.336417 0.345215
0.275404 0.275362 0.275077
0.195786 0.195989 0.196815
0.357982 0.355691 0.347151
0.245273 0.232630 0.233150
0.393382 0.394468 0.395471
0.241862 0.240270 0.235819
0.513608 0.508836 0.501017
0.162724 0.162979 0.163561
0.405342 0.408276 0.410121
0.217688 0.216916 0.213180
0.312977 0.312871 0.314696
0.235084 0.233772 0.233473
0.577869 0.571704 0.567706
0.950648 0.941713 0.937233
0.191337 0.191181 0.191168
0.381139 0.376692 0.375547
0.401476 0.398993 0.398306
0.578979 0.579419 0.583356
0.426707 0.427528 0.427232
0.551005 0.550662 0.547650
0.438805 0.436416 0.433112
0.598845 0.599064 0.575521
0.397914 0.391280 0.394175
0.240270 0.235819 0.226263
0.184174 0.184090 0.184085
0.251946 0.253320 0.253912
0.602140 0.604411 0.611549
0.199958 0.204988 0.205083
0.311973 0.311561 0.312442
0.709771 0.708716 0.708015
0.584949 0.590980 0.593592
0.234401 0.235304 0.233335
0.950012 0.949093 0.948596
0.174082 0.173780 0.169207
0.305867 0.303816 0.283384
0.164101 0.163663 0.163359
0.667584 0.665724 0.667215
0.733047 0.738181 0.747555
0.637531 0.637857 0.650862
0.617683 0.610049 0.608334
0.417962 0.419076 0.419725
0.313885 0.314687 0.314463
0.201058 0.199373 0.197802
0.144007 0.143698 0.143104
0.292564 0.291603 0.292635
0.192109 0.192095 0.192026
0.239283 0.237560 0.237392
0.587953 0.586754 0.584432
0.354423 0.355790 0.355601
0.361240 0.361422 0.359744
0.406454 0.405342 0.408276
0.553323 0.551925 0.548182
0.273334 0.275594 0.272367
0.282109 0.284114 0.283283
0.270827 0.272425 0.275116
0.673105 0.675260 0.653318
0.301433 0.301338 0.300495
0.135018 0.134541 0.134805
0.220314 0.217976 0.210034
0.323244 0.336599 0.338840
0.267030 0.254733 0.254226
0.305858 0.306273 0.305663
0.203763 0.202667 0.203574
0.348362 0.347935 0.347397
0.396158 0.397741 0.398570
0.435821 0.437544 0.443772
0.545256 0.531616 0.530284
0.667277 0.666010 0.663815
0.276477 0.275406 0.273404
0.291063 0.289858 0.283686
0.171312 0.172799 0.172854
0.462510 0.464003 0.462210
0.259806 0.249057 0.243355
0.352343 0.355829 0.358079
0.216702 0.219055 0.219682
0.185951 0.185625 0.185710
0.173072 0.173324 0.173416
0.298648 0.300333 0.300560
0.420707 0.415980 0.413641
0.209531 0.209720 0.209799
0.308973 0.323677 0.324198
0.649152 0.636819 0.645765
0.845176 0.848920 0.851829
0.336172 0.336168 0.334613
0.192784 0.193450 0.188265
0.474673 0.475059 0.476858
0.172956 0.180169 0.180439
0.184424 0.176778 0.172844
0.219176 0.218608 0.221333
0.344571 0.343404 0.342868
0.379581 0.380303 0.373739
0.419166 0.415102 0.407884
0.532834 0.539487 0.540364
0.462434 0.461454 0.459571
0.390797 0.391371 0.392552
0.603040 0.606409 0.593943
0.237531 0.237256 0.236921
0.240339 0.240928 0.241440
0.216315 0.212681 0.212483
0.369820 0.375007 0.376689
0.625713 0.625781 0.637366
0.675093 0.678369 0.679130
0.336748 0.338614 0.340531
0.311352 0.309351 0.306983
0.391657 0.390826 0.377796
0.169200 0.168374 0.168491
0.508656 0.503714 0.498897
0.523042 0.521567 0.521735
0.342705 0.342556 0.341561
0.250631 0.251555 0.253199
0.353600 0.353093 0.347541
0.322848 0.327972 0.330201
0.360570 0.360863 0.359571
0.388205 0.387435 0.388417
0.134671 0.134448 0.130754
0.310001 0.313727 0.312514
0.199966 0.200123 0.199329
0.633453 0.630112 0.633309
0.188586 0.196747 0.200211
0.234191 0.227266 0.226390
0.278612 0.281879 0.281754
0.334660 0.337363 0.338503
0.308584 0.308212 0.308153
0.218996 0.221285 0.223155
0.572941 0.575829 0.578733
0.257058 0.254758 0.231689
0.187457 0.198119 0.198196
0.406702 0.402986 0.404580
0.209182 0.209273 0.208973
0.594267 0.590154 0.583396
0.237235 0.237779 0.237453
0.431538 0.427205 0.420778
0.217644 0.212678 0.212520
0.597376 0.591191 0.589080
0.585850 0.585321 0.584000
0.583407 0.583676 0.585787
0.535664 0.534917 0.529619
0.538733 0.538664 0.545815
0.269209 0.268241 0.265475
0.366307 0.369577 0.370042
0.308608 0.308584 0.308212
0.208303 0.207879 0.209168
0.217670 0.216622 0.217024
0.322721 0.323684 0.322219
0.298076 0.298035 0.298171
0.273118 0.273133 0.274609
0.641145 0.636048 0.635202
0.204123 0.202161 0.201948
0.248585 0.248423 0.247925
0.146839 0.146515 0.144138
0.562670 0.566928 0.568766
0.623235 0.617221 0.615277
0.310778 0.304785 0.304244
0.221564 0.221530 0.219171
0.394213 0.395052 0.392212
0.248429 0.237914 0.235974
0.709883 0.709290 0.708461
0.658114 0.649404 0.657696
0.744702 0.746707 0.747320
0.401721 0.401563 0.399792
0.309899 0.310781 0.309492
0.245860 0.244547 0.244629
0.189477 0.189140 0.184919
0.222736 0.224148 0.224335
0.316001 0.317293 0.319569
0.567476 0.560208 0.558336
0.185260 0.189007 0.190104
0.635382 0.636380 0.633512
0.624461 0.636970 0.636819
0.216434 0.216719 0.216258
0.555387 0.557410 0.570876
0.649898 0.649138 0.651216
0.510103 0.497299 0.489137
0.488723 0.488842 0.496650
0.247498 0.248383 0.247933
0.411090 0.411714 0.411933
0.321361 0.322613 0.322727
0.559336 0.580982 0.580789
0.252315 0.250741 0.248737
0.667170 0.651234 0.651089
0.204624 0.205555 0.205685
0.629554 0.639583 0.644472
0.582035 0.580326 0.580821
0.424863 0.424696 0.430134
0.354539 0.356257 0.359212
0.239382 0.238413 0.238707
0.332418 0.330458 0.329840
0.234075 0.233970 0.233747
0.685686 0.686111 0.688822
0.686508 0.684568 0.685283
0.231483 0.239789 0.236357
0.311958 0.309657 0.309412
0.212135 0.210952 0.213146
0.190969 0.190511 0.190220
0.338069 0.340287 0.340759
0.124847 0.129047 0.140137
0.355300 0.355613 0.356171
0.305089 0.304669 0.302165
0.341270 0.341375 0.341764
0.728001 0.719429 0.710339
0.240485 0.240835 0.244712
0.558101 0.528466 0.522030
0.592123 0.590086 0.587191
0.677893 0.678685 0.681826
0.217209 0.217351 0.217614
0.463559 0.457567 0.454902
0.229507 0.229045 0.223012
0.497470 0.498695 0.499379
0.313067 0.309072 0.305817
0.653652 0.651375 0.650374
0.414819 0.414597 0.414964
0.271803 0.272073 0.272336
0.661922 0.659498 0.675347
0.252743 0.246694 0.245924
0.316205 0.317067 0.321145
0.644393 0.638245 0.636963
0.194942 0.197567 0.194411
0.253944 0.257386 0.264789
0.329469 0.298638 0.296859
0.210263 0.211327 0.211976
0.215297 0.228810 0.231085
0.554037 0.557321 0.572502
0.762594 0.762840 0.762116
0.254198 0.254621 0.257577
0.181848 0.181772 0.181574
0.409764 0.411483 0.412624
0.388169 0.389084 0.389277
0.212813 0.215688 0.220236
0.438307 0.446201 0.448026
0.738873 0.734827 0.732261
0.653829 0.650942 0.648896
0.343651 0.342863 0.339375
0.730907 0.734173 0.740689
0.293413 0.296615 0.295358
0.515793 0.513434 0.513703
0.505946 0.505603 0.497434
0.160176 0.160287 0.157764
0.213779 0.214712 0.215135
0.208472 0.208592 0.208029
0.575940 0.546950 0.541222
0.612890 0.611399 0.606029
0.173841 0.174031 0.174195
0.361255 0.362528 0.362776
0.275671 0.275091 0.274394
0.585004 0.583456 0.582646
0.630742 0.628262 0.642456
0.187904 0.189361 0.189489
0.252649 0.250684 0.245581
0.175837 0.175938 0.175927
0.555635 0.556381 0.555054
0.211377 0.211759 0.211904
0.296563 0.297111 0.298134
0.129047 0.140137 0.142139
0.306570 0.305375 0.305033
0.379679 0.376127 0.376840
0.195825 0.194660 0.195212
0.704504 0.670650 0.669029
0.657616 0.656668 0.662635
0.132027 0.132390 0.132338
0.168278 0.168581 0.168891
0.708495 0.716006 0.727874
0.536378 0.535565 0.532462
0.657371 0.660561 0.674772
0.678546 0.685548 0.689229
0.460003 0.458008 0.457765
0.410592 0.409364 0.411996
0.350116 0.352124 0.360812
0.589666 0.592500 0.620201
0.687707 0.685348 0.676541
0.161604 0.157866 0.156896
0.788894 0.769493 0.763184
0.228734 0.227568 0.225737
0.353457 0.349279 0.331575
0.191618 0.192085 0.194005
0.212071 0.212135 0.210952
0.450004 0.451246 0.448882
0.528595 0.528297 0.526629
0.194230 0.194098 0.193328
0.310439 0.310461 0.309399
0.241538 0.242470 0.242735
0.389660 0.395886 0.406168
0.522316 0.522536 0.523663
0.441709 0.447242 0.451819
0.171609 0.171088 0.173175
0.598168 0.599474 0.601341
0.305784 0.305699 0.305422
0.644333 0.644062 0.657046
0.138395 0.138058 0.136564
0.711598 0.710289 0.704504
0.357845 0.357581 0.354092
0.223880 0.223767 0.224552
0.437350 0.438994 0.438188
0.187685 0.187876 0.189435
0.244002 0.243914 0.244746
0.253305 0.254568 0.252784
0.349296 0.349960 0.350503
0.361277 0.352295 0.350561
0.354509 0.354505 0.359105
0.577455 0.574605 0.579154
0.402229 0.401493 0.400003
0.213290 0.221263 0.219507
0.313238 0.310413 0.301498
0.262515 0.262326 0.262230
0.361387 0.364023 0.361262
0.340193 0.342041 0.338637
0.810713 0.818598 0.821350
0.514262 0.516722 0.518916
0.357759 0.363979 0.363531
0.214955 0.216119 0.220624
0.719474 0.722080 0.722918
0.521272 0.526209 0.526336
0.353340 0.353551 0.354949
0.675496 0.678651 0.678749
0.214418 0.214649 0.214848
0.178982 0.179742 0.179788
0.313612 0.314188 0.304722
0.347085 0.347239 0.346184
0.470712 0.469647 0.473109
0.407813 0.411213 0.421281
0.415119 0.410062 0.403926
0.178813 0.182199 0.183098
0.221451 0.221526 0.221595
0.574068 0.574314 0.574909
0.328853 0.337541 0.338743
0.549075 0.568488 0.564807
0.481105 0.482412 0.482327
0.648307 0.656690 0.651096
0.165393 0.165572 0.164567
0.259136 0.257994 0.255819
0.312162 0.311357 0.305144
0.245761 0.248981 0.252233
0.437672 0.432915 0.435554
0.672143 0.671521 0.678420
0.462827 0.464205 0.464632
0.353980 0.356681 0.360508
0.528794 0.510987 0.510420
0.211090 0.213013 0.212056
0.338003 0.338152 0.337626
0.493724 0.502023 0.501816
0.589742 0.587265 0.585221
0.210112 0.209743 0.210183
0.858224 0.863062 0.874076
0.671338 0.667090 0.664929
0.211589 0.204319 0.202185
0.166492 0.167042 0.167012
0.577756 0.577477 0.576612
0.414758 0.416353 0.416688
0.767491 0.764484 0.763239
0.514196 0.511967 0.509922
0.315455 0.317965 0.318171
0.195331 0.196120 0.204076
0.211189 0.212244 0.214203
0.462781 0.463026 0.463735
0.532346 0.558407 0.576074
0.176539 0.176175 0.176001
0.313771 0.308196 0.304288
0.311210 0.311133 0.318728
0.352085 0.343197 0.340103
0.622491 0.620266 0.619322
0.701135 0.699705 0.698298
0.580599 0.572359 0.578120
0.186860 0.186916 0.187600
0.206635 0.206285 0.205138
0.317368 0.320240 0.324501
0.252385 0.252252 0.251688
0.168703 0.169672 0.170166
0.199638 0.198959 0.196705
0.239659 0.239444 0.238353
0.332175 0.332801 0.332771
0.256159 0.255219 0.251166
0.134805 0.135309 0.134410
0.184429 0.183429 0.177703
0.195282 0.195819 0.191145
0.216756 0.212767 0.216171
0.585355 0.583998 0.581226
0.619878 0.612823 0.592123
0.442495 0.443407 0.442836
0.180282 0.180915 0.183785
0.186101 0.186361 0.193768
0.620251 0.616350 0.613621
0.362394 0.359760 0.356617
0.185674 0.186704 0.186235
0.601323 0.600936 0.601162
0.167070 0.174155 0.174170
0.349923 0.350317 0.350538
0.666976 0.666797 0.662530
0.211660 0.216294 0.217670
0.200523 0.202626 0.203550
0.587893 0.588489 0.587996
0.282295 0.281168 0.281260
0.496495 0.497352 0.497327
0.207873 0.209122 0.208787
0.218508 0.218803 0.218569
0.347841 0.351299 0.351324
0.344866 0.345528 0.344447
0.507409 0.509548 0.511097
0.622294 0.622171 0.621575
0.368884 0.368312 0.368548
0.168495 0.174035 0.174098
0.442468 0.437566 0.431185
0.424613 0.423436 0.423303
0.302108 0.302963 0.303316
0.140934 0.141227 0.142497
0.199293 0.200217 0.201813
0.301431 0.297258 0.294868
0.362529 0.362473 0.360435
0.442667 0.438965 0.439877
0.319990 0.327046 0.323999
0.361025 0.361665 0.364321
0.203809 0.203395 0.202584
0.242906 0.241399 0.239198
0.267311 0.273655 0.284997
0.212149 0.212056 0.210453
0.674628 0.675990 0.674315
0.188296 0.190805 0.190325
0.201958 0.206437 0.204286
0.189435 0.185423 0.186178
0.346684 0.347824 0.351974
0.566087 0.565358 0.566116
0.232000 0.236452 0.254737
0.764235 0.764962 0.768213
0.320436 0.320323 0.316671
0.564582 0.570358 0.565135
0.307370 0.310684 0.308386
0.173053 0.173149 0.173234
0.322636 0.315687 0.314958
0.495875 0.495662 0.493304
0.660640 0.662476 0.664088
0.186310 0.187229 0.188017
0.253406 0.261264 0.250341
0.190237 0.191206 0.191139
0.250305 0.250645 0.251555
0.661714 0.661659 0.652875
0.573799 0.572886 0.571632
0.368453 0.369709 0.372586
0.266610 0.266207 0.265987
0.683669 0.682808 0.691828
0.154351 0.158383 0.159347
0.308077 0.308265 0.308351
0.291934 0.291774 0.291466
0.615146 0.668972 0.669173
0.278911 0.292993 0.294008
0.585352 0.586321 0.585060
0.328839 0.331883 0.333454
0.735719 0.734065 0.731065
0.285575 0.290619 0.291716
0.238823 0.242218 0.244009
0.211728 0.212032 0.212762
0.570340 0.574059 0.582690
0.195084 0.194537 0.195700
0.652693 0.650648 0.650885
0.986214 0.986369 0.989699
0.583923 0.588027 0.589261
0.173828 0.174387 0.173966
0.212445 0.214219 0.218696
0.688530 0.691810 0.692948
0.218506 0.209274 0.205965
0.186935 0.192816 0.197450
0.215611 0.219246 0.219652
0.245581 0.238042 0.237336
0.321471 0.318820 0.319734
0.442464 0.440869 0.438702
0.721589 0.710499 0.696878
0.314426 0.311314 0.309683
0.307051 0.305733 0.304303
0.613288 0.610968 0.603032
0.366020 0.366521 0.364088
0.527842 0.528625 0.530668
0.583154 0.586468 0.596320
0.319716 0.324044 0.326359
0.478494 0.478907 0.480732
0.225507 0.225881 0.227967
0.186916 0.187600 0.187862
0.638562 0.640966 0.643189
0.236117 0.233166 0.223978
0.591355 0.588146 0.585639
0.358019 0.357365 0.355425
0.351864 0.341968 0.350416
0.468123 0.465818 0.463711
0.325031 0.327810 0.328216
0.211161 0.211472 0.211708
0.685402 0.685999 0.684480
0.599084 0.596055 0.596329
0.374723 0.370538 0.364118
0.296591 0.296095 0.297410
0.205281 0.207852 0.211349
0.752374 0.750991 0.751578
0.443008 0.443699 0.442003
0.448821 0.449067 0.444348
0.367230 0.367678 0.366828
0.247819 0.247427 0.242952
0.631873 0.632487 0.635768
0.548553 0.553293 0.554430
0.278370 0.278409 0.278447
0.206983 0.207187 0.207824
0.303908 0.302758 0.305357
0.582794 0.587752 0.589666
0.648927 0.651461 0.653249
0.302769 0.304230 0.305751
0.303246 0.300821 0.298620
0.677796 0.678614 0.678619
0.195505 0.195004 0.194389
0.762365 0.764452 0.763153
0.224330 0.224124 0.223969
0.756202 0.755937 0.757491
0.176730 0.177584 0.179773
0.341187 0.341954 0.334090
0.273090 0.280619 0.282468
0.236106 0.242478 0.242663
0.301616 0.301267 0.301529
0.217474 0.209258 0.205918
0.587837 0.588962 0.588351
0.333856 0.333421 0.333137
0.313813 0.313429 0.304067
0.317849 0.316700 0.306198
0.189310 0.190881 0.191438
0.192073 0.192079 0.192274
0.721800 0.714811 0.714038
0.661740 0.663080 0.665655
0.199270 0.199014 0.197878
0.647125 0.647767 0.644033
0.212402 0.217117 0.219270
0.223316 0.223200 0.222818
0.702237 0.706784 0.706142
0.387435 0.388417 0.390692
0.252002 0.251288 0.249692
0.742646 0.739715 0.736817
0.254552 0.257541 0.255087
0.533107 0.533589 0.534437
0.362622 0.360997 0.358392
0.572827 0.574211 0.576098
0.577306 0.576017 0.580626
0.192102 0.191710 0.191426
0.221855 0.222343 0.222529
0.688579 0.686765 0.685686
0.507759 0.510671 0.512720
0.253659 0.254802 0.252908
0.313887 0.316383 0.317031
0.202950 0.198152 0.199243
0.369261 0.369542 0.370182
0.553245 0.548940 0.550875
0.195287 0.195276 0.194979
0.654187 0.660179 0.660423
0.382106 0.383069 0.383411
0.209122 0.208787 0.208979
0.211112 0.211576 0.211210
0.353614 0.352255 0.351620
0.190028 0.187980 0.198501
0.297190 0.299383 0.301754
0.833093 0.842999 0.850769
0.187981 0.187589 0.187590
0.589483 0.585042 0.585949
0.315776 0.316303 0.321057
0.653704 0.649683 0.650559
0.669718 0.671966 0.675951
0.860573 0.857330 0.849210
0.278205 0.277235 0.275415
0.664467 0.668657 0.668200
0.334417 0.333029 0.332397
0.185590 0.185957 0.187293
0.481658 0.482478 0.483105
0.685392 0.685801 0.700968
0.354526 0.354747 0.354403
0.354448 0.351132 0.349901
0.659533 0.656476 0.650361
0.307581 0.307094 0.305596
0.445019 0.445512 0.446781
0.457697 0.458323 0.458990
0.163212 0.163363 0.163145
0.576304 0.579801 0.579834
0.374639 0.384272 0.389164
0.212132 0.218908 0.234824
0.722918 0.722235 0.716033
0.405394 0.409648 0.410692
0.248126 0.249108 0.249561
0.174878 0.172123 0.172285
0.364397 0.362427 0.360638
0.477948 0.478159 0.476406
0.639138 0.636108 0.636224
0.158283 0.157017 0.156899
0.662959 0.668882 0.699996
0.480095 0.480406 0.483626
0.140989 0.141124 0.141997
0.425207 0.425362 0.438119
0.332859 0.334592 0.332740
0.448132 0.449038 0.450098
0.305817 0.305280 0.306789
0.471074 0.473496 0.475150
0.265919 0.266304 0.265852
0.564803 0.559387 0.558511
0.245594 0.248373 0.247889
0.231308 0.235947 0.252934
0.667965 0.662432 0.701126
0.587043 0.582954 0.586617
0.177082 0.181620 0.183834
0.454873 0.462836 0.461882
0.327696 0.317209 0.312557
0.209980 0.211371 0.210966
0.646277 0.649632 0.652758
0.319983 0.317444 0.317356
0.586087 0.581601 0.579417
0.582448 0.584504 0.592619
0.353596 0.355575 0.340375
0.308240 0.296899 0.297252
0.204549 0.206685 0.202884
0.693635 0.693205 0.692847
0.178132 0.178544 0.178490
0.224874 0.225507 0.225881
0.414257 0.407300 0.396932
0.222606 0.224565 0.225414
0.299648 0.300011 0.298739
0.323499 0.327169 0.328313
0.355380 0.358291 0.359955
0.563719 0.564434 0.565015
0.140086 0.141038 0.141504
0.252737 0.253139 0.253086
0.243313 0.243320 0.243661
0.364305 0.363354 0.362551
0.384821 0.385089 0.373030
0.317003 0.317494 0.314851
0.582073 0.576897 0.572725
0.176236 0.175354 0.176241
0.281399 0.280675 0.280999
0.261306 0.262252 0.264539
0.330370 0.331163 0.331152
0.312691 0.307994 0.304875
0.254934 0.255017 0.254972
0.392009 0.389353 0.369086
0.619216 0.639987 0.642559
0.252707 0.252518 0.254126
0.505202 0.522065 0.536050
0.613345 0.606493 0.601915
0.243690 0.243230 0.243002
0.582954 0.586617 0.583174
0.286286 0.309681 0.318803
0.302573 0.301327 0.302386
0.633402 0.630090 0.631153
0.393825 0.394411 0.394075
0.243001 0.238779 0.237062
0.163419 0.161526 0.163694
0.211359 0.210069 0.204934
0.540220 0.535369 0.533378
0.345703 0.354118 0.354491
0.134365 0.129616 0.128854
0.278067 0.277714 0.278244
0.229632 0.228005 0.229532
0.230506 0.269033 0.275995
0.198210 0.203348 0.204100
0.174365 0.173984 0.173658
0.274310 0.277020 0.284351
0.187832 0.188249 0.189176
0.141726 0.141803 0.141706
0.258082 0.258327 0.258036
0.217310 0.217265 0.216710
0.307701 0.304876 0.285491
0.334846 0.335430 0.336403
0.694668 0.698944 0.720772
0.157154 0.154962 0.147939
0.337140 0.337527 0.349766
0.363927 0.371674 0.380294
0.665192 0.676846 0.686892
0.170478 0.172068 0.174600
0.272718 0.272258 0.274054
0.355072 0.354790 0.353668
0.307853 0.308520 0.308086
0.174077 0.174179 0.180409
0.553429 0.551005 0.550662
0.579941 0.573183 0.578379
0.420475 0.410622 0.409026
0.307939 0.306172 0.301187
0.556143 0.554868 0.554037
0.346203 0.350104 0.348800
0.642842 0.642227 0.643823
0.323546 0.322860 0.322781
0.255510 0.255538 0.257565
0.558834 0.558114 0.557900
0.349106 0.346032 0.338533
0.390516 0.377424 0.382345
0.342402 0.341601 0.332560
0.271790 0.276631 0.277479
0.247641 0.246098 0.244823
0.334696 0.335163 0.335979
0.350393 0.351740 0.351736
0.526800 0.523706 0.525744
0.509826 0.507828 0.503847
0.450920 0.451180 0.448653
0.376013 0.384175 0.385546
0.621085 0.620372 0.616553
0.246694 0.245924 0.245566
0.219978 0.219013 0.217896
0.174149 0.173847 0.169188
0.606123 0.610107 0.624106
0.225631 0.227834 0.239195
0.263980 0.264102 0.263834
0.301995 0.301394 0.301198
0.727392 0.728850 0.731094
0.307297 0.306004 0.305392
0.693700 0.702228 0.695673
0.323438 0.323916 0.326334
0.341435 0.341407 0.341456
0.206272 0.206032 0.202392
0.666797 0.662530 0.660533
0.362644 0.360364 0.360076
0.361370 0.363636 0.361135
0.297223 0.297964 0.297525
0.846077 0.847254 0.853191
0.210511 0.209588 0.209968
0.211664 0.205400 0.203825
0.156557 0.156644 0.158564
0.657046 0.659847 0.659755
0.313108 0.313887 0.316383
0.322219 0.322164 0.322053
0.532035 0.532193 0.531274
0.278971 0.277733 0.274900
0.565345 0.562369 0.561451
0.486722 0.487538 0.488552
0.296959 0.297646 0.297694
0.194001 0.194688 0.196087
0.714483 0.717152 0.717359
0.196566 0.195311 0.195743
0.640100 0.635779 0.631417
0.621989 0.622399 0.621604
0.239005 0.238921 0.238500
0.603005 0.603812 0.600866
0.607806 0.607709 0.607177
0.520188 0.518361 0.513252
0.199545 0.199849 0.200144
0.864583 0.859817 0.855860
0.181467 0.180060 0.177610
0.179806 0.180508 0.182626
0.281869 0.277220 0.276931
0.511960 0.510886 0.510276
0.172227 0.172208 0.172575
0.306821 0.307454 0.309134
0.255802 0.255905 0.257551
0.303631 0.303123 0.301427
0.611991 0.608279 0.611740
0.308532 0.308279 0.308491
0.188231 0.188473 0.195187
0.657744 0.657791 0.652525
0.621662 0.620877 0.622382
0.444953 0.443605 0.442351
0.295805 0.289006 0.268912
0.597756 0.590225 0.582632
0.198447 0.195318 0.191470
0.192085 0.194005 0.214357
0.359931 0.357387 0.343981
0.340876 0.341629 0.342361
0.308937 0.309001 0.306054
0.212388 0.212070 0.211881
0.214578 0.214680 0.217190
0.161989 0.162643 0.162801
0.193953 0.193338 0.193371
0.516722 0.518916 0.521006
0.336937 0.342397 0.336649
0.511951 0.510747 0.510640
0.193034 0.191561 0.185609
0.176348 0.178833 0.175820
0.678735 0.660184 0.660091
0.316507 0.299019 0.297129
0.185748 0.188690 0.189210
0.339640 0.340170 0.340497
0.682550 0.684463 0.689194
0.401435 0.417781 0.422594
0.398264 0.401478 0.413142
0.583280 0.582916 0.577916
0.300065 0.299189 0.298700
0.857295 0.839860 0.817173
0.230503 0.231200 0.234198
0.251949 0.251625 0.251291
0.202213 0.201843 0.200899
0.299074 0.299900 0.301083
0.461686 0.461411 0.462541
0.200380 0.199753 0.197900
0.693003 0.688502 0.692915
0.259934 0.260054 0.258357
0.160673 0.161686 0.161534
0.373807 0.374262 0.374574
0.290665 0.292396 0.292389
0.466197 0.466056 0.458696
0.121257 0.121844 0.122424
0.173914 0.179816 0.180418
0.603032 0.602147 0.601414
0.655288 0.655427 0.645142
0.239416 0.240786 0.241171
0.205588 0.195995 0.197875
0.255283 0.255837 0.256721
0.311379 0.299736 0.296678
0.603753 0.610876 0.620843
0.451895 0.453141 0.454777
0.171010 0.173293 0.173408
0.594995 0.597602 0.599494
0.198396 0.198320 0.200538
0.362233 0.362380 0.361491
0.353695 0.362093 0.362639
0.578063 0.580415 0.576261
0.547226 0.549798 0.550310
0.350831 0.352343 0.355829
0.393094 0.398038 0.387784
0.321879 0.306312 0.297589
0.480529 0.474766 0.474013
0.371973 0.356878 0.356748
0.299736 0.296678 0.296245
0.579218 0.579188 0.578514
0.345061 0.339269 0.343962
0.216258 0.217317 0.217470
0.559610 0.558522 0.558228
0.196805 0.197032 0.195074
0.330559 0.331093 0.331073
0.212113 0.211488 0.210100
0.455963 0.460315 0.460002
0.652851 0.654187 0.654992
0.178397 0.177011 0.170202
0.210423 0.209796 0.209889
0.184086 0.176290 0.172716
0.331239 0.329038 0.339484
0.220150 0.220558 0.220645
0.586120 0.584923 0.569347
0.589777 0.587500 0.583928
0.566069 0.564881 0.563485
0.228860 0.250559 0.275583
0.820146 0.818254 0.819075
0.521869 0.520615 0.518669
0.574599 0.576786 0.580491
0.182864 0.183055 0.185018
0.293717 0.292586 0.292908
0.636599 0.633489 0.625599
0.362560 0.364857 0.363868
0.690506 0.688909 0.690304
0.306053 0.306005 0.304449
0.354491 0.351994 0.352321
0.453170 0.455197 0.454539
0.195766 0.197272 0.197508
0.324917 0.324057 0.325278
0.583925 0.580599 0.572359
0.681719 0.688258 0.691536
0.319287 0.312825 0.312984
0.987017 0.988963 0.990447
0.366545 0.366104 0.365098
