0.276285 0.276596 0.279962
0.145364 0.147158 0.146517
0.257957 0.256322 0.256065
0.377355 0.377871 0.378094
0.173504 0.171925 0.171426
0.265268 0.261353 0.261669
0.211722 0.211665 0.211799
0.250634 0.251865 0.278964
0.211346 0.212874 0.213250
0.200816 0.201141 0.202501
0.224093 0.225254 0.224190
0.152599 0.154990 0.156158
0.313140 0.318000 0.319589
0.211665 0.211799 0.211820
0.234849 0.232235 0.232388
0.249560 0.250980 0.249381
0.319573 0.319655 0.318544
0.203100 0.201425 0.195760
0.226655 0.227192 0.226750
0.241747 0.242627 0.243736
0.265920 0.265253 0.265095
0.146139 0.140028 0.143418
0.233639 0.234702 0.234779
0.215597 0.214638 0.214085
0.233468 0.233328 0.235535
0.272060 0.270507 0.270578
0.233377 0.233098 0.247471
0.153979 0.153924 0.154615
0.269379 0.261802 0.261433
0.233523 0.232384 0.232340
0.216518 0.216384 0.217322
0.282054 0.282137 0.282477
0.213763 0.215592 0.221653
0.253460 0.251306 0.244814
0.281678 0.281913 0.282292
0.262123 0.260570 0.260115
0.283132 0.284099 0.284602
0.166729 0.165484 0.165359
0.315471 0.315954 0.316449
0.282062 0.282722 0.286179
0.132558 0.132017 0.131981
0.153873 0.155246 0.164832
0.146338 0.146589 0.146598
0.132647 0.132862 0.132746
0.205938 0.204342 0.204430
0.164455 0.165262 0.165436
0.223769 0.222841 0.222663
0.256120 0.256303 0.256869
0.188393 0.191695 0.192515
0.132017 0.131981 0.125039
0.227896 0.228879 0.229015
0.205343 0.204382 0.203933
0.242083 0.241650 0.241718
0.189256 0.190019 0.194599
0.280561 0.280557 0.279820
0.214916 0.215007 0.215940
0.208681 0.208598 0.209440
0.186809 0.185817 0.180566
0.283548 0.286279 0.287197
0.210471 0.215274 0.215131
0.285249 0.285711 0.286777
0.219325 0.224387 0.224054
0.146212 0.143853 0.143429
0.228538 0.228621 0.228962
0.198869 0.199846 0.201504
0.267734 0.268211 0.271199
0.280561 0.281529 0.280104
0.220184 0.220577 0.221381
0.257040 0.259438 0.258633
0.244012 0.244094 0.244246
0.224376 0.223656 0.222904
0.186155 0.186058 0.184955
0.198660 0.211110 0.216332
0.379155 0.378611 0.377710
0.230173 0.231011 0.231280
0.245230 0.244434 0.242957
0.271137 0.270640 0.270459
0.298372 0.278608 0.276869
0.226168 0.225747 0.223175
0.218703 0.218880 0.218863
0.152667 0.153979 0.153924
0.141424 0.142158 0.142200
0.241786 0.241681 0.240288
0.321292 0.320672 0.320500
0.192238 0.192977 0.200151
0.250013 0.247296 0.249431
0.190234 0.190352 0.190406
0.217797 0.220241 0.218993
0.240967 0.237952 0.232187
0.226053 0.227117 0.227083
0.227021 0.214192 0.213301
0.211289 0.211326 0.211664
0.203616 0.206110 0.206615
0.244184 0.248071 0.248666
0.184397 0.184733 0.185092
0.201504 0.202080 0.202707
0.194577 0.194105 0.194255
0.224015 0.218395 0.218012
0.149238 0.149341 0.146150
0.251881 0.252597 0.252183
0.221160 0.220823 0.221304
0.123344 0.123535 0.124173
0.212266 0.211430 0.211620
0.201412 0.201197 0.201447
0.121965 0.121895 0.120452
0.133662 0.135105 0.134397
0.171309 0.166085 0.163574
0.299276 0.301007 0.301954
0.252860 0.253924 0.255553
0.374781 0.375158 0.371777
0.255535 0.252724 0.252792
0.272523 0.273490 0.273581
0.320504 0.319778 0.317932
0.201344 0.205011 0.206336
0.186766 0.187116 0.186723
0.225059 0.223922 0.224298
0.212347 0.212030 0.212966
0.239954 0.234992 0.234440
0.221323 0.221482 0.222372
0.215460 0.210433 0.210661
0.176365 0.177652 0.179274
0.288748 0.288601 0.288600
0.170754 0.170872 0.171546
0.159352 0.157868 0.155858
0.139467 0.140698 0.141340
0.315799 0.315730 0.322091
0.146018 0.146288 0.148216
0.270968 0.270704 0.269622
0.230640 0.231695 0.232307
0.213950 0.212626 0.212666
0.178947 0.179964 0.182824
0.146108 0.147572 0.150148
0.228443 0.228276 0.228092
0.183494 0.183385 0.183563
0.215342 0.216192 0.214154
0.245577 0.246145 0.246246
0.253619 0.259696 0.252106
0.134270 0.135066 0.134015
0.188554 0.188207 0.192628
0.198911 0.211168 0.211754
0.202601 0.203113 0.208719
0.300455 0.301115 0.315346
0.281364 0.284798 0.289383
0.212145 0.212043 0.211428
0.197407 0.197377 0.198691
0.193441 0.193080 0.193100
0.182850 0.184104 0.184327
0.242764 0.243589 0.243968
0.230100 0.228859 0.228717
0.255391 0.255029 0.254405
0.228102 0.228395 0.231089
0.212609 0.222749 0.224569
0.230488 0.218993 0.217216
0.285053 0.285800 0.285927
0.180231 0.181800 0.181658
0.147592 0.147838 0.146265
0.154297 0.154418 0.153974
0.193763 0.192922 0.191661
0.170325 0.168828 0.167822
0.243661 0.243528 0.242458
0.202221 0.202944 0.202957
0.194701 0.195760 0.196640
0.226244 0.227959 0.228845
0.217505 0.216208 0.216054
0.171070 0.169890 0.169609
0.279797 0.281945 0.280833
0.171117 0.172171 0.172960
0.206308 0.201049 0.200758
0.326123 0.323853 0.325578
0.221414 0.221503 0.221770
0.124173 0.125032 0.125723
0.239387 0.238439 0.237779
0.209673 0.207872 0.208538
0.228139 0.225521 0.226185
0.150632 0.150607 0.150679
0.206056 0.209976 0.210459
0.144408 0.144579 0.144527
0.176247 0.175669 0.176712
0.161081 0.161140 0.162079
0.286281 0.286680 0.286525
0.269863 0.269764 0.270667
0.137399 0.136313 0.135465
0.203789 0.200546 0.199021
0.235215 0.235520 0.235408
0.201136 0.200532 0.201072
0.196697 0.197214 0.197921
0.137757 0.149002 0.149454
0.236753 0.234460 0.233558
0.294724 0.295890 0.296223
0.201170 0.198347 0.199070
0.239298 0.240206 0.240277
0.157892 0.156974 0.156387
0.214305 0.214530 0.214510
0.288877 0.289255 0.282966
0.166988 0.164587 0.164680
0.201498 0.200764 0.200193
0.205115 0.211557 0.212212
0.228998 0.236765 0.236533
0.191181 0.190156 0.190052
0.230633 0.229996 0.230065
0.236828 0.236095 0.235415
0.185068 0.185484 0.185178
0.308790 0.308725 0.309831
0.268451 0.266745 0.266396
0.247736 0.251280 0.250937
0.343207 0.343917 0.340026
0.273379 0.273197 0.278022
0.186174 0.186388 0.185940
0.244747 0.245273 0.249108
0.223450 0.223035 0.222520
0.245513 0.246164 0.246671
0.298844 0.299224 0.298579
0.244765 0.242894 0.244281
0.188960 0.192704 0.195288
0.221271 0.219946 0.219969
0.309829 0.310055 0.310048
0.232363 0.231292 0.231199
0.202915 0.203472 0.211860
0.142573 0.141528 0.141544
0.165593 0.163094 0.162484
0.309554 0.309357 0.308799
0.156117 0.155071 0.155044
0.203789 0.202221 0.192967
0.238982 0.240646 0.243783
0.320793 0.323973 0.324357
0.161049 0.161641 0.163837
0.226678 0.228104 0.229458
0.151278 0.149609 0.143709
0.221918 0.221635 0.222365
0.135676 0.136145 0.136600
0.198391 0.197745 0.199643
0.130866 0.130964 0.130407
0.309677 0.307836 0.307261
0.236075 0.236171 0.238995
0.298791 0.298515 0.296741
0.298131 0.299270 0.298380
0.185815 0.186370 0.186023
0.166345 0.166471 0.167078
0.270401 0.270056 0.269135
0.308039 0.313412 0.313442
0.227570 0.226464 0.226372
0.167118 0.165598 0.165062
0.180287 0.177963 0.177586
0.334735 0.332709 0.332116
0.218095 0.218765 0.219891
0.149505 0.149943 0.149704
0.213331 0.211963 0.212983
0.192710 0.194653 0.197350
0.303088 0.302641 0.303891
0.199591 0.199273 0.195698
0.213920 0.214024 0.210796
0.243447 0.244072 0.244802
0.266748 0.268510 0.269045
0.174506 0.173045 0.171286
0.131020 0.131418 0.131379
0.150692 0.149968 0.150490
0.149738 0.149136 0.148727
0.115277 0.114496 0.114018
0.127433 0.129056 0.129300
0.202733 0.202786 0.203289
0.204966 0.205457 0.205398
0.186319 0.186016 0.186538
0.295510 0.295013 0.295175
0.263868 0.264119 0.264420
0.220767 0.220277 0.220481
0.259858 0.261008 0.277036
0.204062 0.204234 0.203168
0.222358 0.225631 0.226682
0.215108 0.212323 0.212061
0.314343 0.314730 0.316657
0.268232 0.266103 0.252626
0.214162 0.214615 0.216002
0.235585 0.236874 0.237022
0.222321 0.223240 0.223626
0.211222 0.210790 0.212272
0.257836 0.260499 0.261249
0.272480 0.270787 0.268394
0.267625 0.267949 0.266846
0.228945 0.229496 0.228545
0.195195 0.193575 0.189192
0.236166 0.236863 0.238156
0.207972 0.207660 0.207616
0.194835 0.193388 0.195126
0.167408 0.167464 0.168949
0.248571 0.246862 0.246180
0.197529 0.196931 0.197531
0.153503 0.152732 0.154724
0.220119 0.220072 0.219632
0.263837 0.263213 0.263346
0.201990 0.202837 0.203263
0.177650 0.179192 0.179753
0.244073 0.242100 0.241267
0.209082 0.208544 0.208847
0.208288 0.209021 0.209488
0.171049 0.170205 0.169637
0.224938 0.223035 0.222492
0.282678 0.283362 0.283430
0.232271 0.234093 0.233340
0.160497 0.161646 0.161539
0.202540 0.202998 0.203058
0.133088 0.133473 0.133523
0.215423 0.215635 0.215600
0.136304 0.137790 0.138360
0.239523 0.240175 0.240470
0.179418 0.181363 0.182223
0.197444 0.197588 0.197024
0.235153 0.235323 0.235745
0.208870 0.207331 0.208288
0.202157 0.202711 0.201977
0.195694 0.196649 0.203580
0.195381 0.197482 0.197923
0.147708 0.147945 0.148119
0.164821 0.164949 0.164772
0.220242 0.220411 0.217311
0.156463 0.156683 0.155817
0.242331 0.241036 0.241217
0.233824 0.235123 0.235303
0.232764 0.231610 0.231547
0.204619 0.204945 0.205968
0.229304 0.229670 0.230876
0.155347 0.155626 0.156620
0.137721 0.137774 0.137892
0.255130 0.256386 0.255434
0.165719 0.167153 0.167448
0.250625 0.250772 0.250985
0.171258 0.171886 0.171734
0.229612 0.229709 0.229688
0.193736 0.193765 0.193489
0.227249 0.227624 0.227249
0.181804 0.183169 0.183483
0.139460 0.141233 0.141587
0.234218 0.236897 0.233161
0.221831 0.226146 0.226458
0.313048 0.312753 0.311898
0.206498 0.199931 0.198144
0.152505 0.149505 0.149943
0.226348 0.225215 0.213681
0.180554 0.179412 0.175965
0.168287 0.167751 0.167688
0.200826 0.199332 0.198948
0.343858 0.343894 0.345935
0.303359 0.308450 0.309377
0.194054 0.194947 0.196458
0.217379 0.218434 0.218215
0.201779 0.200417 0.197812
0.143982 0.143201 0.142483
0.206882 0.207553 0.208647
0.160296 0.159131 0.159291
0.236316 0.238919 0.261642
0.223147 0.222205 0.226039
0.210186 0.210433 0.209723
0.260301 0.259572 0.258394
0.221739 0.227331 0.226121
0.254004 0.254191 0.255230
0.181368 0.182230 0.184144
0.172281 0.174272 0.174734
0.207548 0.209131 0.209342
0.151436 0.151477 0.152288
0.264655 0.271607 0.269919
0.197040 0.197259 0.196989
0.134744 0.139993 0.139924
0.177692 0.178614 0.176713
0.182391 0.182850 0.184104
0.245629 0.244426 0.247113
0.169023 0.167894 0.167907
0.169251 0.168473 0.168256
0.224751 0.221546 0.221495
0.253017 0.253251 0.254642
0.228308 0.228826 0.230007
0.255124 0.256699 0.257773
0.229167 0.227991 0.227897
0.177331 0.177388 0.176804
0.211071 0.211311 0.209963
0.263691 0.263817 0.263578
0.212998 0.211750 0.210417
0.215119 0.210132 0.209558
0.222391 0.222189 0.223105
0.280907 0.278123 0.281369
0.225678 0.225923 0.226682
0.223839 0.223447 0.222547
0.170141 0.165852 0.165127
0.156394 0.157316 0.158538
0.221619 0.221150 0.220511
0.243107 0.243359 0.242162
0.269011 0.268623 0.271625
0.230865 0.232375 0.234211
0.141100 0.140633 0.140697
0.230369 0.229905 0.230006
0.222008 0.224129 0.223983
0.270274 0.270761 0.271064
0.220865 0.221357 0.220986
0.188074 0.199708 0.200709
0.246754 0.247336 0.249310
0.184635 0.184489 0.184732
0.148012 0.148850 0.163763
0.259241 0.257143 0.256650
0.229184 0.231756 0.233583
0.229998 0.230366 0.229183
0.220136 0.220473 0.219706
0.246872 0.246546 0.245766
0.172655 0.174992 0.175800
0.153389 0.153203 0.152902
0.376348 0.366673 0.365984
0.149236 0.148905 0.143477
0.206390 0.206755 0.207164
0.233633 0.233126 0.233404
0.199402 0.206128 0.206722
0.133446 0.134068 0.134205
0.258277 0.256804 0.257194
0.191097 0.199367 0.199896
0.235258 0.233537 0.232538
0.180382 0.179861 0.179372
0.282474 0.282715 0.283098
0.201521 0.200774 0.201312
0.114706 0.114501 0.112960
0.283738 0.283596 0.281426
0.190936 0.190489 0.190342
0.201581 0.201603 0.201785
0.226592 0.224596 0.224973
0.333249 0.334074 0.335945
0.178968 0.178814 0.179889
0.183469 0.183918 0.181945
0.190830 0.190912 0.187799
0.220154 0.223647 0.224190
0.171293 0.169501 0.163290
0.287249 0.287668 0.288810
0.195720 0.195640 0.194746
0.254281 0.254354 0.260711
0.231217 0.230270 0.229702
0.241971 0.242192 0.242622
0.196371 0.195836 0.196299
0.306261 0.307059 0.306048
0.184494 0.182784 0.182830
0.211434 0.210880 0.211589
0.260348 0.266153 0.265826
0.306644 0.306528 0.306122
0.148157 0.148952 0.149280
0.151745 0.151839 0.150376
0.212744 0.211591 0.211683
0.211436 0.214106 0.214832
0.273408 0.272942 0.274672
0.199915 0.200741 0.200526
0.273077 0.272707 0.272756
0.219185 0.218536 0.218378
0.192665 0.193575 0.193734
0.178890 0.179535 0.180483
0.133790 0.133989 0.134744
0.155688 0.155056 0.156482
0.220924 0.217736 0.217176
0.242422 0.242074 0.241892
0.226450 0.223498 0.221682
0.278812 0.274770 0.240729
0.208663 0.208268 0.208964
0.142710 0.142013 0.142356
0.211591 0.210905 0.210987
0.179004 0.180925 0.181004
0.258540 0.259415 0.261916
0.261417 0.262086 0.261998
0.211094 0.208292 0.207691
0.216388 0.218136 0.217632
0.198692 0.197895 0.192895
0.195262 0.194296 0.194319
0.224236 0.223840 0.223613
0.249573 0.248774 0.249562
0.193048 0.199898 0.200656
0.197466 0.198198 0.198834
0.220910 0.223478 0.222037
0.335473 0.342647 0.342561
0.218863 0.219592 0.219073
0.180225 0.180975 0.183961
0.223709 0.223712 0.223668
0.201138 0.200668 0.199402
0.236863 0.238156 0.229667
0.169165 0.169567 0.168165
0.235213 0.235203 0.235262
0.295620 0.294197 0.288536
0.193249 0.193241 0.194157
0.243836 0.244199 0.245152
0.277630 0.276477 0.278366
0.183196 0.179482 0.179512
0.239184 0.236471 0.236657
0.321609 0.324301 0.323526
0.276567 0.277754 0.269845
0.257194 0.257933 0.256423
0.206813 0.193008 0.190576
0.131290 0.131638 0.133433
0.194286 0.196913 0.195412
0.189954 0.189894 0.189537
0.201576 0.201528 0.200690
0.143083 0.140888 0.139452
0.210114 0.209655 0.211587
0.200182 0.202194 0.201813
0.213547 0.214422 0.210389
0.243552 0.242599 0.230262
0.194947 0.194263 0.194097
0.210744 0.210998 0.209098
0.133857 0.134128 0.135825
0.245719 0.247489 0.258072
0.210779 0.209581 0.210057
0.241150 0.240044 0.238165
0.298576 0.299409 0.298658
0.224761 0.223206 0.223099
0.267260 0.270557 0.271988
0.156226 0.156404 0.155900
0.148414 0.150002 0.151080
0.224029 0.223291 0.219779
0.156246 0.156496 0.156421
0.229945 0.236697 0.240565
0.259419 0.258165 0.256551
0.142476 0.142480 0.142999
0.204695 0.204704 0.203987
0.159527 0.159866 0.159559
0.190746 0.191450 0.195588
0.245586 0.245183 0.245379
0.215408 0.215306 0.219689
0.221678 0.223383 0.219872
0.156555 0.157770 0.157868
0.138474 0.139072 0.139081
0.201485 0.200917 0.199959
0.149502 0.150294 0.150841
0.222647 0.223619 0.221101
0.227918 0.227716 0.228435
0.141248 0.141144 0.140934
0.211478 0.213086 0.211679
0.304981 0.305663 0.303437
0.290228 0.290033 0.285511
0.177790 0.178706 0.182065
0.238584 0.238812 0.238900
0.255452 0.255070 0.252578
0.142024 0.141868 0.140879
0.150635 0.150597 0.150558
0.144100 0.143788 0.147020
0.152546 0.153436 0.153607
0.152252 0.152445 0.154058
0.216667 0.216367 0.214033
0.259086 0.258487 0.265682
0.250699 0.243671 0.241786
0.235098 0.234719 0.233492
0.216383 0.216883 0.216954
0.228652 0.229213 0.227542
0.142125 0.141475 0.141875
0.325628 0.325919 0.326004
0.220545 0.224766 0.223758
0.160989 0.161549 0.161294
0.190976 0.189816 0.189614
0.229018 0.229528 0.230386
0.171385 0.174286 0.174403
0.185560 0.185519 0.185741
0.237521 0.236397 0.235123
0.182460 0.190884 0.193096
0.205902 0.202949 0.203543
0.260536 0.266286 0.269925
0.238499 0.238054 0.237021
0.206212 0.207407 0.207210
0.185741 0.185296 0.178727
0.292684 0.292678 0.294015
0.166294 0.165499 0.165616
0.204315 0.204826 0.202515
0.193545 0.191793 0.182787
0.213238 0.217249 0.215936
0.252702 0.253187 0.254830
0.199325 0.200596 0.201709
0.226572 0.225656 0.225084
0.189630 0.191817 0.191199
0.225517 0.225842 0.225438
0.207643 0.207973 0.207900
0.224145 0.224151 0.224482
0.181945 0.181176 0.181666
0.125440 0.125184 0.129968
0.147667 0.146229 0.145746
0.255600 0.255435 0.255494
0.198721 0.198983 0.201338
0.140697 0.141083 0.142306
0.209476 0.211440 0.211159
0.154317 0.154072 0.154168
0.211455 0.210643 0.217237
0.278176 0.280338 0.267119
0.188863 0.189438 0.189537
0.301178 0.296008 0.297271
0.165002 0.164256 0.156272
0.195897 0.195195 0.194512
0.148768 0.149710 0.149818
0.207107 0.205648 0.205450
0.221762 0.220387 0.218719
0.180151 0.180456 0.181265
0.181224 0.180678 0.179066
0.252152 0.253011 0.253705
0.228527 0.229558 0.236138
0.322234 0.321643 0.321475
0.268537 0.268637 0.268646
0.278939 0.275983 0.280752
0.128255 0.128230 0.130007
0.242246 0.245101 0.249321
0.319368 0.320926 0.323878
0.184084 0.184468 0.184386
0.233474 0.233601 0.230923
0.139040 0.138976 0.139080
0.243363 0.243148 0.245690
0.220003 0.223280 0.224349
0.186285 0.186366 0.186447
0.172049 0.171194 0.167210
0.263270 0.260557 0.257604
0.229499 0.230310 0.237610
0.252112 0.246297 0.246155
0.241908 0.242413 0.242964
0.176672 0.175681 0.175598
0.193297 0.192387 0.192033
0.154184 0.153072 0.153353
0.223470 0.222699 0.223295
0.269347 0.274049 0.281097
0.272242 0.272872 0.271260
0.144203 0.148219 0.148157
0.165418 0.165380 0.165898
0.212923 0.214144 0.216131
0.162002 0.161841 0.167922
0.236846 0.237799 0.236489
0.211414 0.211715 0.212285
0.240346 0.240672 0.240683
0.153416 0.153436 0.154297
0.222366 0.226526 0.228319
0.250777 0.248806 0.249614
0.152366 0.153491 0.154988
0.190088 0.189495 0.189080
0.216308 0.216472 0.216222
0.190562 0.189222 0.188506
0.183686 0.187188 0.182022
0.179381 0.179204 0.172655
0.353689 0.355276 0.360511
0.226651 0.224351 0.224318
0.211096 0.209407 0.208118
0.197237 0.196995 0.196467
0.193264 0.193032 0.192295
0.195020 0.194633 0.194372
0.193504 0.194744 0.195607
0.141860 0.141492 0.142117
0.252181 0.252451 0.252798
0.243981 0.243497 0.242130
0.287575 0.288173 0.287714
0.222646 0.224037 0.224319
0.215592 0.221653 0.222281
0.133433 0.133473 0.133588
0.174310 0.174435 0.174248
0.156622 0.158547 0.156670
0.163810 0.165330 0.165343
0.308988 0.307225 0.307569
0.160167 0.161457 0.162406
0.259066 0.260099 0.261727
0.244448 0.243577 0.244397
0.154817 0.155235 0.155590
0.161967 0.160925 0.160167
0.215893 0.214957 0.209495
0.290465 0.290336 0.283990
0.238398 0.235017 0.240373
0.191813 0.184523 0.184627
0.141562 0.144431 0.144138
0.335451 0.334847 0.335667
0.242008 0.241369 0.240679
0.148073 0.146426 0.146260
0.335302 0.348916 0.349500
0.198653 0.199681 0.202231
0.206384 0.204337 0.200823
0.256363 0.256021 0.256897
0.224851 0.224845 0.227127
0.220305 0.220923 0.219826
0.242147 0.242050 0.240838
0.162888 0.167379 0.164657
0.236169 0.235122 0.234266
0.231288 0.230538 0.245150
0.197551 0.196381 0.195492
0.174250 0.174198 0.174264
0.233557 0.234440 0.240261
0.137084 0.136345 0.136143
0.266600 0.267880 0.268014
0.275983 0.276206 0.275515
0.190340 0.190993 0.190351
0.236088 0.235880 0.234013
0.165026 0.164108 0.164100
0.290081 0.289330 0.289016
0.212140 0.212515 0.223110
0.154301 0.155146 0.156916
0.278993 0.279190 0.279079
0.235448 0.236519 0.236703
0.174723 0.170303 0.170822
0.117559 0.117343 0.118004
0.266286 0.269925 0.269101
0.180034 0.179895 0.180927
0.309377 0.309386 0.308835
0.193901 0.193012 0.192661
0.233797 0.232905 0.233102
0.179245 0.179399 0.171520
0.223726 0.224751 0.221546
0.201709 0.202363 0.203136
0.236319 0.236252 0.238447
0.281837 0.286528 0.286670
0.276638 0.274175 0.271717
0.160065 0.160220 0.159903
0.134854 0.137447 0.137826
0.185397 0.184299 0.183289
0.307360 0.307085 0.307005
0.225498 0.224241 0.223593
0.282761 0.283168 0.282466
0.203470 0.203348 0.203260
0.195014 0.193768 0.193943
0.249057 0.248229 0.247962
0.225277 0.226053 0.227117
0.239376 0.239481 0.239101
0.184691 0.184895 0.185499
0.224924 0.224540 0.224032
0.157193 0.156627 0.156695
0.188548 0.189428 0.194440
0.220586 0.222236 0.222685
0.197897 0.197761 0.198009
0.244767 0.245354 0.299732
0.205865 0.205555 0.204577
0.155696 0.156252 0.159637
0.340080 0.338139 0.335639
0.170178 0.170946 0.175368
0.238002 0.237955 0.238019
0.236595 0.236495 0.236738
0.168416 0.167883 0.169666
0.239178 0.238925 0.237765
0.225084 0.224856 0.222823
0.134922 0.135089 0.135263
0.312360 0.318754 0.319286
0.135995 0.135735 0.135671
0.316551 0.315216 0.314910
0.267112 0.267301 0.267662
0.277745 0.276852 0.276583
0.252508 0.252000 0.252671
0.189001 0.187908 0.188276
0.189954 0.185427 0.184043
0.307399 0.307568 0.307240
0.260168 0.259374 0.259086
0.137710 0.137160 0.137611
0.204628 0.202544 0.203953
0.239953 0.250273 0.249501
0.196567 0.196848 0.196824
0.203923 0.203726 0.198894
0.177890 0.178138 0.177324
0.235460 0.235892 0.233644
0.210739 0.210835 0.211975
0.229466 0.230785 0.232175
0.217736 0.217176 0.215739
0.138297 0.136061 0.136677
0.228590 0.223683 0.223133
0.159056 0.158409 0.158669
0.190821 0.192690 0.193281
0.232003 0.232159 0.232951
0.150332 0.150306 0.149943
0.136143 0.136247 0.137756
0.296424 0.296345 0.296335
0.233629 0.238422 0.238126
0.196393 0.195483 0.193305
0.148954 0.148114 0.146642
0.245487 0.245545 0.245316
0.186862 0.186634 0.186839
0.202709 0.202725 0.202696
0.285295 0.291373 0.288553
0.256134 0.251595 0.249063
0.242780 0.243960 0.247665
0.216146 0.215525 0.210185
0.192608 0.192200 0.188846
0.215154 0.215075 0.215202
0.227567 0.234578 0.234094
0.255463 0.248808 0.248617
0.257631 0.258277 0.256804
0.179361 0.179981 0.179412
0.179448 0.179556 0.179433
0.145218 0.146712 0.146744
0.195912 0.195747 0.195184
0.274175 0.271717 0.271374
0.250975 0.260607 0.261771
0.191128 0.191286 0.193402
0.274709 0.274528 0.274783
0.266454 0.266357 0.266557
0.253450 0.260422 0.261979
0.238601 0.241046 0.260412
0.215922 0.201982 0.202687
0.200848 0.200670 0.199140
0.243785 0.241459 0.242305
0.144526 0.143455 0.143651
0.200305 0.199481 0.186277
0.194123 0.194065 0.197171
0.182185 0.182562 0.186877
0.190328 0.190112 0.190231
0.158548 0.158186 0.158665
0.215964 0.215185 0.213053
0.207691 0.208135 0.208919
0.212019 0.210581 0.211140
0.200768 0.201952 0.204908
0.183966 0.184765 0.184438
0.235970 0.237959 0.246008
0.300577 0.288532 0.288775
0.167622 0.170105 0.168804
0.342882 0.343621 0.344094
0.159715 0.156114 0.156519
0.259318 0.274847 0.274818
0.244953 0.244937 0.244344
0.193883 0.193843 0.189580
0.225241 0.226038 0.227082
0.242270 0.245978 0.246666
0.271209 0.270237 0.265888
0.144005 0.143542 0.143056
0.212901 0.213791 0.214717
0.208626 0.207782 0.206703
0.147741 0.148040 0.148475
0.209544 0.210183 0.208839
0.212809 0.212811 0.211612
0.208232 0.209574 0.211575
0.252249 0.252301 0.252183
0.198449 0.199280 0.199480
0.218926 0.217001 0.214913
0.203138 0.202604 0.203825
0.252476 0.250987 0.248514
0.242514 0.244149 0.246650
0.279079 0.277719 0.277965
0.275035 0.271394 0.271088
0.140200 0.140042 0.140884
0.180843 0.203138 0.204088
0.330464 0.330445 0.325849
0.285305 0.285563 0.285546
0.197384 0.195736 0.195431
0.197994 0.197996 0.197655
0.261792 0.262272 0.262802
0.172183 0.171651 0.170804
0.168645 0.169042 0.172907
0.152407 0.151793 0.149917
0.324422 0.326332 0.325707
0.242137 0.241582 0.241696
0.243628 0.244375 0.244468
0.152610 0.152844 0.153072
0.251725 0.252156 0.251816
0.236778 0.237555 0.234370
0.188086 0.190892 0.190353
0.135299 0.135736 0.135282
0.259193 0.259985 0.259670
0.199919 0.201464 0.201752
0.178712 0.171402 0.168688
0.254150 0.253777 0.252583
0.245431 0.247296 0.247651
0.274760 0.275988 0.277026
0.175217 0.172389 0.174994
0.227957 0.228848 0.229374
0.220824 0.222450 0.224574
0.178634 0.188627 0.189608
0.295579 0.295697 0.295676
0.208715 0.208612 0.209585
0.230567 0.232210 0.238856
0.227172 0.227249 0.227624
0.222147 0.221465 0.221047
0.253019 0.253135 0.252696
0.185898 0.181667 0.177954
0.141454 0.142493 0.143378
0.186680 0.183947 0.184348
0.205896 0.206342 0.206616
0.242777 0.231392 0.228334
0.229201 0.236456 0.236595
0.237287 0.233357 0.233085
0.296253 0.296114 0.299668
0.212365 0.213986 0.214085
0.207488 0.206539 0.204775
0.202233 0.203030 0.203147
0.243472 0.243697 0.245230
0.239101 0.238262 0.236967
0.180798 0.183159 0.183545
0.138271 0.138473 0.138595
0.364671 0.365506 0.373792
0.215509 0.215860 0.216092
0.232533 0.232428 0.230038
0.280492 0.284461 0.284470
0.219269 0.224286 0.223569
0.244897 0.245294 0.246800
0.139008 0.139704 0.140738
0.337883 0.338580 0.338554
0.169096 0.161242 0.159515
0.185756 0.182752 0.180057
0.185156 0.186275 0.185480
0.242465 0.238195 0.237755
0.321792 0.313509 0.312965
0.276362 0.276393 0.275249
0.220921 0.220393 0.219761
0.237231 0.238026 0.239100
0.148964 0.149467 0.149277
0.190916 0.189803 0.187417
0.260729 0.262870 0.260400
0.137541 0.130541 0.130131
0.203389 0.203727 0.206196
0.182004 0.179952 0.179595
0.200306 0.200659 0.200645
0.241409 0.246679 0.245888
0.227997 0.228149 0.227762
0.259057 0.260866 0.276261
0.263047 0.266159 0.265661
0.243577 0.246173 0.245593
0.201350 0.201440 0.202211
0.213891 0.213667 0.213954
0.164774 0.164929 0.164702
0.264032 0.264922 0.264118
0.262736 0.263011 0.264190
0.334725 0.334351 0.333800
0.209440 0.209701 0.210536
0.248835 0.248948 0.251459
0.297970 0.299909 0.299784
0.212121 0.211384 0.211785
0.234985 0.243385 0.242312
0.238875 0.238484 0.244336
0.233109 0.233477 0.233273
0.224367 0.224720 0.225623
0.258980 0.257091 0.252675
0.146147 0.146185 0.145263
0.232413 0.234144 0.233199
0.152777 0.152313 0.151745
0.198565 0.197333 0.196624
0.327225 0.328562 0.328568
0.253473 0.252656 0.258818
0.216097 0.217218 0.216855
0.236637 0.239336 0.238605
0.216921 0.216877 0.217280
0.128020 0.127595 0.128649
0.196450 0.195014 0.193768
0.142602 0.141330 0.139362
0.252099 0.251063 0.246998
0.243941 0.250222 0.250757
0.195847 0.193659 0.193435
0.240357 0.240147 0.237774
0.261856 0.262066 0.261333
0.207667 0.207940 0.207922
0.236886 0.235951 0.233098
0.218480 0.217703 0.217339
0.149838 0.148651 0.148394
0.267866 0.266213 0.265479
0.232394 0.225219 0.224558
0.231325 0.230911 0.230793
0.233693 0.233751 0.234135
0.150539 0.150529 0.149666
0.299802 0.299997 0.300063
0.261499 0.260697 0.261226
0.193193 0.191397 0.190628
0.150575 0.151694 0.152491
0.290752 0.289263 0.289765
0.128730 0.128181 0.127491
0.253950 0.254530 0.255735
0.168024 0.168956 0.169342
0.165137 0.173863 0.174876
0.134205 0.136754 0.136484
0.219157 0.221988 0.221241
0.165446 0.163837 0.164352
0.138601 0.137587 0.137641
0.158261 0.157476 0.155760
0.193983 0.194337 0.195605
0.246720 0.245462 0.221144
0.214431 0.215110 0.214938
0.247513 0.249029 0.249643
0.186038 0.184979 0.183859
0.198454 0.193829 0.191751
0.215073 0.213117 0.210909
0.228593 0.227769 0.230216
0.242159 0.243860 0.244110
0.233349 0.233061 0.234578
0.223758 0.223059 0.221488
0.188942 0.189427 0.194511
0.236249 0.231002 0.229608
0.240780 0.242179 0.241143
0.248724 0.248793 0.251153
0.162079 0.162407 0.162960
0.311704 0.308514 0.299129
0.168535 0.168797 0.170310
0.199124 0.199842 0.201365
0.284257 0.283605 0.283834
0.289140 0.280733 0.279138
0.221974 0.217166 0.216427
0.321382 0.321160 0.322077
0.169702 0.167739 0.167820
0.237356 0.236641 0.247334
0.252927 0.254565 0.255230
0.113709 0.113057 0.113057
0.238598 0.237654 0.233968
0.197193 0.197827 0.198713
0.184699 0.184180 0.185156
0.286998 0.279645 0.279277
0.261644 0.259905 0.255663
0.270323 0.270423 0.268878
0.247153 0.246426 0.247398
0.246637 0.246340 0.247145
0.268137 0.268117 0.267773
0.150645 0.150555 0.150628
0.242268 0.242631 0.245181
0.138705 0.139482 0.139778
0.217150 0.218015 0.221238
0.214544 0.213954 0.211454
0.133085 0.140023 0.140170
0.201334 0.201218 0.200977
0.209845 0.210070 0.208938
0.139395 0.139579 0.140627
0.249447 0.247042 0.246277
0.142210 0.143777 0.144086
0.256694 0.256440 0.256379
0.241976 0.242051 0.241781
0.164576 0.163264 0.164087
0.182612 0.183473 0.188840
