0.360497 0.350464 0.343167
0.266171 0.266915 0.267910
0.295332 0.295287 0.295353
0.313183 0.312841 0.312679
0.319297 0.318942 0.318723
0.259541 0.260111 0.259671
0.240455 0.241204 0.246576
0.272267 0.274206 0.270752
0.233474 0.234208 0.235617
0.359671 0.358404 0.356742
0.241240 0.240184 0.240250
0.239782 0.241284 0.242296
0.290842 0.293335 0.292026
0.210412 0.210741 0.214197
0.345199 0.345092 0.342500
0.230865 0.236647 0.237620
0.259600 0.256730 0.256584
0.289544 0.288260 0.287853
0.319273 0.318506 0.321202
0.221931 0.222097 0.222479
0.214197 0.213222 0.208596
0.216739 0.215377 0.209243
0.261446 0.275207 0.280835
0.250889 0.251462 0.253099
0.299154 0.296277 0.293114
0.389458 0.389531 0.390833
0.243525 0.243487 0.244955
0.330762 0.328660 0.324399
0.339033 0.324039 0.320204
0.291610 0.291262 0.290429
0.348628 0.347670 0.347951
0.366549 0.367083 0.373270
0.282964 0.282957 0.282521
0.214757 0.215421 0.219572
0.280018 0.277398 0.271729
0.208631 0.211138 0.215918
0.312994 0.310735 0.309022
0.382504 0.382067 0.385506
0.261671 0.261812 0.261561
0.274349 0.278271 0.279932
0.311224 0.309477 0.310387
0.335843 0.334923 0.333883
0.360389 0.362618 0.361158
0.247791 0.245862 0.241134
0.318286 0.317343 0.318471
0.243512 0.243744 0.243800
0.297985 0.298828 0.302116
0.232441 0.233442 0.235058
0.264496 0.265172 0.265076
0.279206 0.278932 0.279009
0.375913 0.375461 0.375182
0.328598 0.328610 0.328478
0.396071 0.382853 0.379602
0.278058 0.276691 0.274449
0.281931 0.297202 0.298998
0.259926 0.260248 0.260699
0.242835 0.242977 0.242422
0.297457 0.298994 0.298247
0.310697 0.310410 0.311771
0.259962 0.259491 0.258561
0.267537 0.260952 0.258389
0.274148 0.272451 0.270190
0.290252 0.273640 0.273184
0.275704 0.274884 0.274430
0.333283 0.333584 0.333903
0.344411 0.343157 0.342228
0.319632 0.323455 0.311194
0.289611 0.290543 0.290426
0.322537 0.318715 0.319549
0.317843 0.318402 0.318886
0.275359 0.275226 0.274349
0.259484 0.259462 0.260453
0.328122 0.330697 0.333085
0.339542 0.332385 0.331426
0.259644 0.260384 0.261794
0.263674 0.277535 0.279295
0.303294 0.311618 0.317343
0.342356 0.344969 0.337323
0.365418 0.363772 0.354543
0.314404 0.313586 0.313851
0.290691 0.289536 0.287169
0.289218 0.296230 0.297515
0.271259 0.270269 0.265022
0.193861 0.193453 0.193653
0.238884 0.236970 0.235709
0.186667 0.186406 0.186398
0.223771 0.223345 0.224010
0.292983 0.294834 0.294700
0.257907 0.257232 0.257965
0.263885 0.263598 0.265677
0.312111 0.312777 0.313463
0.318374 0.318703 0.318650
0.301146 0.301941 0.303558
0.301990 0.298393 0.301718
0.358535 0.358207 0.359520
0.241782 0.241787 0.242357
0.290618 0.290783 0.292992
0.272838 0.268789 0.270473
0.278345 0.279319 0.280446
0.248820 0.249678 0.253968
0.381318 0.380343 0.376820
0.265561 0.267553 0.267133
0.256666 0.256973 0.258441
0.295289 0.295685 0.295902
0.254090 0.254983 0.256951
0.267277 0.268123 0.267731
0.247905 0.248618 0.248817
0.325240 0.334792 0.332422
0.306180 0.306693 0.306245
0.205621 0.206114 0.205125
0.288533 0.288002 0.286015
0.293791 0.289193 0.288590
0.297889 0.297121 0.297411
0.260323 0.260315 0.259696
0.261019 0.260455 0.260942
0.224023 0.223119 0.222476
0.301611 0.296081 0.294720
0.349730 0.354742 0.356591
0.277996 0.276944 0.277673
0.269204 0.262738 0.262405
0.301702 0.302410 0.303841
0.300090 0.297252 0.297085
0.233758 0.232840 0.232955
0.373710 0.376215 0.377450
0.325116 0.324360 0.324491
0.207190 0.208410 0.207559
0.339576 0.338354 0.337232
0.230539 0.230803 0.230139
0.273536 0.273878 0.271309
0.298916 0.299398 0.299224
0.215364 0.215240 0.216772
0.275092 0.275923 0.274797
0.386138 0.388086 0.388741
0.264649 0.263800 0.262293
0.222354 0.223785 0.222503
0.244252 0.244355 0.243331
0.250586 0.251408 0.250861
0.323683 0.324307 0.324094
0.277348 0.281659 0.278260
0.253377 0.254423 0.254474
0.263992 0.265739 0.267444
0.344351 0.345138 0.345142
0.287989 0.292938 0.295905
0.281324 0.282067 0.284550
0.219711 0.218534 0.217165
0.275279 0.276004 0.275987
0.219589 0.228122 0.227301
0.308926 0.304400 0.301571
0.284377 0.284306 0.282971
0.273981 0.273432 0.271954
0.283412 0.285605 0.285764
0.356663 0.356528 0.355567
0.267035 0.262414 0.258833
0.273640 0.276071 0.276541
0.243817 0.242147 0.240600
0.226051 0.223109 0.214100
0.225336 0.225925 0.226190
0.316710 0.317404 0.318087
0.307314 0.299067 0.297532
0.295019 0.295203 0.296184
0.257470 0.256394 0.255044
0.316140 0.314015 0.312142
0.261644 0.262260 0.262186
0.275777 0.274063 0.274680
0.250934 0.250306 0.247548
0.388510 0.389454 0.389943
0.298296 0.304873 0.304655
0.232999 0.241544 0.238502
0.222175 0.222487 0.225028
0.293175 0.292537 0.292394
0.332984 0.333306 0.331365
0.283162 0.285483 0.285956
0.268419 0.267895 0.268126
0.356603 0.356527 0.355562
0.342151 0.343892 0.346311
0.202430 0.195735 0.195690
0.263366 0.262618 0.262501
0.292238 0.293694 0.297242
0.207249 0.204121 0.197119
0.300972 0.299377 0.297915
0.277421 0.278623 0.279029
0.278854 0.279982 0.280581
0.256663 0.256478 0.256622
0.328629 0.325991 0.324691
0.373414 0.371198 0.369311
0.256523 0.257226 0.261047
0.287453 0.287443 0.286935
0.264915 0.263510 0.260634
0.203411 0.203965 0.205072
0.222785 0.222757 0.222711
0.261606 0.261952 0.260096
0.290056 0.290346 0.290611
0.261371 0.260841 0.261407
0.299710 0.299245 0.299790
0.241291 0.241377 0.240750
0.251628 0.249421 0.246383
0.282866 0.280736 0.278910
0.217326 0.217172 0.217306
0.308543 0.307314 0.302470
0.262769 0.262738 0.264053
0.371720 0.376869 0.388692
0.307075 0.305441 0.306311
0.214545 0.213923 0.213786
0.216311 0.215204 0.211498
0.311850 0.310506 0.309929
0.204658 0.204901 0.205243
0.285237 0.285918 0.288604
0.266376 0.273845 0.276854
0.295961 0.293442 0.292204
0.322667 0.322999 0.323253
0.275800 0.276403 0.277350
0.204947 0.203074 0.202217
0.247011 0.245616 0.244898
0.240561 0.240182 0.240237
0.301388 0.297906 0.295547
0.277249 0.276328 0.277598
0.374592 0.374770 0.374494
0.266575 0.266885 0.267192
0.281286 0.279928 0.272385
0.294360 0.290746 0.285044
0.264384 0.262640 0.261570
0.260987 0.258174 0.258074
0.333862 0.331194 0.332856
0.299539 0.292210 0.292171
0.259155 0.269314 0.259244
0.322629 0.320214 0.319331
0.259715 0.260170 0.262901
0.284303 0.284450 0.285702
0.286964 0.288978 0.289007
0.216115 0.216273 0.216433
0.340924 0.336922 0.320239
0.290904 0.291059 0.290798
0.266662 0.266397 0.267948
0.244392 0.244435 0.244154
0.309631 0.312009 0.311392
0.398385 0.384527 0.381958
0.259891 0.258689 0.258378
0.247503 0.249762 0.249232
0.286361 0.277897 0.278282
0.245823 0.251051 0.253882
0.267374 0.255633 0.250929
0.259641 0.261878 0.262592
0.366672 0.366663 0.366295
0.312946 0.312460 0.311075
0.247701 0.247905 0.248618
0.297862 0.293463 0.292020
0.287848 0.288822 0.292961
0.242849 0.243195 0.243016
0.197428 0.198397 0.197322
0.334600 0.333028 0.330841
0.284264 0.284039 0.284432
0.275293 0.275418 0.274310
0.289968 0.294277 0.295605
0.317288 0.317257 0.319850
0.295143 0.294311 0.286597
0.259787 0.260173 0.261816
0.262310 0.261858 0.262610
0.312017 0.313360 0.316728
0.327748 0.326406 0.325893
0.289165 0.290889 0.288646
0.379016 0.377098 0.374938
0.299011 0.298506 0.299868
0.256714 0.257591 0.258736
0.327573 0.329677 0.332092
0.229275 0.231245 0.228749
0.269509 0.269237 0.263169
0.271605 0.274566 0.276219
0.210859 0.210735 0.213481
0.252895 0.252594 0.247128
0.206648 0.203173 0.202735
0.362618 0.361158 0.358073
0.303197 0.300507 0.299585
0.211154 0.211095 0.211410
0.290524 0.290629 0.289949
0.344862 0.341358 0.341720
0.217859 0.216605 0.215778
0.303384 0.304834 0.303358
0.269447 0.270291 0.270325
0.309898 0.308223 0.309688
0.296347 0.297807 0.297931
0.284415 0.284503 0.284275
0.399490 0.403182 0.404123
0.284100 0.277058 0.276794
0.285558 0.285771 0.285566
0.306584 0.306610 0.306062
0.303763 0.305459 0.305033
0.263352 0.266757 0.268520
0.303276 0.302717 0.306432
0.256175 0.255652 0.256128
0.325495 0.325932 0.321926
0.314483 0.311995 0.311250
0.326487 0.335220 0.336301
0.275491 0.277114 0.281492
0.285644 0.285318 0.285244
0.232809 0.234124 0.234720
0.397109 0.402132 0.404242
0.220384 0.220212 0.221099
0.298750 0.294392 0.293142
0.313614 0.314698 0.316624
0.393977 0.396396 0.388203
0.269274 0.269706 0.267216
0.267642 0.260551 0.259866
0.280811 0.279620 0.275790
0.297318 0.296512 0.296322
0.227290 0.229950 0.231424
0.322384 0.322012 0.323524
0.280025 0.278108 0.276449
0.260603 0.261466 0.260284
0.282736 0.284659 0.285939
0.271299 0.264999 0.261186
0.303005 0.304546 0.307028
0.275210 0.279085 0.274133
0.337724 0.332481 0.324913
0.273640 0.273184 0.271562
0.304778 0.294015 0.292443
0.264319 0.264629 0.265324
0.324509 0.324364 0.325279
0.283564 0.281269 0.279967
0.220099 0.219367 0.220619
0.347497 0.342029 0.341162
0.245800 0.244551 0.243206
0.320330 0.319271 0.318329
0.280809 0.280312 0.280394
0.264639 0.255889 0.256672
0.280486 0.278367 0.280657
0.310291 0.309480 0.309614
0.283515 0.284769 0.286019
0.273434 0.272182 0.272395
0.264406 0.264134 0.261787
0.310502 0.309844 0.312147
0.224731 0.221914 0.224766
0.279085 0.274133 0.273657
0.299055 0.297715 0.294540
0.319190 0.318482 0.318566
0.275702 0.275835 0.273131
0.318195 0.318616 0.318927
0.269018 0.268659 0.271310
0.315959 0.317740 0.317505
0.342485 0.341986 0.342705
0.295751 0.298101 0.298725
0.309997 0.297081 0.295305
0.238375 0.241714 0.241690
0.228936 0.231546 0.233470
0.270223 0.269654 0.267437
0.200119 0.195524 0.198598
0.270537 0.270409 0.269702
0.273657 0.274985 0.273023
0.303525 0.304316 0.305160
0.267743 0.268701 0.270523
0.312839 0.313733 0.307278
0.320556 0.315896 0.313894
0.281010 0.281217 0.282221
0.253898 0.255881 0.254636
0.339170 0.339149 0.339454
0.268703 0.270966 0.271976
0.278583 0.277629 0.276123
0.298944 0.296147 0.298630
0.235089 0.236245 0.235922
0.197264 0.197816 0.197527
0.339999 0.335237 0.333862
0.324388 0.328916 0.335976
0.338623 0.341823 0.343700
0.285703 0.285908 0.290813
0.207650 0.207249 0.204121
0.261878 0.262592 0.262450
0.207629 0.207496 0.207680
0.215017 0.214915 0.215033
0.315654 0.313378 0.305864
0.273666 0.271412 0.271605
0.285172 0.284526 0.287299
0.281617 0.285505 0.287862
0.285931 0.281470 0.280594
0.333237 0.334376 0.339838
0.259488 0.259862 0.259673
0.333380 0.331544 0.328239
0.303588 0.301357 0.301777
0.308403 0.306726 0.316642
0.313125 0.307048 0.307387
0.347882 0.347639 0.342972
0.178905 0.178774 0.178962
0.282772 0.280311 0.266690
0.349298 0.349224 0.347770
0.261040 0.261266 0.261320
0.244764 0.244794 0.244363
0.273451 0.274085 0.280419
0.240213 0.240779 0.242036
0.273483 0.278735 0.278895
0.276357 0.274204 0.276314
0.254074 0.251391 0.250104
0.284763 0.285608 0.285668
0.252264 0.252554 0.254983
0.307762 0.308562 0.312152
0.196434 0.195796 0.194855
0.297734 0.294629 0.293746
0.381834 0.385286 0.387610
0.314616 0.297948 0.290543
0.300144 0.301224 0.302443
0.210202 0.224759 0.238807
0.177919 0.178639 0.180139
0.267784 0.262203 0.232020
0.365328 0.358924 0.358119
0.259778 0.261878 0.269423
0.266835 0.270251 0.272609
0.317146 0.319071 0.320223
0.231546 0.233470 0.233529
0.294838 0.304268 0.306072
0.301891 0.301510 0.308531
0.373164 0.373837 0.377795
0.263961 0.259287 0.259371
0.216416 0.216700 0.217385
0.266666 0.265715 0.269018
0.324094 0.328845 0.330829
0.254103 0.255167 0.255677
0.318383 0.320298 0.321182
0.308119 0.306484 0.305807
0.316519 0.317229 0.318388
0.399263 0.401904 0.404965
0.260315 0.259696 0.259517
0.275601 0.274593 0.274387
0.281982 0.281919 0.281471
0.343715 0.345008 0.345507
0.310872 0.313296 0.318374
0.289429 0.288785 0.287482
0.290174 0.289842 0.286446
0.347337 0.355763 0.358703
0.224708 0.224399 0.224917
0.380285 0.379280 0.371773
0.228462 0.228000 0.227300
0.273296 0.273137 0.275800
0.240719 0.243012 0.243719
0.285942 0.284843 0.284886
0.281048 0.280980 0.281703
0.259851 0.263633 0.263634
0.295034 0.297878 0.297816
0.281654 0.271806 0.265182
0.296087 0.294312 0.293850
0.270565 0.269601 0.264890
0.313468 0.313623 0.313186
0.279926 0.280911 0.281771
0.259264 0.259778 0.261878
0.322318 0.320786 0.317150
0.265708 0.265855 0.265462
0.287864 0.285957 0.281502
0.225277 0.226366 0.226688
0.260063 0.262898 0.263291
0.342233 0.338176 0.330339
0.214398 0.214111 0.211799
0.201219 0.202841 0.203451
0.231817 0.233424 0.234398
0.280331 0.280238 0.279724
0.273557 0.278289 0.293835
0.285773 0.278416 0.278837
0.228163 0.228720 0.228845
0.246950 0.246157 0.245088
0.227446 0.227323 0.226889
0.274592 0.268521 0.265865
0.222212 0.223019 0.224076
0.342319 0.342289 0.347257
0.267437 0.267200 0.266359
0.345263 0.346169 0.345983
0.260097 0.260121 0.260117
0.295016 0.300035 0.300313
0.271999 0.273640 0.276071
0.290650 0.285258 0.284248
0.268257 0.268387 0.261913
0.220144 0.220487 0.220097
0.266230 0.262392 0.261186
0.283139 0.283412 0.285605
0.222314 0.218203 0.219066
0.324219 0.326812 0.325358
0.340861 0.334969 0.335722
0.303002 0.294074 0.292208
0.270847 0.271416 0.270622
0.302725 0.294804 0.294364
0.267050 0.268111 0.268401
0.341968 0.342388 0.342525
0.282992 0.284072 0.286942
0.303011 0.302452 0.301115
0.239487 0.239542 0.240758
0.304699 0.303817 0.302359
0.307922 0.308252 0.312117
0.240674 0.239941 0.238208
0.258504 0.260675 0.261262
0.273600 0.273498 0.268558
0.317953 0.317942 0.315589
0.291756 0.292999 0.296999
0.268445 0.263150 0.264260
0.337695 0.340100 0.343790
0.292559 0.291122 0.288086
0.246192 0.242918 0.240948
0.284953 0.284531 0.284562
0.277937 0.279252 0.279289
0.242653 0.238929 0.237145
0.270894 0.273372 0.272726
0.274011 0.274905 0.274824
0.276123 0.268841 0.268715
0.272157 0.270852 0.270475
0.287561 0.287465 0.287848
0.315296 0.315520 0.316952
0.288236 0.292604 0.289935
0.224202 0.222133 0.220474
0.284894 0.281331 0.281487
0.262585 0.261243 0.256278
0.228476 0.229794 0.233621
0.322436 0.322165 0.322236
0.215378 0.214706 0.219078
0.257248 0.254727 0.251176
0.278050 0.278728 0.286964
0.265499 0.265642 0.264463
0.348680 0.364440 0.369981
0.289662 0.286511 0.289117
0.375247 0.374480 0.375161
0.210637 0.210022 0.209274
0.275182 0.274288 0.279018
0.251423 0.250453 0.251174
0.264634 0.263962 0.267347
0.344776 0.342973 0.340690
0.283158 0.283371 0.285582
0.261445 0.262459 0.263706
0.260202 0.260663 0.261444
0.246741 0.250377 0.250633
0.293526 0.292244 0.291420
0.327431 0.328183 0.328406
0.313536 0.314112 0.314372
0.293556 0.294265 0.294734
0.300974 0.303892 0.305725
0.214387 0.213439 0.213796
0.186748 0.188058 0.190896
0.293885 0.294591 0.300915
0.256368 0.261298 0.262935
0.312380 0.305980 0.307412
0.221780 0.220368 0.220454
0.252841 0.250857 0.249878
0.204759 0.204814 0.205077
0.256308 0.252130 0.249553
0.220580 0.221169 0.221570
0.247738 0.250268 0.254992
0.303699 0.305451 0.307456
0.308781 0.308599 0.306166
0.265544 0.273613 0.276811
0.306764 0.308806 0.307610
0.226821 0.228900 0.229580
0.276118 0.275169 0.271716
0.249701 0.252651 0.253457
0.241822 0.240776 0.240166
0.311075 0.306155 0.303424
0.309484 0.306513 0.304199
0.297175 0.301848 0.304665
0.256898 0.262271 0.263169
0.276743 0.274899 0.270918
0.293569 0.295731 0.295054
0.207582 0.207650 0.207249
0.349116 0.349243 0.347590
0.300339 0.301429 0.301635
0.248271 0.250156 0.249957
0.287133 0.286349 0.286538
0.304834 0.303358 0.302818
0.322676 0.321466 0.318265
0.385232 0.388557 0.398194
0.301677 0.303058 0.303629
0.279272 0.280198 0.274029
0.248543 0.247246 0.247100
0.252623 0.253763 0.255550
0.331313 0.335204 0.334221
0.320829 0.320547 0.321977
0.289486 0.291798 0.291249
0.245849 0.246233 0.246071
0.319412 0.315285 0.305948
0.303918 0.304398 0.305814
0.321095 0.320961 0.321726
0.243487 0.244955 0.248545
0.251446 0.250117 0.249220
0.259652 0.258710 0.260033
0.273359 0.274025 0.272111
0.268456 0.265572 0.265534
0.259145 0.270187 0.275525
0.207292 0.206949 0.207624
0.200832 0.200725 0.200694
0.209616 0.216039 0.225412
0.222175 0.222039 0.221964
0.179359 0.179286 0.179234
0.247466 0.247383 0.247065
0.301563 0.302797 0.303905
0.279947 0.277617 0.274489
0.234675 0.235796 0.248612
0.267446 0.267249 0.267305
0.267695 0.270863 0.269362
0.294526 0.295437 0.298813
0.278087 0.278335 0.279324
0.309164 0.302225 0.295786
0.237185 0.237090 0.237541
0.278627 0.278196 0.278316
0.302259 0.300340 0.298137
0.322751 0.321845 0.319659
0.239475 0.240117 0.241131
0.222060 0.221812 0.221931
0.225576 0.250116 0.254345
0.376035 0.359845 0.358062
0.268315 0.269222 0.272098
0.338696 0.339373 0.340137
0.320127 0.321859 0.321133
0.320202 0.321458 0.321517
0.290484 0.291578 0.291627
0.293454 0.292648 0.292957
0.267386 0.269401 0.271618
0.252120 0.251972 0.251960
0.331192 0.332818 0.333173
0.256834 0.257139 0.256028
0.273525 0.274672 0.276940
0.335523 0.336746 0.330739
0.268297 0.266097 0.265761
0.227823 0.226762 0.225716
0.220287 0.220668 0.222948
0.283493 0.277996 0.277371
0.319520 0.317371 0.321560
0.254264 0.254145 0.249350
0.264208 0.264606 0.265686
0.284369 0.281503 0.280448
0.256966 0.260475 0.272342
0.272379 0.267747 0.267188
0.267653 0.253657 0.250967
0.347232 0.347492 0.343430
0.314799 0.314656 0.313716
0.284494 0.284583 0.284965
0.250800 0.246263 0.244906
0.327557 0.310318 0.307476
0.286567 0.287295 0.287813
0.246553 0.248375 0.245729
0.288776 0.295514 0.302985
0.294478 0.293960 0.290293
0.219669 0.221982 0.220815
0.320760 0.318748 0.317743
0.319989 0.322346 0.332396
0.203132 0.202921 0.203648
0.287882 0.288219 0.287623
0.200346 0.200322 0.200290
0.376698 0.377348 0.376882
0.267451 0.267057 0.266838
0.249865 0.245676 0.244626
0.277488 0.277349 0.276302
0.228211 0.228476 0.229794
0.371466 0.372226 0.372384
0.340457 0.340261 0.339837
0.261550 0.262597 0.263172
0.207465 0.205943 0.205701
0.240772 0.240432 0.240332
0.319546 0.315534 0.315308
0.294858 0.292681 0.292391
0.304683 0.305120 0.305225
0.288971 0.288356 0.287815
0.318552 0.317839 0.317803
0.276893 0.276214 0.276443
0.306906 0.308578 0.308899
0.229345 0.230753 0.231834
0.279904 0.281199 0.280230
0.385818 0.386614 0.387850
0.267317 0.268280 0.268363
0.277701 0.277303 0.278012
0.283511 0.286567 0.287295
0.297050 0.298723 0.297123
0.264442 0.264199 0.264186
0.308166 0.307338 0.309598
0.298436 0.297511 0.298982
0.387939 0.385395 0.378829
0.220063 0.220263 0.219728
0.287809 0.291184 0.292962
0.299180 0.299055 0.297715
0.263083 0.262415 0.261084
0.319659 0.318957 0.318490
0.330912 0.327854 0.325599
0.420110 0.418439 0.417447
0.328135 0.327478 0.323738
0.173988 0.174853 0.175099
0.253489 0.256104 0.256130
0.257082 0.257365 0.257893
0.265756 0.267017 0.270218
0.216077 0.214857 0.214435
0.247660 0.244382 0.243040
0.279438 0.279800 0.279713
0.385407 0.384845 0.386773
0.322814 0.322242 0.319139
0.277281 0.276759 0.270898
0.285354 0.284974 0.284571
0.296083 0.298717 0.307654
0.259969 0.261265 0.260988
0.282628 0.282214 0.282390
0.262981 0.258863 0.255648
0.286198 0.286628 0.286970
0.298136 0.298617 0.298715
0.278273 0.278052 0.279023
0.259744 0.260381 0.260333
0.222866 0.222870 0.223215
0.304473 0.313211 0.313767
0.246132 0.252594 0.261752
0.262679 0.259574 0.261035
0.320846 0.318412 0.319882
0.278306 0.277546 0.278048
0.251639 0.250321 0.249323
0.267947 0.267225 0.270686
0.288323 0.282772 0.280677
0.279280 0.284904 0.286171
0.271310 0.277807 0.279059
0.286389 0.286649 0.286367
0.298042 0.297756 0.297448
0.277381 0.273093 0.272686
0.262271 0.262525 0.264087
0.258560 0.258350 0.258257
0.284828 0.285429 0.294008
0.240157 0.240844 0.239221
0.315151 0.315393 0.315101
0.258675 0.259145 0.270187
0.366596 0.372277 0.372461
0.287439 0.286019 0.284005
0.291211 0.290333 0.288887
0.250917 0.248778 0.249566
0.318900 0.317561 0.310155
0.264363 0.263382 0.263787
0.285167 0.284317 0.283106
0.290176 0.292617 0.295498
0.289711 0.289249 0.288660
0.315584 0.317240 0.317685
0.238769 0.238355 0.238462
0.258793 0.255574 0.255007
0.286055 0.285644 0.285318
0.339550 0.342842 0.346368
0.241133 0.247989 0.246253
0.252390 0.251683 0.253742
0.249467 0.249916 0.251709
0.213344 0.211942 0.211800
0.264326 0.263795 0.264105
0.271750 0.272386 0.272105
0.304209 0.306231 0.305634
0.284750 0.282428 0.279847
0.287815 0.286181 0.282282
0.245082 0.244100 0.243836
0.398696 0.399378 0.399268
0.284725 0.279442 0.279533
0.241123 0.242334 0.242827
0.328778 0.328796 0.328553
0.290603 0.291666 0.291377
0.379119 0.380645 0.381285
0.303221 0.301406 0.300463
0.273802 0.273905 0.275006
0.259035 0.259456 0.260120
0.387419 0.386311 0.385941
0.223653 0.226524 0.227204
0.335005 0.332243 0.331464
0.301981 0.301664 0.300694
0.264601 0.264930 0.265691
0.290513 0.290696 0.293441
0.341025 0.340566 0.340468
0.259668 0.259919 0.272851
0.292703 0.305324 0.308623
0.231380 0.237131 0.237472
0.344593 0.346278 0.345497
0.280447 0.280496 0.279889
0.261130 0.260896 0.261845
0.371198 0.369311 0.364700
0.266460 0.266369 0.270820
0.338154 0.339046 0.344381
0.226244 0.228448 0.228531
0.304465 0.306558 0.304735
0.253559 0.258914 0.269504
0.278592 0.276223 0.278972
0.327445 0.327880 0.330440
0.298114 0.283682 0.282097
0.328938 0.328784 0.328206
0.225419 0.225766 0.226939
0.290004 0.289657 0.288935
0.281373 0.281233 0.281880
0.288322 0.283438 0.275679
0.294432 0.295963 0.297123
0.332141 0.331265 0.333732
0.304474 0.306761 0.306345
0.180209 0.179483 0.177936
0.274784 0.274192 0.274176
0.254677 0.254212 0.253528
0.264523 0.265923 0.275387
0.295305 0.298528 0.302991
0.272094 0.272046 0.272018
0.326949 0.326479 0.326594
0.294950 0.298606 0.298626
0.349797 0.351107 0.351892
0.293918 0.294566 0.294884
0.267916 0.268570 0.269696
0.179262 0.178930 0.178822
0.321836 0.321543 0.317994
0.278716 0.280715 0.280758
0.292020 0.290709 0.299075
0.214895 0.215610 0.216416
0.217399 0.219382 0.222988
0.321977 0.321995 0.322726
0.243293 0.244300 0.245574
0.266855 0.267987 0.268575
0.224895 0.223934 0.223456
0.261164 0.260761 0.260534
0.343182 0.343380 0.342708
0.270439 0.269739 0.267684
0.315676 0.316513 0.316567
0.291882 0.292144 0.297174
0.283878 0.284353 0.285049
0.272161 0.271837 0.271405
0.250449 0.254758 0.254631
0.241445 0.239532 0.238579
0.271677 0.270323 0.272466
0.378078 0.378288 0.378283
0.249326 0.248262 0.248062
0.298473 0.296511 0.296589
0.401909 0.399538 0.397917
0.289165 0.288193 0.286840
0.173757 0.173988 0.174853
0.236795 0.236726 0.238966
0.348758 0.347964 0.348076
0.307347 0.307363 0.311521
0.228326 0.226874 0.226273
0.221820 0.221928 0.222010
0.330835 0.333624 0.334358
0.322232 0.322702 0.324069
0.289867 0.287108 0.291882
0.323864 0.322446 0.321545
0.287255 0.286396 0.284578
0.203238 0.206156 0.207910
0.389711 0.387686 0.387476
0.284503 0.282224 0.282580
0.262530 0.262679 0.262902
0.317091 0.319422 0.319906
0.287973 0.287030 0.283887
0.254128 0.259547 0.258737
0.256333 0.252211 0.251941
0.327567 0.324886 0.324144
0.272674 0.273344 0.274144
0.251164 0.260401 0.261698
0.259901 0.260155 0.259541
0.259905 0.259981 0.260088
0.259672 0.260345 0.259980
0.286114 0.281783 0.281644
0.288844 0.290083 0.292863
0.265896 0.265307 0.267009
0.306755 0.309821 0.309965
0.258162 0.256224 0.256219
0.220850 0.217082 0.216759
0.238254 0.233254 0.234085
0.289281 0.298460 0.297312
0.248593 0.249177 0.249177
0.268981 0.268890 0.267266
0.278396 0.283772 0.287214
0.309537 0.305512 0.300361
0.324002 0.324080 0.321283
0.271729 0.270247 0.271671
0.340470 0.340116 0.339732
0.268924 0.269023 0.266339
0.220173 0.219986 0.224184
0.315010 0.314534 0.314145
0.307743 0.307637 0.308646
0.274870 0.274584 0.274485
0.187061 0.190924 0.189359
0.300763 0.296350 0.296691
0.314977 0.315560 0.315704
0.296246 0.298111 0.298333
0.258402 0.258004 0.255706
0.374780 0.375574 0.375270
0.293880 0.294914 0.296245
0.291982 0.290667 0.289609
0.225183 0.226336 0.235105
0.265405 0.265708 0.266500
0.265884 0.253392 0.264192
0.259662 0.260225 0.260570
0.294324 0.292335 0.293076
0.287256 0.289184 0.290409
0.296471 0.295727 0.295332
0.279141 0.278011 0.277993
0.297404 0.294814 0.293325
0.234720 0.240869 0.241906
0.209490 0.205683 0.204947
0.307896 0.307340 0.307474
0.296302 0.293977 0.293653
0.293000 0.290740 0.287270
0.298856 0.299003 0.300033
0.305817 0.303380 0.290613
0.309920 0.307267 0.309060
0.301115 0.300599 0.302446
0.225563 0.224658 0.223571
0.279959 0.277643 0.273824
0.231822 0.230957 0.229502
0.254983 0.255540 0.255999
0.270900 0.270612 0.272634
0.347311 0.344930 0.339432
0.342142 0.343715 0.345008
0.260789 0.260726 0.261225
0.349116 0.350804 0.350995
0.238260 0.238786 0.238565
0.197395 0.197427 0.197412
0.296176 0.296727 0.298061
0.366719 0.366303 0.365955
0.262874 0.287656 0.289428
0.295334 0.295310 0.298951
0.274999 0.276142 0.279091
0.206949 0.207624 0.207671
0.343380 0.342708 0.339981
0.275816 0.272267 0.263192
0.308665 0.307044 0.306611
0.283704 0.283934 0.284272
0.265980 0.264367 0.235804
0.298112 0.298860 0.299029
0.277144 0.276656 0.270571
0.291038 0.291771 0.292020
0.322675 0.323197 0.323145
0.298338 0.298156 0.297318
0.261764 0.258452 0.257116
0.315871 0.317211 0.317844
0.305697 0.304483 0.304003
0.271543 0.271995 0.271937
0.298894 0.297797 0.298752
0.272442 0.273651 0.278447
0.342286 0.340181 0.331665
0.305567 0.304880 0.304574
0.227323 0.226889 0.227078
0.316068 0.317374 0.317438
0.269922 0.270237 0.270411
0.306062 0.306197 0.304841
0.294041 0.300782 0.300883
0.229497 0.232041 0.230926
0.235251 0.237455 0.238328
0.270384 0.265986 0.267722
0.307685 0.306935 0.307766
0.263581 0.262941 0.263236
0.298465 0.301608 0.303018
0.218469 0.213100 0.212403
0.305044 0.304504 0.304992
0.288544 0.288204 0.286655
0.292872 0.294566 0.293170
0.329256 0.329049 0.328692
0.294241 0.294264 0.293133
0.260996 0.261564 0.261616
0.352996 0.353434 0.353701
0.235776 0.235799 0.235176
0.223511 0.222462 0.218712
0.318889 0.315329 0.316011
0.246095 0.236783 0.234047
0.228382 0.227296 0.227138
0.294971 0.294241 0.291577
0.179004 0.179162 0.179338
0.241617 0.241272 0.241265
0.215518 0.216217 0.218487
0.253043 0.258502 0.262934
0.234443 0.233396 0.232536
0.342579 0.341985 0.343626
0.226270 0.226678 0.228136
0.270554 0.271618 0.271803
0.241178 0.242671 0.244409
0.228817 0.229309 0.229821
0.244362 0.244992 0.245522
0.242558 0.242115 0.240867
0.250911 0.257121 0.258319
0.273543 0.274620 0.276965
0.247968 0.249382 0.247371
0.311328 0.312761 0.313536
0.255462 0.254893 0.257313
0.307906 0.309978 0.309898
0.237969 0.236562 0.237241
0.222541 0.223011 0.222123
0.271316 0.270344 0.270514
0.219523 0.218715 0.218484
0.263146 0.262688 0.259753
0.312342 0.313476 0.312946
0.251308 0.250842 0.251674
0.203147 0.200978 0.201025
0.225035 0.224573 0.227266
0.285526 0.286171 0.286093
0.312561 0.316688 0.317603
0.298460 0.297312 0.296467
0.344381 0.352124 0.353480
0.327202 0.327206 0.327982
0.300140 0.300208 0.300911
0.274151 0.272262 0.271172
0.279307 0.283374 0.283571
0.294586 0.292695 0.290043
0.280143 0.272711 0.270726
0.286622 0.289388 0.290125
0.377998 0.381025 0.380855
0.326704 0.326945 0.326602
0.335249 0.335722 0.338933
0.271395 0.267818 0.264894
0.274546 0.274527 0.274465
0.271789 0.274888 0.275793
0.278909 0.266640 0.264634
0.383808 0.384997 0.385122
0.283930 0.283382 0.284877
0.218411 0.220502 0.221807
0.345530 0.344773 0.329736
0.387955 0.391773 0.392628
0.241421 0.242354 0.244762
0.362286 0.359306 0.349030
0.283760 0.288010 0.291096
0.328447 0.325363 0.324530
0.269712 0.273610 0.269510
0.239432 0.240715 0.241120
0.252743 0.252595 0.252375
0.330898 0.331216 0.326170
0.310625 0.310756 0.312472
