0.334171 0.332329 0.334485
0.443064 0.444006 0.445123
0.330270 0.330360 0.328450
0.312555 0.317136 0.317130
0.315223 0.316338 0.318512
0.237199 0.277854 0.288504
0.361353 0.370835 0.370559
0.299655 0.300148 0.299651
0.356213 0.361733 0.360062
0.492160 0.491704 0.490192
0.419789 0.430414 0.436380
0.450516 0.410484 0.406425
0.324842 0.327227 0.327680
0.339616 0.325027 0.311968
0.346009 0.345198 0.344827
0.391982 0.392674 0.391534
0.284052 0.284632 0.285412
0.371448 0.369632 0.372632
0.390079 0.389936 0.390715
0.431430 0.429276 0.427433
0.481710 0.482010 0.482149
0.272546 0.273439 0.273580
0.344370 0.347870 0.349208
0.321273 0.323537 0.323306
0.405695 0.407876 0.413915
0.236122 0.243394 0.246139
0.548627 0.548863 0.548798
0.386831 0.387971 0.388561
0.269473 0.269975 0.269518
0.379925 0.378700 0.376262
0.446958 0.450275 0.457518
0.367424 0.361894 0.364480
0.359563 0.358673 0.358960
0.375548 0.377226 0.375096
0.321791 0.318106 0.313239
0.406043 0.403716 0.403557
0.379924 0.379908 0.379872
0.598157 0.601744 0.607430
0.356726 0.357131 0.360237
0.362289 0.360730 0.358541
0.369681 0.369558 0.371444
0.392358 0.392452 0.392219
0.479803 0.477494 0.476896
0.246425 0.247804 0.249996
0.464034 0.465695 0.461800
0.229476 0.232191 0.234699
0.465275 0.463773 0.464755
0.346903 0.346269 0.341874
0.578147 0.577683 0.578855
0.414994 0.414501 0.414783
0.435388 0.434299 0.436402
0.409013 0.406749 0.406489
0.354593 0.355741 0.360014
0.279585 0.280622 0.280428
0.323683 0.324255 0.322473
0.358073 0.357474 0.357473
0.383691 0.384818 0.383766
0.394091 0.393706 0.393729
0.285090 0.284945 0.285445
0.376741 0.376740 0.377931
0.280713 0.281123 0.285204
0.492947 0.490595 0.483716
0.347786 0.344535 0.342617
0.378006 0.387001 0.394772
0.444006 0.445123 0.441615
0.446601 0.445271 0.420787
0.319332 0.320475 0.320425
0.490894 0.490820 0.485524
0.195578 0.193879 0.190536
0.425170 0.425338 0.424537
0.385169 0.383546 0.384543
0.433910 0.422530 0.418407
0.222427 0.223611 0.226490
0.379719 0.381303 0.383112
0.272822 0.275982 0.287425
0.393107 0.393584 0.392212
0.404013 0.407906 0.409068
0.407074 0.407003 0.405101
0.299303 0.299255 0.298329
0.264517 0.263249 0.261092
0.311155 0.310697 0.311681
0.441995 0.441498 0.440915
0.373709 0.375609 0.380954
0.346124 0.349359 0.350998
0.403667 0.405763 0.399279
0.274447 0.274008 0.273741
0.380758 0.386039 0.387878
0.389281 0.390159 0.406437
0.386597 0.386256 0.385687
0.386043 0.389025 0.389422
0.435181 0.440378 0.444048
0.368216 0.367307 0.365363
0.385553 0.382978 0.379144
0.415046 0.417270 0.420831
0.300645 0.300177 0.300584
0.401005 0.399843 0.410954
0.373178 0.373027 0.372319
0.326004 0.326869 0.335280
0.300648 0.304037 0.304222
0.373291 0.374022 0.373965
0.600755 0.600604 0.601135
0.249014 0.246453 0.247187
0.376094 0.374223 0.374200
0.331498 0.327114 0.324534
0.492177 0.491510 0.490057
0.496953 0.496185 0.498139
0.460344 0.461412 0.462710
0.472861 0.471419 0.464832
0.364721 0.366854 0.368784
0.469982 0.467490 0.466625
0.370560 0.369299 0.359201
0.408327 0.410450 0.411006
0.426599 0.429248 0.430464
0.498592 0.497780 0.496515
0.344257 0.345031 0.343373
0.270010 0.270384 0.269695
0.378276 0.375653 0.375924
0.623759 0.626578 0.624813
0.427290 0.425955 0.428746
0.579701 0.578855 0.578651
0.319518 0.321841 0.324005
0.413755 0.413534 0.406160
0.368067 0.367836 0.366726
0.373129 0.371197 0.371369
0.421743 0.421195 0.422177
0.466097 0.465512 0.465494
0.258961 0.258447 0.258461
0.472851 0.471154 0.462007
0.407299 0.406910 0.405885
0.414148 0.415079 0.417990
0.363821 0.364111 0.365512
0.560729 0.572623 0.577999
0.378078 0.378680 0.384171
0.381256 0.380448 0.378801
0.469940 0.466599 0.465250
0.466958 0.465840 0.464432
0.356009 0.354825 0.354955
0.474635 0.472615 0.473610
0.381726 0.380570 0.381116
0.347828 0.348269 0.348393
0.391925 0.390319 0.390462
0.338389 0.340230 0.342772
0.392415 0.392544 0.381402
0.391766 0.385413 0.386114
0.445340 0.445391 0.441046
0.237851 0.238431 0.241041
0.382104 0.381201 0.384111
0.254935 0.255520 0.255252
0.423870 0.423952 0.421435
0.404807 0.406924 0.406773
0.462272 0.466125 0.467577
0.387122 0.378108 0.373602
0.391348 0.390824 0.388168
0.471592 0.470143 0.473111
0.440445 0.447022 0.449025
0.345509 0.351422 0.352464
0.357174 0.363231 0.363885
0.422430 0.423515 0.422675
0.223727 0.224623 0.227130
0.422005 0.419073 0.404489
0.449278 0.453073 0.454932
0.395477 0.387956 0.382243
0.275617 0.269124 0.270413
0.401057 0.400739 0.400480
0.239628 0.238549 0.239026
0.265898 0.268660 0.270187
0.325525 0.325021 0.325314
0.413995 0.413707 0.412773
0.437683 0.440207 0.442981
0.332844 0.331974 0.335174
0.522477 0.517290 0.515361
0.387701 0.388180 0.388584
0.364233 0.364866 0.363329
0.464937 0.462127 0.463538
0.521383 0.516053 0.521418
0.472868 0.470878 0.471004
0.357577 0.362911 0.363860
0.518268 0.517967 0.518335
0.512643 0.511625 0.508568
0.461857 0.449516 0.451476
0.422685 0.420172 0.418393
0.348265 0.348646 0.346089
0.462180 0.461469 0.461673
0.423652 0.425522 0.424951
0.388821 0.390543 0.392156
0.328578 0.329741 0.328146
0.417985 0.419310 0.419436
0.346361 0.346697 0.346769
0.380831 0.378966 0.383221
0.316933 0.319700 0.325358
0.343746 0.343837 0.346913
0.431237 0.430064 0.427130
0.253779 0.253774 0.255528
0.384493 0.389202 0.387398
0.396711 0.396352 0.395024
0.382973 0.382468 0.382953
0.386714 0.383819 0.383689
0.354414 0.352672 0.352523
0.460912 0.460149 0.459308
0.237060 0.236919 0.235838
0.390631 0.389560 0.389599
0.400896 0.397518 0.397423
0.325837 0.325877 0.324974
0.341954 0.342317 0.342402
0.396352 0.395024 0.393112
0.429760 0.430989 0.431337
0.566328 0.568971 0.568748
0.325949 0.324996 0.325111
0.394813 0.394575 0.392448
0.453252 0.455472 0.438754
0.247898 0.247566 0.247304
0.276562 0.271505 0.268601
0.348362 0.347833 0.351844
0.481191 0.482514 0.483151
0.289724 0.291372 0.286253
0.484892 0.483948 0.482136
0.407906 0.409068 0.409083
0.263370 0.263378 0.264212
0.490049 0.485373 0.479403
0.264751 0.274392 0.274567
0.394012 0.391507 0.391531
0.373067 0.374268 0.369956
0.210817 0.210161 0.209300
0.335623 0.335824 0.337000
0.454147 0.454176 0.442008
0.335804 0.336724 0.337080
0.493728 0.494941 0.496401
0.385029 0.387457 0.388319
0.340706 0.341913 0.344248
0.321421 0.326422 0.327052
0.507841 0.511234 0.511190
0.496369 0.480747 0.485563
0.433258 0.433865 0.432810
0.377719 0.377691 0.379774
0.429592 0.442845 0.442694
0.413402 0.412371 0.411903
0.436781 0.435987 0.433496
0.346846 0.346186 0.346629
0.418674 0.425099 0.421138
0.420878 0.420628 0.423778
0.387931 0.388826 0.391694
0.594914 0.597185 0.600394
0.306441 0.306321 0.306113
0.423370 0.422572 0.421456
0.357128 0.356985 0.359178
0.445707 0.443135 0.426353
0.449424 0.447020 0.448544
0.414852 0.413130 0.412768
0.347904 0.346943 0.342547
0.496485 0.497490 0.497463
0.465832 0.472228 0.472131
0.397766 0.391751 0.387663
0.450955 0.451055 0.448658
0.494972 0.493268 0.491885
0.470751 0.463643 0.460334
0.487796 0.488766 0.483537
0.452940 0.455300 0.454030
0.239678 0.238941 0.238489
0.327774 0.328156 0.328457
0.268031 0.268389 0.267893
0.403465 0.408248 0.403885
0.499562 0.498872 0.495777
0.366948 0.373083 0.372544
0.357500 0.357392 0.358434
0.384253 0.381219 0.381420
0.304557 0.301621 0.300411
0.417536 0.416788 0.415656
0.352667 0.351570 0.352951
0.442512 0.444466 0.451697
0.416733 0.417911 0.420831
0.451128 0.454048 0.455004
0.278670 0.276178 0.275728
0.259333 0.258978 0.256143
0.346662 0.347381 0.348709
0.496249 0.498058 0.491480
0.332120 0.336849 0.335566
0.467413 0.463392 0.462727
0.472186 0.472903 0.471136
0.264072 0.264148 0.265304
0.425297 0.422473 0.418431
0.342121 0.342275 0.341616
0.393655 0.391403 0.391167
0.306519 0.305843 0.307427
0.415606 0.415288 0.396606
0.358865 0.359885 0.359818
0.467385 0.466439 0.466288
0.413182 0.423196 0.426829
0.414546 0.407437 0.405219
0.354413 0.355253 0.355651
0.312866 0.311554 0.311090
0.315906 0.313654 0.312897
0.302982 0.304831 0.305634
0.346712 0.353541 0.353826
0.358574 0.359700 0.358851
0.271268 0.271413 0.274106
0.342973 0.343848 0.345855
0.372144 0.371988 0.371913
0.387661 0.386315 0.384904
0.359274 0.361875 0.357320
0.444902 0.444966 0.443268
0.402744 0.401539 0.400703
0.224409 0.224006 0.222696
0.399887 0.401465 0.406082
0.414180 0.418806 0.425361
0.243807 0.242645 0.241390
0.231130 0.230687 0.232643
0.382213 0.388564 0.393264
0.335185 0.335590 0.335318
0.585251 0.588372 0.584843
0.461508 0.462563 0.462691
0.307544 0.300955 0.300691
0.389487 0.386976 0.387870
0.611383 0.610885 0.605393
0.308546 0.308590 0.312168
0.452634 0.454101 0.451412
0.407384 0.407039 0.406437
0.246615 0.249672 0.251777
0.580957 0.578866 0.578775
0.622017 0.623538 0.622767
0.333001 0.331457 0.329773
0.304218 0.304801 0.308661
0.290251 0.290369 0.291825
0.502338 0.498213 0.494574
0.323344 0.321755 0.316134
0.580242 0.585764 0.588752
0.408075 0.407906 0.412847
0.437007 0.435372 0.437748
0.329967 0.330133 0.331115
0.219068 0.220518 0.218602
0.464485 0.469115 0.471061
0.367872 0.368128 0.369209
0.307461 0.307625 0.306815
0.316244 0.318191 0.325782
0.608304 0.609308 0.611933
0.288761 0.285608 0.285060
0.435530 0.435561 0.433492
0.457750 0.453945 0.454184
0.467898 0.467756 0.468018
0.430813 0.425696 0.425183
0.467690 0.466474 0.466306
0.257661 0.260174 0.269725
0.447825 0.447845 0.447435
0.393389 0.393527 0.397963
0.394537 0.393593 0.394702
0.331573 0.330954 0.330617
0.267589 0.266381 0.258005
0.322929 0.334762 0.339089
0.451724 0.452426 0.453154
0.270397 0.270601 0.270649
0.217214 0.217137 0.217534
0.473351 0.474595 0.474730
0.313046 0.319052 0.319773
0.446507 0.447202 0.447244
0.425437 0.425417 0.425636
0.449309 0.447525 0.446596
0.609964 0.611696 0.613137
0.228097 0.229268 0.229364
0.233797 0.232459 0.238589
0.438424 0.435332 0.437434
0.300899 0.301065 0.301005
0.395607 0.393697 0.393454
0.474938 0.470250 0.466197
0.448098 0.445706 0.448529
0.351046 0.348689 0.349918
0.610676 0.609324 0.622366
0.473248 0.470946 0.473827
0.446954 0.444304 0.446855
0.419707 0.423426 0.421391
0.590883 0.593579 0.592386
0.308941 0.309927 0.311159
0.265863 0.272675 0.271934
0.411738 0.413767 0.411029
0.426611 0.426930 0.428230
0.381639 0.381822 0.379913
0.351261 0.352776 0.352942
0.510116 0.513951 0.517339
0.316777 0.321551 0.319167
0.350917 0.348579 0.346404
0.332104 0.340544 0.342067
0.333147 0.334109 0.347593
0.321714 0.323331 0.323192
0.405142 0.406279 0.406604
0.508842 0.511516 0.511208
0.494858 0.494341 0.494933
0.363139 0.363816 0.364666
0.348839 0.352104 0.352541
0.586346 0.587928 0.590306
0.303726 0.303892 0.302988
0.443683 0.447892 0.451072
0.476483 0.475180 0.470751
0.329429 0.329850 0.329612
0.456199 0.456409 0.456989
0.305177 0.305224 0.306689
0.305138 0.301910 0.299037
0.358359 0.357989 0.358191
0.218293 0.218578 0.220523
0.454987 0.449643 0.447245
0.485313 0.486750 0.487056
0.371913 0.373494 0.372425
0.395176 0.392814 0.387772
0.223831 0.224112 0.224420
0.423330 0.419299 0.421351
0.259181 0.255301 0.244399
0.253788 0.254042 0.252040
0.452102 0.447261 0.441081
0.231633 0.230225 0.230173
0.265020 0.265746 0.272609
0.429636 0.436682 0.437554
0.431482 0.429809 0.426600
0.291214 0.291958 0.293566
0.386581 0.375284 0.378213
0.449018 0.450461 0.446769
0.287559 0.286171 0.284450
0.229685 0.229835 0.229542
0.253394 0.251635 0.251982
0.307096 0.309260 0.307524
0.467896 0.469509 0.472172
0.393163 0.394885 0.395365
0.322712 0.321997 0.321078
0.473307 0.478707 0.479013
0.335830 0.336383 0.336251
0.416705 0.418097 0.424470
0.430366 0.429882 0.425304
0.277473 0.279152 0.276550
0.463765 0.464012 0.465228
0.264502 0.264295 0.264695
0.441907 0.441903 0.441818
0.496759 0.496597 0.498198
0.459985 0.461094 0.463831
0.267038 0.262464 0.250765
0.378199 0.376201 0.373953
0.229372 0.230712 0.233759
0.444568 0.443888 0.443395
0.386821 0.407103 0.412173
0.268285 0.267589 0.266381
0.334878 0.350271 0.354345
0.196708 0.198636 0.198493
0.351011 0.350584 0.350170
0.484593 0.486718 0.492991
0.309490 0.309206 0.309207
0.427149 0.428813 0.428179
0.365149 0.370659 0.369447
0.429655 0.433388 0.433246
0.408011 0.415742 0.416169
0.360374 0.358756 0.353905
0.393438 0.393308 0.393018
0.434039 0.435076 0.433127
0.412945 0.413524 0.413755
0.372462 0.376261 0.372613
0.378162 0.380788 0.382639
0.450264 0.449100 0.446227
0.340886 0.341625 0.343482
0.398885 0.398086 0.396194
0.388564 0.390874 0.390612
0.437067 0.439754 0.437240
0.452805 0.449934 0.447489
0.386785 0.386790 0.386952
0.303140 0.305774 0.306596
0.353518 0.347305 0.346430
0.287302 0.284507 0.283615
0.390360 0.388962 0.386473
0.450275 0.457518 0.459167
0.413307 0.419356 0.419756
0.472885 0.472534 0.471822
0.392491 0.390306 0.389038
0.450011 0.449781 0.448193
0.314631 0.297083 0.297552
0.385232 0.386836 0.387488
0.364373 0.362839 0.364746
0.426217 0.426188 0.422076
0.374719 0.375431 0.375375
0.424781 0.421298 0.421399
0.407582 0.407282 0.409146
0.385250 0.385628 0.389386
0.388704 0.391442 0.391433
0.361733 0.360062 0.359883
0.438114 0.431674 0.430186
0.405730 0.404733 0.401619
0.330977 0.330558 0.319906
0.271934 0.272399 0.272072
0.377537 0.370331 0.371360
0.468746 0.465957 0.466845
0.492363 0.493704 0.493194
0.507057 0.496083 0.489129
0.360794 0.360205 0.361187
0.381622 0.381239 0.383195
0.501116 0.497410 0.494185
0.457125 0.456759 0.457125
0.396573 0.396213 0.395666
0.260385 0.262587 0.263591
0.471566 0.471144 0.471391
0.266087 0.265684 0.264583
0.379607 0.376197 0.376328
0.423960 0.424572 0.423483
0.459282 0.460573 0.468765
0.529040 0.529189 0.529883
0.233744 0.231756 0.230307
0.419944 0.419316 0.417308
0.422744 0.426119 0.429454
0.263715 0.261775 0.259858
0.452750 0.451743 0.449515
0.355495 0.355114 0.364387
0.448130 0.451674 0.451723
0.448244 0.444032 0.442264
0.245475 0.243621 0.239060
0.380962 0.376582 0.372222
0.402020 0.404525 0.406631
0.453768 0.449639 0.450247
0.381126 0.381216 0.381996
0.346182 0.348292 0.350673
0.383420 0.382972 0.379832
0.363214 0.362467 0.360506
0.241497 0.246092 0.248190
0.398843 0.400069 0.401289
0.426439 0.422807 0.421512
0.385730 0.388866 0.389613
0.361764 0.359221 0.359576
0.412937 0.412812 0.412407
0.306689 0.298109 0.297176
0.271850 0.271600 0.271845
0.374376 0.376775 0.377209
0.364285 0.362409 0.363064
0.488322 0.485651 0.482127
0.300118 0.297525 0.298391
0.422472 0.423461 0.424245
0.225624 0.228678 0.229164
0.348292 0.350673 0.351025
0.317055 0.318721 0.325608
0.225263 0.225318 0.225634
0.432031 0.431231 0.430526
0.294200 0.295402 0.285132
0.395310 0.407815 0.413385
0.425084 0.425701 0.424463
0.451888 0.452151 0.454738
0.296318 0.296013 0.297697
0.462744 0.460046 0.459832
0.380909 0.382757 0.382241
0.271715 0.273672 0.279585
0.333981 0.333538 0.333860
0.447884 0.444360 0.441239
0.388593 0.386659 0.383641
0.404302 0.396658 0.396178
0.252326 0.252715 0.253117
0.486193 0.492990 0.493103
0.217984 0.222252 0.225770
0.429054 0.429084 0.426404
0.447712 0.448194 0.449185
0.404157 0.403472 0.406442
0.269703 0.266308 0.266359
0.400285 0.401439 0.404762
0.447530 0.446698 0.446676
0.361894 0.364480 0.370092
0.472448 0.467565 0.462666
0.195297 0.200346 0.199737
0.374910 0.373874 0.374629
0.453281 0.453251 0.453616
0.462231 0.462520 0.458576
0.294000 0.297209 0.298497
0.434491 0.435324 0.441767
0.351598 0.351925 0.350283
0.348428 0.346599 0.346796
0.296297 0.303146 0.303753
0.299383 0.304963 0.304553
0.423501 0.421026 0.420752
0.268150 0.268184 0.267876
0.406008 0.402482 0.402014
0.394673 0.395067 0.395244
0.224480 0.224591 0.224725
0.423135 0.425134 0.424440
0.391622 0.389204 0.389715
0.420115 0.419680 0.420323
0.429758 0.425998 0.427323
0.424674 0.429760 0.430989
0.312917 0.313891 0.313872
0.289938 0.289304 0.289349
0.341020 0.334152 0.330487
0.406991 0.405603 0.401833
0.221580 0.226220 0.226415
0.352128 0.346671 0.345210
0.374645 0.373514 0.372999
0.273955 0.274148 0.277433
0.380070 0.378133 0.376121
0.487561 0.486014 0.485048
0.389202 0.387398 0.378904
0.372876 0.372407 0.372213
0.448055 0.448044 0.447314
0.330029 0.322058 0.325425
0.271232 0.272559 0.274057
0.397667 0.394840 0.396111
0.441895 0.447242 0.451310
0.293554 0.288955 0.286062
0.248417 0.248352 0.249944
0.440468 0.438424 0.435332
0.443956 0.441356 0.442932
0.327816 0.330039 0.329860
0.403335 0.400281 0.400711
0.381533 0.380792 0.381015
0.280481 0.279175 0.284999
0.463474 0.464944 0.463977
0.333622 0.336883 0.337283
0.472528 0.469013 0.454687
0.207965 0.212913 0.218664
0.235895 0.233455 0.231588
0.417761 0.419494 0.420656
0.406723 0.402820 0.407598
0.386791 0.386476 0.386193
0.371954 0.373273 0.367784
0.390471 0.394399 0.380807
0.432278 0.431703 0.430311
0.454547 0.456862 0.461069
0.404652 0.404689 0.402941
0.360699 0.358951 0.361225
0.270989 0.272125 0.273817
0.470420 0.471606 0.475201
0.557607 0.558161 0.568976
0.450683 0.455730 0.455102
0.330238 0.330129 0.329860
0.590716 0.589235 0.582685
0.421959 0.420200 0.425414
0.399836 0.399815 0.398233
0.443543 0.450286 0.452621
0.358637 0.357992 0.358813
0.331032 0.330692 0.326439
0.370762 0.369445 0.365495
0.381682 0.382514 0.383078
0.587092 0.588521 0.589850
0.386673 0.385759 0.383879
0.413754 0.413876 0.415076
0.297072 0.296070 0.298586
0.370655 0.371374 0.372310
0.440540 0.441913 0.440591
0.381789 0.381687 0.381256
0.460938 0.462419 0.453991
0.422611 0.427589 0.420644
0.273871 0.274861 0.274167
0.367122 0.361969 0.357016
0.409009 0.410118 0.414391
0.349674 0.350361 0.348118
0.354763 0.357537 0.363859
0.394861 0.392491 0.390306
0.380319 0.382089 0.383016
0.458745 0.457495 0.460433
0.329473 0.328914 0.331758
0.421037 0.413383 0.411866
0.312159 0.312312 0.311677
0.408013 0.404160 0.398083
0.347035 0.358328 0.358319
0.425540 0.426251 0.424758
0.345714 0.346875 0.347959
0.299391 0.299697 0.300155
0.319554 0.319365 0.320513
0.362916 0.362859 0.363586
0.367096 0.365946 0.368189
0.389072 0.388457 0.388458
0.360069 0.358832 0.358785
0.421227 0.421350 0.422226
0.253212 0.253568 0.254877
0.349789 0.346555 0.345389
0.453127 0.454370 0.454763
0.429995 0.430814 0.430261
0.365884 0.361446 0.359230
0.356874 0.357331 0.357742
0.424048 0.414645 0.417152
0.458884 0.455200 0.451761
0.351925 0.350283 0.353226
0.340582 0.340826 0.343225
0.498291 0.499077 0.496438
0.300118 0.296316 0.294879
0.312693 0.314156 0.319140
0.387702 0.388526 0.389775
0.358989 0.354092 0.349972
0.426196 0.424720 0.422113
0.238608 0.242776 0.245832
0.446897 0.448005 0.448128
0.362948 0.367761 0.379281
0.381456 0.379670 0.380792
0.344003 0.343226 0.344618
0.366076 0.363318 0.361188
0.247838 0.247628 0.250125
0.304951 0.309123 0.309429
0.308374 0.309330 0.312713
0.290264 0.289482 0.285507
0.420189 0.411966 0.411515
0.453574 0.453233 0.454288
0.328346 0.315372 0.317575
0.442221 0.446789 0.462236
0.566867 0.565571 0.571949
0.390806 0.391231 0.392958
0.475029 0.476315 0.470542
0.269220 0.269933 0.267513
0.273672 0.279585 0.280622
0.363646 0.364814 0.350472
0.389907 0.390181 0.392359
0.563078 0.569742 0.567879
0.417406 0.419303 0.422661
0.363023 0.368207 0.380477
0.286016 0.286622 0.294037
0.364324 0.378047 0.377021
0.454067 0.444918 0.446579
0.469901 0.465715 0.468909
0.378785 0.381168 0.381168
0.386013 0.386632 0.386386
0.453607 0.453446 0.457318
0.487234 0.482957 0.481350
0.321386 0.328295 0.329241
0.278104 0.272032 0.266417
0.320208 0.319774 0.313218
0.410507 0.408200 0.410120
0.480741 0.478421 0.477062
0.239743 0.232837 0.234958
0.569134 0.569930 0.568967
0.294007 0.293968 0.294515
0.446103 0.445460 0.446449
0.232496 0.231934 0.230435
0.337997 0.339696 0.342000
0.322894 0.321981 0.321017
0.438533 0.440103 0.445991
0.264015 0.264561 0.264624
0.256333 0.256733 0.256921
0.351819 0.351351 0.350133
0.381099 0.380393 0.382581
0.291878 0.293670 0.296984
0.383016 0.382024 0.378962
0.449214 0.452338 0.452237
0.411051 0.410869 0.411030
0.427372 0.426614 0.427095
0.381721 0.381333 0.381738
0.408085 0.410804 0.413267
0.273799 0.271557 0.271501
0.404683 0.403536 0.408757
0.366419 0.365114 0.366149
0.330901 0.330670 0.321999
0.382253 0.383025 0.382364
0.386241 0.388068 0.386832
0.502092 0.500528 0.502321
0.406521 0.406805 0.412730
0.444538 0.446763 0.452165
0.449286 0.446664 0.445475
0.415539 0.397206 0.396625
0.372530 0.393463 0.392710
0.404847 0.405012 0.404840
0.225127 0.225612 0.226946
0.331715 0.337816 0.337217
0.305114 0.303917 0.299042
0.248987 0.252546 0.253626
0.353661 0.351485 0.351127
0.401686 0.411949 0.412076
0.331848 0.332658 0.334255
0.579171 0.580199 0.577983
0.200849 0.201197 0.200153
0.472366 0.475029 0.476315
0.446733 0.442903 0.420879
0.476357 0.475532 0.476551
0.352523 0.352654 0.353813
0.398159 0.398685 0.404517
0.393487 0.390129 0.388474
0.439531 0.438341 0.438903
0.275600 0.275360 0.275100
0.452258 0.449168 0.448176
0.313329 0.314511 0.319805
0.343959 0.346478 0.346636
0.427964 0.429508 0.430215
0.202424 0.198220 0.200740
0.382746 0.382622 0.379924
0.431944 0.430855 0.426844
0.542482 0.543111 0.541704
0.341191 0.336185 0.342466
0.388368 0.392295 0.403720
0.483062 0.481411 0.481870
0.302615 0.302099 0.301542
0.243174 0.241886 0.241442
0.389496 0.386182 0.389273
0.329165 0.329459 0.326906
0.339458 0.340173 0.343703
0.396666 0.394032 0.392230
0.437561 0.437534 0.436193
0.420762 0.422110 0.414824
0.242817 0.242872 0.242995
0.342344 0.345688 0.345920
0.365353 0.369692 0.371981
0.582488 0.582893 0.576691
0.267082 0.270438 0.269627
0.451652 0.450948 0.449734
0.539171 0.530094 0.525348
0.407971 0.402497 0.397109
0.496666 0.494002 0.492471
0.246711 0.248697 0.250981
0.327946 0.328840 0.329480
0.384422 0.384988 0.386604
0.341887 0.341578 0.342285
0.275953 0.276268 0.276512
0.370449 0.370647 0.371248
0.445636 0.445136 0.434716
0.293757 0.293053 0.293078
0.374055 0.370401 0.368400
0.440894 0.439162 0.438213
0.408718 0.407419 0.407193
0.420111 0.423105 0.426440
0.330399 0.330776 0.332786
0.427274 0.429184 0.428745
0.450423 0.449335 0.451071
0.453875 0.443416 0.440546
0.406615 0.408401 0.408292
0.423050 0.426696 0.429778
0.446696 0.446802 0.447210
0.302698 0.279460 0.275757
0.389926 0.389778 0.385082
0.303103 0.303318 0.304042
0.322411 0.322570 0.322478
0.515925 0.513032 0.512095
0.263979 0.264558 0.264517
0.325214 0.321943 0.317063
0.327690 0.328553 0.329562
0.312919 0.311499 0.309668
0.378102 0.380032 0.378408
0.384922 0.384811 0.385945
0.481338 0.470810 0.462606
0.264954 0.264510 0.264063
0.383070 0.386194 0.393950
0.330804 0.324843 0.324406
0.412067 0.409004 0.400401
0.435803 0.435948 0.434389
0.465260 0.464565 0.464520
0.426462 0.408782 0.405263
0.355580 0.353743 0.351893
0.352051 0.352179 0.354502
0.477042 0.478805 0.479543
0.453102 0.454517 0.454725
0.413131 0.413822 0.413962
0.319259 0.320866 0.327264
0.599396 0.601053 0.608560
0.291273 0.293612 0.291973
0.241627 0.241514 0.241428
0.424250 0.425974 0.424890
0.488721 0.488753 0.488160
0.355416 0.358413 0.359223
0.517008 0.535197 0.531521
0.371847 0.375026 0.381104
0.368034 0.369653 0.371317
0.457818 0.458620 0.460417
0.424099 0.422890 0.421231
0.406462 0.409516 0.410519
0.431767 0.422561 0.419079
0.481747 0.482554 0.481711
0.412126 0.408005 0.404391
0.355144 0.355383 0.354263
0.306829 0.303123 0.301462
0.400529 0.401158 0.401401
0.427521 0.427409 0.426013
0.467098 0.466555 0.473892
0.422548 0.425407 0.424319
0.444640 0.445035 0.443952
0.438158 0.448961 0.458333
0.381983 0.384258 0.395084
0.374044 0.374045 0.376094
0.456784 0.452388 0.451406
0.362025 0.363529 0.363254
0.536436 0.535940 0.534108
0.498147 0.497924 0.494858
0.328439 0.327074 0.328371
0.391845 0.393391 0.395073
0.377196 0.378620 0.384715
0.459998 0.455047 0.453013
0.361540 0.360993 0.360814
0.451360 0.449907 0.450205
0.391233 0.390045 0.388778
0.433342 0.433135 0.434114
0.407584 0.409155 0.409190
0.296255 0.296280 0.295593
0.388969 0.388875 0.388566
0.411446 0.409756 0.403917
0.343628 0.346910 0.347794
0.350282 0.352092 0.352594
0.201952 0.200854 0.200339
0.382458 0.382504 0.388876
0.464118 0.463541 0.466157
0.419922 0.425528 0.429348
0.242677 0.243182 0.243493
0.371422 0.375422 0.376141
0.336009 0.333039 0.330079
0.379467 0.378133 0.379132
0.433563 0.433119 0.435196
0.421484 0.422278 0.421546
0.450000 0.449256 0.449283
0.268318 0.269155 0.270099
0.320813 0.319680 0.319264
0.583826 0.582906 0.593963
0.291691 0.294007 0.293968
0.294274 0.296061 0.295213
0.346387 0.345226 0.345754
0.420245 0.421029 0.418889
0.473033 0.474460 0.488242
0.452792 0.451852 0.450463
0.388545 0.387184 0.388025
0.320549 0.325585 0.330033
0.583717 0.577121 0.576125
0.320795 0.311625 0.311237
0.389249 0.387811 0.385995
0.577999 0.579399 0.581799
0.375539 0.373691 0.375395
0.433983 0.438024 0.439822
0.376152 0.375162 0.374356
0.422886 0.432563 0.433970
0.332363 0.331214 0.331535
0.349326 0.352715 0.354436
0.347146 0.344848 0.338651
0.390946 0.390588 0.392630
0.296413 0.299303 0.299255
0.466863 0.465496 0.462885
0.504123 0.502800 0.499315
0.306708 0.302391 0.302545
0.464722 0.460557 0.457976
0.245549 0.244668 0.242678
0.382307 0.386879 0.390648
0.342459 0.340256 0.339102
0.513626 0.514852 0.519365
0.241690 0.241601 0.242018
0.438558 0.440517 0.437128
0.383057 0.384238 0.400861
0.440392 0.434326 0.425569
0.390315 0.390355 0.389790
0.399950 0.398853 0.399168
0.408401 0.408292 0.410459
0.492303 0.488298 0.489843
0.382806 0.381697 0.381385
0.399300 0.401926 0.403402
0.475853 0.476665 0.475815
0.323742 0.323537 0.322305
0.455038 0.450617 0.449038
0.404042 0.401682 0.398341
0.199798 0.190901 0.187841
0.370973 0.370215 0.368203
0.312531 0.313175 0.313807
0.448202 0.453870 0.455299
0.292491 0.296179 0.296799
0.370614 0.368418 0.367633
0.382496 0.382150 0.376216
0.203625 0.203248 0.204251
0.422034 0.418619 0.421018
0.433612 0.438720 0.440049
0.338468 0.336142 0.335463
0.374707 0.374788 0.375194
0.219299 0.219133 0.220429
0.475847 0.476357 0.485484
0.467009 0.464371 0.461270
0.225029 0.224784 0.225364
0.494416 0.495001 0.495400
0.338293 0.336031 0.333431
0.407370 0.403220 0.402443
0.462334 0.464034 0.465695
0.420781 0.419919 0.420511
0.453764 0.454856 0.453462
0.460718 0.468733 0.469801
0.260308 0.260539 0.254057
0.456849 0.469378 0.473375
0.459244 0.459654 0.460603
0.605405 0.602808 0.592436
0.407600 0.416860 0.417782
0.390020 0.389878 0.406526
0.306216 0.309586 0.307843
0.403680 0.406319 0.406608
0.397227 0.398034 0.399780
0.299115 0.299391 0.299424
0.388933 0.389946 0.389095
0.363848 0.363585 0.354526
0.278293 0.278393 0.277438
0.263968 0.264169 0.264623
0.392390 0.392723 0.393244
0.390692 0.387786 0.386165
0.355237 0.356606 0.358538
0.335510 0.337596 0.339276
0.454273 0.452717 0.451022
0.443814 0.439850 0.439831
0.389023 0.386375 0.386785
0.386790 0.386952 0.388261
0.433675 0.436970 0.438546
0.357598 0.359696 0.360699
0.322790 0.318810 0.316232
0.340836 0.341262 0.336864
0.587140 0.588810 0.587832
0.361840 0.369759 0.373781
0.426749 0.426765 0.427995
0.393238 0.391700 0.389908
0.407038 0.411979 0.403914
0.498118 0.497778 0.496584
0.450678 0.450825 0.451784
0.371902 0.392984 0.393888
0.241759 0.244483 0.247091
0.354036 0.352406 0.352105
0.427717 0.428157 0.408833
0.470883 0.469176 0.467233
0.426043 0.424222 0.426324
0.351944 0.346068 0.345503
0.462502 0.459620 0.457280
0.383108 0.382707 0.381689
0.508864 0.500783 0.493776
0.337133 0.313451 0.312105
0.393516 0.393199 0.395393
0.440061 0.439460 0.439782
0.259135 0.259682 0.259333
